ply
format ascii 1.0
element vertex 316
property float32 x
property float32 y
property float32 z
property float32 I
end_header
13.0673 1.1761 2.0099 0.9483
8.8443 2.4409 1.1948 0.9637
8.9055 3.3423 1.2387 0.9624
14.6280 7.0444 1.7434 0.9368
13.2298 2.4009 1.1382 0.9475
14.6301 7.0454 1.3746 0.9369
18.1677 6.8184 1.2033 0.9252
8.7415 1.5864 0.3503 0.9651
16.4749 6.1832 0.2972 0.9320
14.5284 6.9966 0.2724 0.9375
11.6008 6.9312 0.2283 0.9474
11.3092 -14.1813 -0.1021 0.9300
14.8201 -2.6895 -0.0848 0.9415
16.4780 6.1844 -0.0991 0.9320
14.5326 6.9986 -0.0908 0.9375
11.6027 6.9323 -0.0761 0.9474
14.8201 -2.6895 -0.4241 0.9415
13.3617 0.0000 -0.3762 0.9479
13.3617 2.4248 -0.3824 0.9471
5.9689 1.6473 -0.1744 0.9755
11.6046 6.9335 -0.3806 0.9473
14.8201 -2.6895 -0.7639 0.9415
8.6464 -0.7782 -0.4403 0.9658
8.6464 0.0000 -0.4385 0.9660
8.6464 0.7782 -0.4403 0.9658
8.6464 1.5691 -0.4457 0.9654
16.4842 6.1867 -0.8929 0.9319
14.5410 7.0027 -0.8185 0.9374
13.4250 3.7051 -1.0212 0.9457
11.6085 6.9358 -0.9915 0.9472
13.4719 -1.2125 -1.2986 0.9471
16.1498 0.0000 -1.5505 0.9372
11.6104 6.9369 -1.2985 0.9471
15.8244 0.0000 -1.8797 0.9382
16.7693 1.5093 -2.0000 0.9344
16.4935 6.1902 -2.0926 0.9315
11.6123 6.9381 -1.6068 0.9470
-2.5697 -18.9700 -2.7124 0.9256
-0.8540 -19.0161 -2.6971 0.9260
0.8540 -19.0161 -2.6971 0.9260
2.5552 -18.8630 -2.6971 0.9260
7.4219 -17.3644 -2.6757 0.9265
15.4929 -9.2565 -2.5571 0.9297
17.7575 -3.2225 -2.5571 0.9297
15.8279 0.0000 -2.2426 0.9381
16.3973 2.9757 -2.3613 0.9349
13.6000 3.7534 -1.9990 0.9446
16.4966 6.1913 -2.4966 0.9313
14.5581 7.0109 -2.2895 0.9368
11.6143 6.9392 -1.9170 0.9468
-5.2578 -16.1818 -2.8030 0.9333
-2.2006 -16.2452 -2.7007 0.9357
-0.7345 -16.3554 -2.6971 0.9358
3.6431 -15.9614 -2.6971 0.9358
5.0488 -15.5386 -2.6916 0.9359
10.7269 -11.2195 -2.5571 0.9390
11.6895 -10.2128 -2.5571 0.9390
13.3252 -7.9614 -2.5571 0.9390
14.5326 -5.4542 -2.5571 0.9390
15.3168 -2.7796 -2.5645 0.9388
12.9808 -1.1683 -2.1471 0.9485
13.0333 0.0000 -2.1471 0.9485
12.9808 1.1683 -2.1471 0.9485
12.5636 3.4673 -2.1471 0.9485
14.3134 6.8930 -2.6172 0.9376
-2.7240 -8.3835 -1.6569 0.9648
-3.2398 -14.1944 -2.7366 0.9425
0.6407 -14.2662 -2.6842 0.9435
3.1658 -13.8704 -2.6741 0.9437
4.3879 -13.5044 -2.6689 0.9438
6.7021 -12.4546 -2.6584 0.9441
10.2453 -8.9513 -2.5571 0.9461
11.6789 -6.9778 -2.5571 0.9461
12.7371 -4.7804 -2.5571 0.9461
11.3771 -1.0240 -2.1471 0.9546
11.4231 0.0000 -2.1471 0.9546
11.2395 2.0397 -2.1471 0.9546
11.0114 3.0390 -2.1471 0.9546
12.6172 6.0761 -2.6322 0.9446
-1.7124 -12.6413 -2.6965 0.9492
0.5691 -12.6724 -2.6814 0.9495
2.8133 -12.3260 -2.6725 0.9496
5.9598 -11.0751 -2.6585 0.9499
8.4059 -8.7919 -2.5712 0.9515
9.1408 -7.9861 -2.5657 0.9516
11.8020 -3.2572 -2.5880 0.9512
9.9943 -1.8137 -2.1471 0.9593
10.1166 -0.9105 -2.1471 0.9593
9.9943 1.8137 -2.1471 0.9593
9.7915 2.7023 -2.1471 0.9593
9.5098 3.5691 -2.1471 0.9593
10.7501 6.4229 -2.6470 0.9501
-2.5691 -11.2559 -2.7134 0.9537
-1.5400 -11.3685 -2.6963 0.9540
1.5279 -11.2797 -2.6752 0.9543
2.5290 -11.0805 -2.6711 0.9544
6.2219 -9.4257 -2.6544 0.9547
7.6709 -8.0231 -2.6088 0.9554
8.8455 -6.4267 -2.5697 0.9561
9.3726 -5.5999 -2.5660 0.9561
9.8079 -4.7232 -2.5585 0.9563
10.3010 -3.8660 -2.5858 0.9558
8.9889 1.6312 -2.1471 0.9632
8.8064 2.4304 -2.1471 0.9632
8.5531 3.2100 -2.1471 0.9632
8.2310 3.9638 -2.1471 0.9632
9.6788 5.7828 -2.6498 0.9547
-2.3247 -10.1854 -2.7050 0.9578
-0.4669 -10.3968 -2.6946 0.9579
0.4667 -10.3913 -2.6932 0.9579
1.3955 -10.3022 -2.6918 0.9580
2.2960 -10.0594 -2.6715 0.9583
4.0415 -9.4555 -2.6625 0.9584
5.6486 -8.5573 -2.6548 0.9585
6.3839 -8.0052 -2.6511 0.9586
8.0738 -5.8660 -2.5839 0.9596
9.3969 -3.5267 -2.5987 0.9594
9.7297 -2.6852 -2.6134 0.9592
8.1593 -1.4807 -2.1471 0.9663
8.2926 0.0000 -2.1471 0.9663
8.2592 0.7433 -2.1471 0.9663
7.9937 2.2061 -2.1471 0.9663
7.9198 2.9723 -2.1902 0.9657
-2.9781 -9.1656 -2.7282 0.9607
-2.1207 -9.2913 -2.6980 0.9612
-1.2783 -9.4367 -2.6959 0.9612
0.4268 -9.5041 -2.6933 0.9612
2.9207 -8.9891 -2.6757 0.9615
5.8403 -7.3235 -2.6517 0.9618
7.0364 -6.1475 -2.6451 0.9619
7.8695 -4.7018 -2.5951 0.9626
8.2659 -3.9807 -2.5972 0.9626
8.6306 -3.2391 -2.6097 0.9624
8.9322 -2.4651 -2.6232 0.9622
7.9198 -0.7128 -2.2511 0.9675
7.9198 0.7128 -2.2511 0.9675
7.9198 2.1857 -2.3259 0.9664
7.9198 2.9723 -2.3947 0.9654
7.9198 3.8140 -2.4885 0.9641
8.0831 4.8294 -2.6656 0.9616
-2.7323 -8.4091 -2.7196 0.9637
0.3929 -8.7477 -2.6933 0.9640
1.1749 -8.6734 -2.6921 0.9640
4.7562 -7.2054 -2.6555 0.9645
5.3765 -6.7420 -2.6523 0.9646
6.4789 -5.6605 -2.6462 0.9646
6.9526 -5.0514 -2.6433 0.9647
7.3392 -4.3850 -2.6296 0.9649
7.9198 -1.4372 -2.4757 0.9669
7.9198 -0.7128 -2.4458 0.9673
7.9198 1.4372 -2.4757 0.9669
7.8170 3.7644 -2.6686 0.9643
-2.5213 -7.7596 -2.7121 0.9662
-1.0892 -8.0404 -2.6971 0.9664
0.3635 -8.0944 -2.6933 0.9664
1.0872 -8.0260 -2.6922 0.9664
1.8015 -7.8930 -2.6912 0.9664
2.5008 -7.6967 -2.6901 0.9665
3.1794 -7.4387 -2.6891 0.9665
6.4434 -4.6814 -2.6475 0.9670
6.8378 -4.0854 -2.6477 0.9670
7.1352 -3.4361 -2.6325 0.9672
7.6526 -2.1120 -2.6389 0.9671
7.8480 -1.4242 -2.6513 0.9669
7.9198 -0.7128 -2.6432 0.9670
7.9198 0.0000 -2.6326 0.9672
7.7413 2.1365 -2.6695 0.9667
7.5255 2.8244 -2.6719 0.9667
7.2505 3.4917 -2.6750 0.9666
6.9180 4.1333 -2.6788 0.9666
-1.0124 -7.4738 -2.6971 0.9685
-0.3384 -7.5345 -2.6971 0.9685
0.3383 -7.5321 -2.6963 0.9685
1.0106 -7.4607 -2.6924 0.9685
1.6747 -7.3373 -2.6914 0.9685
2.9558 -6.9153 -2.6894 0.9686
3.5625 -6.6203 -2.6885 0.9686
4.1403 -6.2722 -2.6876 0.9686
4.6839 -5.8734 -2.6865 0.9686
6.4170 -3.8340 -2.6731 0.9687
6.8969 -2.5885 -2.6344 0.9692
7.3103 -1.3266 -2.6569 0.9689
7.4310 -0.6688 -2.6681 0.9688
7.3568 1.3351 -2.6738 0.9687
7.0104 2.6311 -2.6777 0.9687
6.7537 3.2524 -2.6806 0.9687
6.4434 3.8497 -2.6841 0.9686
-2.1771 -6.7005 -2.6999 0.9703
0.3158 -7.0309 -2.6971 0.9703
0.9446 -6.9733 -2.6967 0.9703
1.5629 -6.8474 -2.6915 0.9704
2.1696 -6.6774 -2.6906 0.9704
2.7585 -6.4539 -2.6897 0.9704
5.2781 -4.6113 -2.6859 0.9704
5.6689 -4.1187 -2.6853 0.9704
6.0141 -3.5933 -2.6847 0.9704
6.5015 -2.4400 -2.6612 0.9707
6.9482 -0.6254 -2.6734 0.9706
6.9882 0.0000 -2.6780 0.9705
6.7433 1.8610 -2.6808 0.9705
6.3140 3.0407 -2.6856 0.9704
6.0234 3.5988 -2.6889 0.9704
-1.4664 -6.4247 -2.6971 0.9719
-0.8846 -6.5303 -2.6971 0.9719
0.8846 -6.5303 -2.6971 0.9719
2.0346 -6.2617 -2.6946 0.9719
2.5834 -6.0441 -2.6902 0.9720
3.1136 -5.7860 -2.6892 0.9720
4.5370 -4.7453 -2.6870 0.9720
4.9434 -4.3189 -2.6866 0.9720
5.3172 -3.8632 -2.6899 0.9720
5.6494 -3.3754 -2.6934 0.9720
5.9352 -2.8582 -2.6961 0.9719
6.1534 -2.3094 -2.6899 0.9720
6.5148 -0.5863 -2.6771 0.9721
6.5296 0.5877 -2.6832 0.9721
6.4527 1.1710 -2.6841 0.9721
5.9218 2.8518 -2.6901 0.9720
5.6488 3.3750 -2.6931 0.9720
-1.3771 -6.0334 -2.6971 0.9734
0.2777 -6.1824 -2.6971 0.9734
0.8307 -6.1326 -2.6971 0.9734
1.3771 -6.0334 -2.6971 0.9734
1.9124 -5.8857 -2.6971 0.9734
2.4320 -5.6899 -2.6968 0.9734
2.9310 -5.4466 -2.6956 0.9734
4.2718 -4.4679 -2.6940 0.9734
4.6569 -4.0686 -2.6950 0.9734
5.0050 -3.6363 -2.6962 0.9734
5.7940 -2.1745 -2.6971 0.9734
6.0284 -1.0940 -2.6702 0.9736
6.0695 1.1014 -2.6884 0.9734
5.9493 1.6419 -2.6897 0.9734
5.7822 2.1701 -2.6916 0.9734
5.5694 2.6821 -2.6940 0.9734
5.3123 3.1740 -2.6969 0.9734
-0.7821 -5.7740 -2.6971 0.9746
-0.2614 -5.8208 -2.6971 0.9746
0.7821 -5.7740 -2.6971 0.9746
1.8006 -5.5415 -2.6971 0.9746
2.7611 -5.1310 -2.6971 0.9746
3.2099 -4.8628 -2.6971 0.9746
5.4552 -2.0474 -2.6971 0.9746
5.7203 -1.0381 -2.6911 0.9747
5.7739 -0.5197 -2.6834 0.9748
5.8141 0.0000 -2.6913 0.9747
5.7913 0.5212 -2.6915 0.9747
5.7229 1.0386 -2.6923 0.9747
5.6094 1.5481 -2.6936 0.9747
5.4517 2.0461 -2.6954 0.9747
5.2497 2.5281 -2.6971 0.9746
5.0019 2.9885 -2.6971 0.9746
-1.6991 -5.2293 -2.6971 0.9758
-1.2235 -5.3606 -2.6971 0.9758
-0.7381 -5.4486 -2.6971 0.9758
-0.2467 -5.4929 -2.6971 0.9758
0.7381 -5.4486 -2.6971 0.9758
1.2235 -5.3606 -2.6971 0.9758
1.6991 -5.2293 -2.6971 0.9758
2.1610 -5.0559 -2.6971 0.9758
2.6055 -4.8419 -2.6971 0.9758
3.0291 -4.5888 -2.6971 0.9758
3.4282 -4.2988 -2.6971 0.9758
4.4483 -3.2319 -2.6971 0.9758
4.7201 -2.8201 -2.6971 0.9758
5.4101 -0.9818 -2.6971 0.9758
5.4743 -0.4927 -2.6961 0.9758
5.4076 0.9813 -2.6959 0.9758
5.3003 1.4628 -2.6971 0.9758
4.7201 2.8201 -2.6971 0.9758
-1.6066 -4.9445 -2.6971 0.9768
-0.6979 -5.1519 -2.6971 0.9768
0.2333 -5.1937 -2.6971 0.9768
0.6979 -5.1519 -2.6971 0.9768
1.1569 -5.0686 -2.6971 0.9768
2.0433 -4.7806 -2.6971 0.9768
2.4636 -4.5782 -2.6971 0.9768
3.2415 -4.0647 -2.6971 0.9768
3.9152 -3.4206 -2.6971 0.9768
4.4630 -2.6665 -2.6971 0.9768
4.6841 -2.2557 -2.6971 0.9768
4.8674 -1.8268 -2.6971 0.9768
5.0116 -1.3831 -2.6971 0.9768
5.1154 -0.9283 -2.6971 0.9768
5.1780 0.4660 -2.6971 0.9768
5.1154 0.9283 -2.6971 0.9768
4.4630 2.6665 -2.6971 0.9768
-1.5217 -4.6834 -2.6971 0.9778
-0.2209 -4.9194 -2.6971 0.9778
0.2209 -4.9194 -2.6971 0.9778
1.0958 -4.8009 -2.6971 0.9778
1.5217 -4.6834 -2.6971 0.9778
2.7128 -4.1098 -2.6971 0.9778
4.2273 -2.5257 -2.6971 0.9778
4.4367 -2.1366 -2.6971 0.9778
4.7469 -1.3101 -2.6971 0.9778
4.8453 -0.8793 -2.6971 0.9778
4.9046 -0.4414 -2.6971 0.9778
4.9244 0.0000 -2.6971 0.9778
4.6104 1.7303 -2.6971 0.9778
-0.2096 -4.6668 -2.6971 0.9787
0.2096 -4.6668 -2.6971 0.9787
1.0395 -4.5544 -2.6971 0.9787
1.4436 -4.4429 -2.6971 0.9787
1.8360 -4.2956 -2.6971 0.9787
2.2137 -4.1137 -2.6971 0.9787
3.5180 -3.0736 -2.6971 0.9787
4.0103 -2.3960 -2.6971 0.9787
4.2089 -2.0269 -2.6971 0.9787
4.5032 -1.2428 -2.6971 0.9787
4.5964 -0.8341 -2.6971 0.9787
4.6527 -0.4188 -2.6971 0.9787
4.6715 0.0000 -2.6971 0.9787
4.5965 0.8341 -2.6971 0.9787
4.3736 1.6415 -2.6971 0.9787
4.2089 2.0269 -2.6971 0.9787
