ply
format ascii 1.0
element vertex 405
property float32 x
property float32 y
property float32 z
property float32 I
end_header
-4.7758 5.9887 1.3506 0.9694
-4.2315 3.0744 0.9223 0.9790
-4.8643 2.3425 0.9520 0.9783
-4.5274 1.6991 0.8527 0.9806
-4.5779 0.8308 0.8204 0.9813
-4.2168 6.3881 1.1726 0.9695
-4.7712 5.9828 1.1723 0.9695
-4.2863 3.7449 0.8720 0.9772
-4.6574 2.7827 0.8311 0.9783
-4.8586 2.3398 0.8261 0.9784
-4.5241 1.6979 0.7403 0.9806
-7.8176 0.7037 1.2025 0.9687
7.3338 9.1963 1.5317 0.9537
7.4409 11.2726 1.7589 0.9470
-4.2184 6.3906 0.9971 0.9696
-4.2063 4.3994 0.7926 0.9757
-4.2816 3.7407 0.7404 0.9773
-4.2277 3.0716 0.6805 0.9791
-4.8530 2.3371 0.7014 0.9785
-4.7086 1.2995 0.6361 0.9805
-4.5697 0.8293 0.6048 0.9814
-7.8106 0.7031 1.0212 0.9689
8.7793 9.1824 1.3642 0.9502
6.6843 10.1262 1.3029 0.9524
-4.2072 4.4004 0.6538 0.9758
-4.2769 3.7366 0.6098 0.9774
-4.8475 2.3344 0.5777 0.9786
-4.7041 1.2983 0.5240 0.9806
10.6013 7.7023 1.1093 0.9488
9.1869 8.0263 1.0327 0.9522
6.6854 10.1279 1.0273 0.9525
-4.5770 5.7394 0.6214 0.9710
-4.2081 4.4014 0.5155 0.9759
-4.2239 3.0689 0.4420 0.9793
-4.6520 2.7794 0.4587 0.9785
-4.8419 2.3317 0.4549 0.9787
-4.6997 1.2971 0.4127 0.9806
-4.5615 0.8278 0.3925 0.9816
-5.1517 0.4637 0.4379 0.9794
10.6027 7.7033 0.8127 0.9488
9.1883 8.0276 0.7566 0.9523
6.1434 11.4164 0.8039 0.9494
-4.2091 4.4023 0.3777 0.9759
-4.0702 2.9572 0.3120 0.9800
-4.6502 2.7784 0.3359 0.9785
-4.5112 1.6930 0.2988 0.9809
-4.6954 1.2959 0.3020 0.9807
-4.5575 0.8271 0.2872 0.9816
10.6041 7.7043 0.5168 0.9489
6.6875 10.1311 0.4787 0.9526
6.1441 11.4177 0.5113 0.9494
6.0381 18.5832 0.7705 0.9248
-5.0610 15.5762 0.6458 0.9365
-5.4160 12.6713 0.5434 0.9463
-4.4796 8.3243 0.3727 0.9629
-4.2247 6.4002 0.3024 0.9698
-4.0779 2.9628 0.1988 0.9800
-4.6484 2.7773 0.2135 0.9786
-4.6910 1.2947 0.1919 0.9807
10.6055 7.7053 0.2214 0.9489
9.1912 8.0300 0.2062 0.9523
7.1165 8.9240 0.1928 0.9554
6.1448 11.4190 0.2190 0.9494
6.0458 14.1448 0.2598 0.9403
5.6922 17.5191 0.3112 0.9290
-5.0570 15.5639 0.2764 0.9366
-4.2263 6.4026 0.1296 0.9698
-4.2656 5.3490 0.1156 0.9730
-4.2109 4.4043 0.1029 0.9759
-4.0857 2.9684 0.0853 0.9800
-4.6466 2.7762 0.0914 0.9786
-4.5048 1.6906 0.0813 0.9809
-4.5494 0.8256 0.0781 0.9817
9.1926 8.0313 -0.0687 0.9523
7.9848 8.3515 -0.0651 0.9548
7.1175 8.9252 -0.0643 0.9554
6.1455 11.4203 -0.0730 0.9494
-5.0530 15.5517 -0.0921 0.9367
-5.4143 12.6674 -0.0776 0.9464
-4.4810 8.3270 -0.0532 0.9629
-4.2633 5.3462 -0.0385 0.9730
-4.0934 2.9741 -0.0285 0.9800
-4.6449 2.7752 -0.0305 0.9786
-4.5016 1.6894 -0.0271 0.9810
-4.6823 1.2923 -0.0273 0.9808
-4.5454 0.8249 -0.0260 0.9817
-5.1344 0.4621 -0.0290 0.9796
10.6083 7.7074 -0.3692 0.9489
9.1940 8.0325 -0.3438 0.9523
7.1185 8.9264 -0.3215 0.9553
6.1462 11.4216 -0.3652 0.9494
6.0463 14.1461 -0.4332 0.9403
-2.6171 11.4663 -0.3312 0.9540
-5.4134 12.6655 -0.3878 0.9464
-4.4818 8.3283 -0.2663 0.9629
-4.2295 6.4074 -0.2162 0.9697
-4.2611 5.3434 -0.1924 0.9730
-4.1012 2.9798 -0.1427 0.9799
-4.5414 0.8242 -0.1300 0.9817
9.1954 8.0337 -0.6192 0.9523
7.9874 8.3542 -0.5862 0.9548
7.1195 8.9276 -0.5791 0.9553
6.0466 14.1468 -0.7802 0.9402
5.6913 17.5162 -0.9340 0.9289
-5.4126 12.6635 -0.6984 0.9463
-4.2311 6.4098 -0.3895 0.9697
-4.8093 2.3160 -0.2707 0.9788
-4.5375 0.8235 -0.2339 0.9817
10.6111 7.7094 -0.9617 0.9488
6.0469 14.1474 -1.1281 0.9402
5.6910 17.5152 -1.3503 0.9288
-2.6171 11.4663 -0.8624 0.9539
-4.2146 4.4081 -0.4472 0.9758
-4.2400 3.7043 -0.4128 0.9777
-4.6396 2.7720 -0.3963 0.9786
7.9900 8.3569 -1.1100 0.9546
7.1214 8.9301 -1.0966 0.9551
6.1483 11.4256 -1.2457 0.9492
6.0472 14.1481 -1.4772 0.9400
5.6907 17.5143 -1.7680 0.9287
-4.4839 8.3322 -0.9084 0.9627
-4.2343 6.4147 -0.7379 0.9696
-4.2544 5.3350 -0.6551 0.9730
-4.2155 4.4091 -0.5856 0.9758
-4.1250 2.9970 -0.4895 0.9797
-4.7984 2.3108 -0.5113 0.9788
-4.4889 1.6847 -0.4603 0.9809
-4.6650 1.2875 -0.4646 0.9807
-5.1171 0.4606 -0.4932 0.9796
7.1224 8.9314 -1.3570 0.9550
6.6950 10.1424 -1.4436 0.9522
6.0475 14.1487 -1.8278 0.9399
-5.4101 12.6576 -1.6351 0.9461
-4.4846 8.3336 -1.1241 0.9626
-4.2359 6.4171 -0.9133 0.9695
-4.2522 5.3321 -0.8101 0.9729
-4.6360 2.7699 -0.6415 0.9785
-4.7930 2.3082 -0.6319 0.9788
-4.6607 1.2863 -0.5743 0.9807
-5.1127 0.4602 -0.6098 0.9795
10.6154 7.7125 -1.8591 0.9484
6.1498 11.4283 -1.8388 0.9489
5.6900 17.5123 -2.6090 0.9283
4.3127 18.8952 -2.7461 0.9247
0.8696 19.3616 -2.7461 0.9247
-2.6193 19.3368 -2.7648 0.9242
-5.0291 15.4781 -2.3059 0.9364
-5.4092 12.6556 -1.9501 0.9459
-4.4853 8.3349 -1.3411 0.9625
-4.2375 6.4196 -1.0899 0.9694
-4.2499 5.3293 -0.9658 0.9728
-4.1411 3.0087 -0.7253 0.9795
-4.6342 2.7688 -0.7649 0.9784
-4.4825 1.6823 -0.6784 0.9808
-4.6563 1.2851 -0.6844 0.9807
10.6168 7.7135 -2.1619 0.9482
6.1505 11.4296 -2.1382 0.9487
2.2376 16.5185 -2.7461 0.9347
-0.7479 16.6526 -2.7461 0.9347
-5.0251 15.4657 -2.6789 0.9362
-4.4860 8.3362 -1.5595 0.9624
-4.2477 5.3265 -1.1223 0.9728
-4.2215 3.6882 -0.9235 0.9775
-4.7821 2.3029 -0.8744 0.9787
-4.6520 1.2839 -0.7950 0.9806
-4.5174 0.8198 -0.7563 0.9816
-5.1040 0.4594 -0.8442 0.9794
10.6182 7.7146 -2.4670 0.9480
6.1512 11.4310 -2.4399 0.9485
5.7339 13.4152 -2.7422 0.9423
0.6555 14.5952 -2.7461 0.9423
-4.6693 14.3706 -2.8401 0.9404
-5.4075 12.6516 -2.5861 0.9455
-4.2454 5.3236 -1.2799 0.9727
-4.2193 4.4131 -1.1476 0.9755
-4.6306 2.7667 -1.0139 0.9783
-4.6476 1.2827 -0.9062 0.9806
-4.5133 0.8191 -0.8622 0.9815
10.3391 7.5118 -2.7014 0.9491
9.2055 8.0425 -2.5839 0.9513
7.9966 8.3638 -2.4460 0.9538
7.1265 8.9364 -2.4161 0.9543
6.6994 10.1491 -2.5705 0.9515
6.1394 11.4089 -2.7386 0.9484
5.1059 11.9458 -2.7461 0.9483
4.0146 12.3555 -2.7461 0.9483
2.8909 12.6656 -2.7461 0.9483
-4.1227 12.6883 -2.8201 0.9469
-4.4875 8.3390 -2.0017 0.9620
-4.2424 6.4270 -1.6278 0.9690
-4.2203 4.4141 -1.2909 0.9753
-4.1501 3.0152 -1.0843 0.9792
-4.6287 2.7656 -1.1398 0.9782
-4.7711 2.2976 -1.1194 0.9786
-4.4728 1.6786 -1.0099 0.9807
-4.6431 1.2815 -1.0182 0.9805
-4.5092 0.8183 -0.9687 0.9814
9.3192 6.7708 -2.7073 0.9538
7.9980 8.3652 -2.7200 0.9536
7.1275 8.9377 -2.6867 0.9541
6.4137 9.7163 -2.7362 0.9533
3.6107 11.1125 -2.7461 0.9531
2.6000 11.3914 -2.7461 0.9531
1.5684 11.5786 -2.7461 0.9531
0.5242 11.6726 -2.7461 0.9531
-0.5242 11.6726 -2.7461 0.9531
-1.5684 11.5787 -2.7461 0.9531
-2.6178 11.4695 -2.7649 0.9528
-4.4882 8.3403 -2.2260 0.9618
-4.2407 5.3178 -1.5986 0.9724
-4.1468 3.0129 -1.2047 0.9792
-4.6269 2.7645 -1.2667 0.9781
-4.7655 2.2950 -1.2431 0.9785
-4.6387 1.2802 -1.1310 0.9804
-4.5051 0.8176 -1.0761 0.9814
-5.0907 0.4582 -1.2013 0.9792
8.4684 6.1526 -2.7102 0.9577
7.9040 6.9055 -2.7175 0.9576
6.5853 8.2577 -2.7347 0.9573
5.8328 8.8362 -2.7413 0.9572
4.1685 9.7526 -2.7461 0.9571
1.4237 10.5101 -2.7461 0.9571
0.4758 10.5954 -2.7461 0.9571
-0.4758 10.5954 -2.7461 0.9571
-1.4237 10.5101 -2.7461 0.9571
-2.3684 10.3767 -2.7558 0.9570
-4.2901 10.0373 -2.8263 0.9559
-4.4890 8.3417 -2.4527 0.9616
-4.2027 3.6718 -1.4450 0.9772
-4.6250 2.7633 -1.3950 0.9780
-4.7599 2.2922 -1.3679 0.9784
-4.4662 1.6761 -1.2351 0.9805
-4.6342 1.2790 -1.2447 0.9803
7.2464 6.3310 -2.7240 0.9608
4.5967 8.5421 -2.7461 0.9605
2.1585 9.4571 -2.7461 0.9605
0.4352 9.6906 -2.7461 0.9605
-0.4352 9.6906 -2.7461 0.9605
-2.1602 9.4643 -2.7482 0.9604
-3.9041 9.1342 -2.8121 0.9595
-4.4897 8.3431 -2.6822 0.9614
-4.2360 5.3119 -1.9234 0.9722
-4.1402 3.0081 -1.4488 0.9789
-4.7542 2.2895 -1.4938 0.9783
-4.6296 1.2777 -1.3596 0.9802
-4.4968 0.8161 -1.2938 0.9812
7.1674 5.2074 -2.7249 0.9636
6.1483 6.4306 -2.7365 0.9635
4.9185 7.4512 -2.7461 0.9633
4.2308 7.8621 -2.7461 0.9633
3.5090 8.2097 -2.7461 0.9633
1.9867 8.7043 -2.7461 0.9633
0.4006 8.9191 -2.7461 0.9633
-1.1984 8.8473 -2.7461 0.9633
-4.2242 4.4182 -1.8801 0.9747
-4.1930 3.6633 -1.7126 0.9770
-4.1369 3.0056 -1.5728 0.9788
-4.4595 1.6736 -1.4651 0.9803
-4.4925 0.8153 -1.4044 0.9811
-5.0770 0.4570 -1.5679 0.9789
6.6464 4.8289 -2.7308 0.9660
2.5529 7.8570 -2.7461 0.9658
0.3706 8.2530 -2.7461 0.9658
-1.1089 8.1865 -2.7461 0.9658
-1.8383 8.0542 -2.7461 0.9658
-3.2983 7.7167 -2.7896 0.9652
-4.2510 6.4400 -2.5650 0.9680
-4.2253 4.4193 -2.0324 0.9746
-4.1335 3.0032 -1.6983 0.9787
-4.6204 1.2752 -1.5933 0.9800
-4.4882 0.8145 -1.5163 0.9810
6.1897 4.4971 -2.7360 0.9680
3.6389 6.7622 -2.7461 0.9679
3.0181 7.0611 -2.7461 0.9679
2.3730 7.3033 -2.7461 0.9679
0.3445 7.6714 -2.7461 0.9679
-3.0562 7.1503 -2.7808 0.9675
-4.2528 6.4428 -2.7606 0.9677
-4.2288 5.3028 -2.4255 0.9716
-4.2263 4.4204 -2.1870 0.9744
-4.7368 2.2811 -1.8801 0.9779
-4.4839 0.8137 -1.6297 0.9808
-5.0676 0.4561 -1.8196 0.9786
5.7857 4.2036 -2.7406 0.9698
4.9521 5.1795 -2.7461 0.9698
4.4679 5.6025 -2.7461 0.9698
2.8164 6.5892 -2.7461 0.9698
1.5946 6.9862 -2.7461 0.9698
0.9619 7.1010 -2.7461 0.9698
-0.9619 7.1010 -2.7461 0.9698
-1.5946 6.9862 -2.7461 0.9698
-2.2178 6.8256 -2.7503 0.9697
-3.4565 6.4234 -2.7953 0.9692
-4.0494 6.1346 -2.8169 0.9690
-4.2263 5.2997 -2.5977 0.9714
-4.2273 4.4215 -2.3442 0.9741
-4.6154 2.7576 -2.0604 0.9772
-4.7309 2.2783 -2.0122 0.9778
-4.4490 1.6697 -1.8211 0.9798
-4.4795 0.8129 -1.7446 0.9807
5.4254 3.9418 -2.7447 0.9714
3.6963 5.5997 -2.7461 0.9714
1.4930 6.5414 -2.7461 0.9714
0.3010 6.7029 -2.7461 0.9714
-0.3010 6.7029 -2.7461 0.9714
-1.4930 6.5414 -2.7461 0.9714
-2.0734 6.3813 -2.7461 0.9714
-3.2268 5.9965 -2.7870 0.9710
-3.7784 5.7240 -2.8070 0.9708
-4.2238 5.2965 -2.7726 0.9711
-4.1730 3.6458 -2.2679 0.9763
-4.1230 2.9956 -2.0858 0.9782
-4.6061 1.2712 -1.9556 0.9796
4.3544 4.5544 -2.7461 0.9729
1.4021 6.1431 -2.7461 0.9729
-0.8458 6.2440 -2.7461 0.9729
-1.4021 6.1431 -2.7461 0.9729
-4.0288 5.0520 -2.8162 0.9722
-4.1194 2.9929 -2.2191 0.9780
-4.4418 1.6670 -2.0677 0.9795
-4.6011 1.2699 -2.0802 0.9794
-5.0530 0.4548 -2.2111 0.9781
4.7996 3.4871 -2.7461 0.9742
4.4677 3.9033 -2.7461 0.9742
3.2682 4.9512 -2.7461 0.9742
2.8112 5.2242 -2.7461 0.9742
2.3317 5.4552 -2.7461 0.9742
1.8333 5.6422 -2.7461 0.9742
0.2662 5.9266 -2.7461 0.9742
-1.3201 5.7838 -2.7461 0.9742
-1.8333 5.6422 -2.7461 0.9742
-3.3210 5.0311 -2.7904 0.9738
-3.7811 4.7414 -2.8071 0.9736
-4.1157 2.9903 -2.3548 0.9778
-4.6092 2.7539 -2.4854 0.9766
-4.7125 2.2694 -2.4211 0.9772
-4.4381 1.6656 -2.1943 0.9793
-5.0480 0.4543 -2.3461 0.9779
4.5291 3.2906 -2.7461 0.9754
3.8688 4.0464 -2.7461 0.9754
3.4905 4.3769 -2.7461 0.9754
2.6529 4.9298 -2.7461 0.9754
2.2003 5.1478 -2.7461 0.9754
1.7300 5.3243 -2.7461 0.9754
0.2512 5.5927 -2.7461 0.9754
-0.7515 5.5476 -2.7461 0.9754
-1.2457 5.4580 -2.7461 0.9754
-1.7300 5.3243 -2.7461 0.9754
-3.5578 4.4613 -2.7990 0.9749
-3.9642 4.1462 -2.8138 0.9748
-4.1571 3.6320 -2.7078 0.9757
-4.1120 2.9876 -2.4932 0.9776
-4.6071 2.7526 -2.6325 0.9764
-4.5910 1.2671 -2.3362 0.9790
-5.0429 0.4539 -2.4837 0.9777
4.2824 3.1114 -2.7461 0.9764
2.0804 4.8674 -2.7461 0.9764
1.1779 5.1607 -2.7461 0.9764
0.7106 5.2455 -2.7461 0.9764
0.2375 5.2881 -2.7461 0.9764
-0.2375 5.2881 -2.7461 0.9764
-0.7105 5.2455 -2.7461 0.9764
-1.6357 5.0343 -2.7461 0.9764
-2.5223 4.6873 -2.7614 0.9763
-3.7372 3.9089 -2.8056 0.9759
-4.0913 3.5745 -2.8184 0.9758
-4.1082 2.9848 -2.6344 0.9774
-4.6996 2.2632 -2.7061 0.9768
-4.4305 1.6627 -2.4550 0.9789
-5.0376 0.4534 -2.6240 0.9775
3.4649 3.6240 -2.7461 0.9774
3.1261 3.9200 -2.7461 0.9774
2.7621 4.1844 -2.7461 0.9774
2.3759 4.4152 -2.7461 0.9774
1.9705 4.6104 -2.7461 0.9774
1.1157 4.8881 -2.7461 0.9774
0.2250 5.0088 -2.7461 0.9774
-0.2249 5.0088 -2.7461 0.9774
-0.6730 4.9685 -2.7461 0.9774
-1.1157 4.8881 -2.7461 0.9774
-1.5494 4.7684 -2.7461 0.9774
-3.1703 3.9754 -2.7850 0.9771
-3.5304 3.6925 -2.7981 0.9770
-3.8639 3.3758 -2.8102 0.9769
-4.4372 2.6511 -2.8310 0.9767
-4.6710 2.2494 -2.8395 0.9766
-4.4265 1.6612 -2.5896 0.9787
-4.4513 0.8078 -2.4778 0.9796
-5.0323 0.4529 -2.7674 0.9772
3.8480 2.7957 -2.7461 0.9783
3.5819 3.1294 -2.7461 0.9783
3.2870 3.4379 -2.7461 0.9783
2.9656 3.7187 -2.7461 0.9783
2.6203 3.9695 -2.7461 0.9783
2.2539 4.1884 -2.7461 0.9783
1.8694 4.3736 -2.7461 0.9783
1.0584 4.6371 -2.7461 0.9783
0.2134 4.7516 -2.7461 0.9783
-0.2134 4.7516 -2.7461 0.9783
-1.0584 4.6371 -2.7461 0.9783
-2.2586 4.1972 -2.7518 0.9782
-3.6556 3.1938 -2.8026 0.9778
-4.1964 2.5072 -2.8223 0.9777
-4.4167 2.1270 -2.8303 0.9776
-4.4462 0.8069 -2.6090 0.9793
