ply
format ascii 1.0
element vertex 449
property float32 x
property float32 y
property float32 z
property float32 I
end_header
-4.2157 6.3866 1.3493 0.9694
-4.7742 5.9866 1.3502 0.9694
-4.2048 4.3979 1.0729 0.9756
-4.2305 3.0736 0.9220 0.9790
-4.6583 2.7832 0.9568 0.9782
-4.5255 1.6984 0.8523 0.9806
-7.8221 0.7041 1.3848 0.9686
-4.7695 5.9807 1.1719 0.9695
-4.2840 3.7429 0.8715 0.9772
-4.2286 3.0722 0.8007 0.9791
-4.5222 1.6972 0.7400 0.9806
8.8240 9.2292 1.6627 0.9498
7.3341 9.1967 1.5318 0.9537
7.4409 11.2726 1.7589 0.9470
-4.2190 6.3915 0.9973 0.9696
-4.2067 4.3999 0.7927 0.9757
-4.2793 3.7387 0.7400 0.9773
-4.6547 2.7810 0.7061 0.9784
-4.8501 2.3357 0.7010 0.9785
-4.5672 0.8289 0.6045 0.9815
7.3356 9.1985 1.2634 0.9538
6.6845 10.1266 1.3030 0.9524
-4.2206 6.3939 0.8227 0.9696
-4.7602 5.9691 0.8198 0.9698
-4.2746 3.7346 0.6095 0.9774
-4.6529 2.7800 0.5820 0.9784
-4.8446 2.3330 0.5774 0.9786
-4.5157 1.6947 0.5179 0.9808
-4.7016 1.2976 0.5237 0.9806
-4.5631 0.8281 0.4980 0.9815
-5.1538 0.4639 0.5557 0.9794
10.6016 7.7025 1.1093 0.9488
-5.8938 13.7896 1.2695 0.9416
-4.1786 6.3302 0.6421 0.9700
-4.5771 5.7394 0.6214 0.9710
-4.2086 4.4018 0.5155 0.9758
-4.8390 2.3304 0.4547 0.9787
-4.5125 1.6935 0.4080 0.9808
-4.5591 0.8274 0.3922 0.9816
-5.1494 0.4635 0.4377 0.9795
10.6030 7.7035 0.8127 0.9488
9.1887 8.0279 0.7566 0.9523
7.1148 8.9218 0.7076 0.9553
6.6867 10.1299 0.7527 0.9525
6.1435 11.4166 0.8039 0.9494
6.0453 14.1436 0.9538 0.9402
6.0381 18.5832 1.2117 0.9247
-5.4166 12.6729 0.8546 0.9463
-5.2445 9.7459 0.6863 0.9566
-4.2092 6.3765 0.4738 0.9698
-4.2652 3.7264 0.3512 0.9776
-4.6493 2.7778 0.3358 0.9785
-4.5093 1.6923 0.2987 0.9809
-4.5550 0.8267 0.2871 0.9816
10.6044 7.7045 0.5169 0.9489
6.1442 11.4180 0.5113 0.9494
6.0381 18.5832 0.7705 0.9248
-5.0603 15.5740 0.6457 0.9365
-5.4158 12.6709 0.5434 0.9463
-4.4798 8.3247 0.3728 0.9629
-4.2254 6.4011 0.3024 0.9698
-4.2669 5.3506 0.2699 0.9730
-4.6475 2.7768 0.2135 0.9786
-4.8281 2.3251 0.2113 0.9788
10.6058 7.7055 0.2214 0.9489
7.9838 8.3504 0.1951 0.9548
6.6888 10.1331 0.2051 0.9526
6.1449 11.4193 0.2190 0.9494
-5.0563 15.5618 0.2764 0.9366
-5.4150 12.6690 0.2327 0.9464
-4.4805 8.3260 0.1597 0.9629
-4.2560 3.7184 0.0955 0.9776
-4.6457 2.7757 0.0914 0.9786
-4.5029 1.6899 0.0812 0.9809
-4.6841 1.2928 0.0821 0.9807
10.6072 7.7066 -0.0738 0.9489
7.9851 8.3518 -0.0651 0.9548
6.0461 14.1456 -0.0866 0.9403
-5.0523 15.5495 -0.0921 0.9367
-5.4141 12.6670 -0.0776 0.9464
-4.4812 8.3274 -0.0532 0.9629
-4.2285 6.4059 -0.0432 0.9698
-4.2123 4.4057 -0.0343 0.9759
-4.2514 3.7144 -0.0318 0.9777
-4.6440 2.7746 -0.0305 0.9786
-4.6798 1.2916 -0.0273 0.9808
-4.5430 0.8245 -0.0260 0.9817
-5.1320 0.4619 -0.0290 0.9796
9.1943 8.0328 -0.3438 0.9523
7.1187 8.9267 -0.3215 0.9553
6.6909 10.1363 -0.3420 0.9526
6.1463 11.4219 -0.3652 0.9494
6.0464 14.1462 -0.4332 0.9403
-4.4820 8.3287 -0.2663 0.9629
-4.2301 6.4083 -0.2162 0.9697
-4.2602 5.3422 -0.1924 0.9730
-4.1056 2.9829 -0.1429 0.9799
-4.6422 2.7736 -0.1523 0.9786
-4.4966 1.6875 -0.1352 0.9810
-4.6755 1.2904 -0.1366 0.9808
-5.1277 0.4615 -0.1450 0.9796
10.6100 7.7086 -0.6651 0.9488
9.1957 8.0340 -0.6193 0.9523
7.9877 8.3545 -0.5862 0.9548
6.6920 10.1379 -0.6160 0.9525
6.1471 11.4232 -0.6579 0.9494
-5.4124 12.6631 -0.6984 0.9463
-4.2580 5.3394 -0.3463 0.9730
-4.2422 3.7064 -0.2857 0.9777
-4.1135 2.9886 -0.2579 0.9798
-4.6404 2.7725 -0.2741 0.9786
-4.8064 2.3146 -0.2705 0.9789
-4.4934 1.6863 -0.2434 0.9810
-4.6712 1.2892 -0.2458 0.9808
-4.5350 0.8230 -0.2337 0.9817
-5.1233 0.4611 -0.2609 0.9796
10.6114 7.7096 -0.9617 0.9488
9.1971 8.0353 -0.8955 0.9522
6.1478 11.4245 -0.9513 0.9493
6.0470 14.1475 -1.1281 0.9402
5.6909 17.5151 -1.3503 0.9288
-2.6171 11.4663 -0.8624 0.9539
-5.0404 15.5129 -1.1960 0.9367
-4.4834 8.3313 -0.6937 0.9628
-4.2333 6.4131 -0.5634 0.9697
-4.2557 5.3366 -0.5005 0.9730
-4.2377 3.7024 -0.4126 0.9777
-4.6387 2.7715 -0.3962 0.9786
-4.8010 2.3120 -0.3907 0.9789
-4.4903 1.6851 -0.3517 0.9809
-4.6669 1.2880 -0.3550 0.9808
-4.5310 0.8223 -0.3377 0.9817
9.1986 8.0365 -1.1727 0.9521
7.9903 8.3572 -1.1100 0.9546
7.1217 8.9304 -1.0966 0.9551
6.6941 10.1412 -1.1666 0.9523
5.6906 17.5141 -1.7680 0.9287
-5.0364 15.5006 -1.5647 0.9366
-4.4841 8.3326 -0.9085 0.9627
-4.2349 6.4155 -0.7380 0.9696
-4.2535 5.3338 -0.6550 0.9730
-4.2160 4.4096 -0.5857 0.9758
-4.2331 3.6983 -0.5397 0.9777
-4.6369 2.7704 -0.5186 0.9785
-4.7956 2.3094 -0.5110 0.9788
-4.4871 1.6840 -0.4601 0.9809
-4.5270 0.8216 -0.4417 0.9817
-5.1147 0.4603 -0.4930 0.9796
7.9916 8.3586 -1.3737 0.9545
7.1227 8.9317 -1.3570 0.9550
6.6952 10.1428 -1.4436 0.9522
6.0475 14.1488 -1.8278 0.9399
5.6903 17.5131 -2.1874 0.9285
-5.4099 12.6572 -1.6351 0.9461
-4.4848 8.3339 -1.1242 0.9626
-4.2512 5.3310 -0.8100 0.9729
-4.1374 3.0060 -0.6075 0.9796
-4.6351 2.7693 -0.6414 0.9785
-4.7902 2.3068 -0.6315 0.9788
-4.6582 1.2856 -0.5740 0.9807
-4.5230 0.8208 -0.5460 0.9817
9.2014 8.0390 -1.7312 0.9518
7.9929 8.3600 -1.6388 0.9543
6.6963 10.1445 -1.7223 0.9521
6.1499 11.4285 -1.8389 0.9489
6.0478 14.1495 -2.1803 0.9397
5.6900 17.5121 -2.6090 0.9283
4.2127 18.4569 -2.6824 0.9264
2.5413 18.7602 -2.6824 0.9264
0.8494 18.9125 -2.6824 0.9264
-0.8494 18.9125 -2.6824 0.9264
-4.3411 19.0195 -2.7642 0.9242
-5.0284 15.4760 -2.3056 0.9364
-4.2381 6.4204 -1.0900 0.9694
-4.2179 4.4115 -0.8648 0.9756
-4.2239 3.6903 -0.7947 0.9776
-4.6333 2.7683 -0.7647 0.9784
-4.7847 2.3042 -0.7525 0.9788
-4.4807 1.6816 -0.6781 0.9809
-4.6538 1.2844 -0.6841 0.9807
-4.5190 0.8201 -0.6508 0.9816
6.6974 10.1461 -2.0028 0.9519
6.0481 14.1502 -2.5351 0.9395
5.0316 15.4858 -2.6824 0.9361
2.1857 16.1353 -2.6824 0.9361
0.7305 16.2663 -2.6824 0.9361
-0.7305 16.2663 -2.6824 0.9361
-3.7023 16.2208 -2.7409 0.9348
-5.0244 15.4636 -2.6786 0.9362
-5.4082 12.6532 -2.2669 0.9457
-4.2397 6.4229 -1.2678 0.9693
-4.2188 4.4125 -1.0057 0.9756
-4.5150 0.8194 -0.7559 0.9816
10.6185 7.7148 -2.4670 0.9480
7.9956 8.3627 -2.1747 0.9540
6.1514 11.4312 -2.4400 0.9485
0.6403 14.2567 -2.6824 0.9436
-0.6403 14.2567 -2.6824 0.9436
-1.9156 14.1419 -2.6824 0.9436
-4.5578 14.0276 -2.7723 0.9417
-4.4870 8.3380 -1.7797 0.9622
-4.2445 5.3225 -1.2796 0.9727
-4.2197 4.4135 -1.1477 0.9755
-4.1516 3.0163 -0.9645 0.9793
-4.4742 1.6791 -0.8983 0.9807
-4.6451 1.2820 -0.9057 0.9806
-5.0972 0.4588 -0.9619 0.9794
10.1033 7.3405 -2.6398 0.9502
9.2058 8.0428 -2.5840 0.9513
7.9969 8.3641 -2.4461 0.9538
7.1267 8.9367 -2.4162 0.9543
6.6996 10.1495 -2.5706 0.9515
5.9994 11.1487 -2.6762 0.9496
4.9875 11.6688 -2.6824 0.9494
3.9214 12.0689 -2.6824 0.9494
2.8238 12.3718 -2.6824 0.9494
1.7034 12.5751 -2.6824 0.9494
-0.5693 12.6772 -2.6824 0.9494
-2.8526 12.4983 -2.7098 0.9489
-4.4877 8.3394 -2.0018 0.9620
-4.2099 3.6781 -1.1817 0.9774
-4.1483 3.0140 -1.0839 0.9793
-4.6278 2.7650 -1.1395 0.9782
-4.7682 2.2962 -1.1187 0.9786
-4.6406 1.2808 -1.0176 0.9805
-4.5068 0.8179 -0.9682 0.9814
-5.0928 0.4584 -1.0809 0.9793
9.1012 6.6124 -2.6440 0.9548
7.0743 8.8709 -2.6666 0.9544
6.2674 9.4947 -2.6738 0.9543
4.4857 10.4949 -2.6824 0.9542
3.5269 10.8547 -2.6824 0.9542
2.5397 11.1272 -2.6824 0.9542
1.5321 11.3100 -2.6824 0.9542
0.5121 11.4019 -2.6824 0.9542
-0.5121 11.4018 -2.6824 0.9542
-1.5321 11.3101 -2.6824 0.9542
-3.5990 11.0765 -2.7372 0.9533
-4.4885 8.3407 -2.2261 0.9618
-4.2217 4.4155 -1.4358 0.9752
-4.2052 3.6740 -1.3124 0.9773
-4.1451 3.0116 -1.2042 0.9792
-4.4677 1.6767 -1.1215 0.9806
-4.5027 0.8171 -1.0755 0.9814
-5.0883 0.4580 -1.2007 0.9792
8.2762 6.0130 -2.6487 0.9586
7.7220 6.7465 -2.6550 0.9585
6.4311 8.0644 -2.6707 0.9583
5.6997 8.6347 -2.6788 0.9582
3.2014 9.8530 -2.6824 0.9581
2.3053 10.1003 -2.6824 0.9581
0.4648 10.3496 -2.6824 0.9581
-0.4648 10.3496 -2.6824 0.9581
-1.3906 10.2663 -2.6824 0.9581
-2.3119 10.1290 -2.6900 0.9580
-3.2517 10.0076 -2.7245 0.9575
-4.2004 3.6698 -1.4442 0.9772
-4.1418 3.0092 -1.3255 0.9791
-4.6241 2.7628 -1.3947 0.9780
-4.7571 2.2909 -1.3671 0.9784
-4.4644 1.6754 -1.2346 0.9805
-4.4985 0.8164 -1.1838 0.9813
-5.0838 0.4576 -1.3216 0.9791
7.0819 6.1873 -2.6622 0.9617
6.5144 6.8136 -2.6686 0.9616
5.8929 7.3895 -2.6757 0.9615
3.7240 8.7128 -2.6824 0.9614
2.9281 9.0116 -2.6824 0.9614
0.4251 9.4658 -2.6824 0.9614
-1.2719 9.3896 -2.6824 0.9614
-4.2481 6.4356 -2.1830 0.9685
-4.2351 5.3108 -1.9230 0.9722
-4.2237 4.4176 -1.7302 0.9749
-4.1385 3.0068 -1.4482 0.9790
-4.6222 2.7617 -1.5243 0.9779
-4.7514 2.2881 -1.4929 0.9783
-4.6271 1.2771 -1.3589 0.9802
-4.4943 0.8156 -1.2931 0.9812
-5.0793 0.4572 -1.4437 0.9790
7.0047 5.0892 -2.6631 0.9644
6.5333 5.7080 -2.6684 0.9643
5.4343 6.8144 -2.6809 0.9642
4.8044 7.2783 -2.6824 0.9642
3.4276 8.0192 -2.6824 0.9642
2.6949 8.2942 -2.6824 0.9642
1.9406 8.5024 -2.6824 0.9642
1.1706 8.6421 -2.6824 0.9642
0.3913 8.7122 -2.6824 0.9642
-0.3912 8.7122 -2.6824 0.9642
-1.9406 8.5024 -2.6824 0.9642
-4.2327 5.3078 -2.0881 0.9720
-4.2247 4.4187 -1.8803 0.9747
-4.1908 3.6614 -1.7116 0.9770
-4.7457 2.2854 -1.6201 0.9782
-4.4576 1.6729 -1.4645 0.9803
-4.6226 1.2758 -1.4750 0.9801
-4.4901 0.8149 -1.4036 0.9811
6.4955 4.7193 -2.6688 0.9667
6.0576 5.2923 -2.6738 0.9667
5.5702 5.8260 -2.6793 0.9666
5.0314 6.3091 -2.6824 0.9666
4.4456 6.7347 -2.6824 0.9666
3.8240 7.1061 -2.6824 0.9666
3.1716 7.4203 -2.6824 0.9666
1.7957 7.8673 -2.6824 0.9666
1.0832 7.9966 -2.6824 0.9666
-0.3620 8.0615 -2.6824 0.9666
-1.7956 7.8673 -2.6824 0.9666
-2.5073 7.7168 -2.6971 0.9664
-3.2196 7.5326 -2.7230 0.9661
-4.2303 5.3047 -2.2554 0.9718
-4.2257 4.4197 -2.0326 0.9746
-4.7399 2.2826 -1.7488 0.9781
-5.0700 0.4563 -1.6921 0.9788
6.0492 4.3950 -2.6739 0.9687
4.6768 5.8645 -2.6824 0.9686
3.5545 6.6053 -2.6824 0.9686
2.9481 6.8974 -2.6824 0.9686
1.6691 7.3129 -2.6824 0.9686
1.0069 7.4331 -2.6824 0.9686
-1.0069 7.4331 -2.6824 0.9686
-2.9832 6.9797 -2.7144 0.9683
-3.6280 6.7419 -2.7379 0.9680
-4.2527 6.4425 -2.7606 0.9677
-4.2279 5.3017 -2.4250 0.9716
-4.2267 4.4208 -2.1872 0.9744
-4.1809 3.6527 -1.9854 0.9767
-4.6164 2.7582 -1.9231 0.9774
-4.7340 2.2798 -1.8790 0.9779
-4.6132 1.2732 -1.7114 0.9799
-4.4814 0.8133 -1.6288 0.9808
-5.0653 0.4559 -1.8187 0.9786
3.3169 6.1639 -2.6824 0.9705
2.7511 6.4364 -2.6824 0.9705
2.1630 6.6571 -2.6824 0.9705
-0.3140 6.9926 -2.6824 0.9705
-0.9396 6.9363 -2.6824 0.9705
-1.5576 6.8242 -2.6824 0.9705
-2.1649 6.6627 -2.6847 0.9704
-2.7762 6.4952 -2.7069 0.9702
-4.2254 5.2985 -2.5971 0.9714
-4.1248 2.9969 -1.9539 0.9784
-4.6145 2.7570 -2.0599 0.9772
-4.4472 1.6690 -1.8203 0.9799
-4.4770 0.8125 -1.7437 0.9807
5.3022 3.8523 -2.6824 0.9721
4.0864 5.1242 -2.6824 0.9721
3.1057 5.7714 -2.6824 0.9721
2.5759 6.0266 -2.6824 0.9721
2.0253 6.2333 -2.6824 0.9721
0.8798 6.4947 -2.6824 0.9721
-0.2940 6.5474 -2.6824 0.9721
-0.8798 6.4947 -2.6824 0.9721
-2.0253 6.2333 -2.6824 0.9721
-3.1498 5.8534 -2.7205 0.9717
-4.1707 3.6439 -2.2667 0.9763
-4.1213 2.9943 -2.0849 0.9782
-4.6124 2.7558 -2.1990 0.9770
-4.4436 1.6677 -1.9425 0.9797
-4.6036 1.2705 -1.9546 0.9796
-4.4726 0.8117 -1.8604 0.9805
4.9794 3.6178 -2.6824 0.9735
3.8375 4.8121 -2.6824 0.9735
2.9166 5.4200 -2.6824 0.9735
2.4190 5.6596 -2.6824 0.9735
1.9020 5.8536 -2.6824 0.9735
0.8262 6.0992 -2.6824 0.9735
0.2762 6.1487 -2.6824 0.9735
-0.2761 6.1487 -2.6824 0.9735
-1.3696 6.0006 -2.6824 0.9735
-1.9020 5.8536 -2.6824 0.9735
-2.4298 5.6847 -2.6943 0.9734
-3.9327 4.9315 -2.7490 0.9729
-4.7159 2.2711 -2.2812 0.9774
-4.5987 1.2692 -2.0791 0.9794
-5.0507 0.4546 -2.2101 0.9781
4.6882 3.4062 -2.6824 0.9748
4.0047 4.1886 -2.6824 0.9748
3.6131 4.5307 -2.6824 0.9748
2.2776 5.3286 -2.6824 0.9748
1.7907 5.5113 -2.6824 0.9748
1.2895 5.6497 -2.6824 0.9748
0.2600 5.7891 -2.6824 0.9748
-0.7779 5.7425 -2.6824 0.9748
-1.2895 5.6497 -2.6824 0.9748
-2.7710 5.1493 -2.7067 0.9746
-3.2417 4.9110 -2.7238 0.9744
-4.1139 4.3028 -2.7556 0.9741
-4.6083 2.7533 -2.4849 0.9766
-4.5937 1.2678 -2.2058 0.9792
-4.4634 0.8100 -2.0998 0.9802
4.4241 3.2143 -2.6824 0.9759
1.2168 5.3313 -2.6824 0.9759
0.2454 5.4629 -2.6824 0.9759
-0.2453 5.4629 -2.6824 0.9759
-1.2168 5.3313 -2.6824 0.9759
-2.1506 5.0317 -2.6842 0.9759
-2.6091 4.8486 -2.7008 0.9758
-3.4729 4.3549 -2.7322 0.9755
-4.1103 2.9863 -2.4922 0.9776
-4.7033 2.2650 -2.5607 0.9770
-4.5885 1.2664 -2.3349 0.9790
4.1831 3.0392 -2.6824 0.9770
3.8938 3.4019 -2.6824 0.9770
3.5732 3.7373 -2.6824 0.9770
2.8485 4.3152 -2.6824 0.9770
1.5978 4.9175 -2.6824 0.9770
0.6941 5.1238 -2.6824 0.9770
-0.6940 5.1238 -2.6824 0.9770
-1.5978 4.9175 -2.6824 0.9770
-2.0322 4.7545 -2.6824 0.9770
-2.8785 4.3607 -2.7106 0.9767
-3.6481 3.8156 -2.7386 0.9765
-3.9937 3.4892 -2.7512 0.9764
-4.5883 2.7414 -2.7728 0.9762
-4.6969 2.2619 -2.7045 0.9768
-4.4286 1.6620 -2.4540 0.9789
-4.5833 1.2650 -2.4666 0.9788
-5.0353 0.4532 -2.6228 0.9775
3.9622 2.8787 -2.6824 0.9779
3.6882 3.2223 -2.6824 0.9779
3.3845 3.5399 -2.6824 0.9779
2.6980 4.0874 -2.6824 0.9779
1.5134 4.6578 -2.6824 0.9779
1.0898 4.7748 -2.6824 0.9779
-0.6574 4.8532 -2.6824 0.9779
-1.0898 4.7748 -2.6824 0.9779
-1.9249 4.5034 -2.6824 0.9779
-2.3279 4.3260 -2.6906 0.9778
-3.0947 3.8806 -2.7185 0.9776
-3.7717 3.2952 -2.7431 0.9774
-4.5596 2.1958 -2.7718 0.9772
-4.5780 1.2635 -2.6011 0.9786
-5.0300 0.4527 -2.7661 0.9772
3.7587 2.7309 -2.6824 0.9788
3.2107 3.3581 -2.6824 0.9788
2.8968 3.6324 -2.6824 0.9788
2.2016 4.0913 -2.6824 0.9788
1.0338 4.5296 -2.6824 0.9788
-0.6237 4.6040 -2.6824 0.9788
-1.0338 4.5296 -2.6824 0.9788
-1.8260 4.2722 -2.6824 0.9788
-2.5760 3.9024 -2.6996 0.9786
-2.9293 3.6732 -2.7125 0.9785
-3.2612 3.4109 -2.7246 0.9784
-3.5684 3.1176 -2.7357 0.9784
-3.8477 2.7955 -2.7459 0.9783
-4.0963 2.4474 -2.7549 0.9782
-4.3113 2.0762 -2.7628 0.9781
