ply
format ascii 1.0
element vertex 328
property float32 x
property float32 y
property float32 z
property float32 I
end_header
8.9751 -0.8078 1.5890 0.9641
11.8199 3.2621 1.8784 0.9516
11.5983 6.9297 0.5327 0.9474
14.5315 6.9981 -0.0908 0.9375
11.6021 6.9320 -0.0761 0.9474
11.3092 -14.1813 -0.5107 0.9300
14.8201 -2.6895 -0.4241 0.9415
13.3360 3.6805 -0.3896 0.9461
11.6041 6.9331 -0.3806 0.9473
14.8201 -2.6895 -0.7639 0.9415
8.6464 -0.7782 -0.4403 0.9658
8.6464 0.7782 -0.4403 0.9658
11.6060 6.9343 -0.6856 0.9473
13.4226 -1.2081 -0.9882 0.9474
13.4135 3.7019 -1.0203 0.9457
16.4865 6.1876 -1.2912 0.9318
13.4604 -1.2115 -1.2975 0.9471
16.3973 2.9757 -1.6002 0.9352
16.4896 6.1887 -1.6909 0.9317
11.6098 6.9366 -1.2984 0.9471
13.4985 -1.2149 -1.6099 0.9469
16.7915 1.5113 -2.0027 0.9343
16.4927 6.1899 -2.0925 0.9315
14.5527 7.0083 -1.9187 0.9370
11.6118 6.9377 -1.6068 0.9470
-0.8835 -19.6725 -2.7902 0.9235
0.8835 -19.6725 -2.7902 0.9235
2.6434 -19.5141 -2.7902 0.9235
6.0721 -18.6882 -2.7842 0.9237
14.0859 -12.3065 -2.6502 0.9272
16.0570 -9.5936 -2.6502 0.9272
17.5119 -6.5723 -2.6502 0.9272
18.0306 -4.9761 -2.6502 0.9272
18.4040 -3.3398 -2.6502 0.9272
13.6912 -1.2322 -1.9477 0.9460
16.3973 2.9757 -2.3613 0.9349
16.4959 6.1911 -2.4965 0.9313
-3.8481 -16.8594 -2.8488 0.9323
-0.7599 -16.9200 -2.7902 0.9336
0.7599 -16.9200 -2.7902 0.9336
6.6419 -15.5395 -2.7840 0.9338
7.7605 -14.4214 -2.6979 0.9358
8.8683 -13.4349 -2.6520 0.9368
12.1150 -10.5846 -2.6502 0.9369
13.0151 -9.4560 -2.6502 0.9369
15.8346 -2.8736 -2.6512 0.9368
13.5437 -1.2190 -2.2402 0.9464
13.5984 0.0000 -2.2402 0.9464
13.5437 1.2190 -2.2402 0.9464
15.3505 5.7611 -2.7011 0.9357
14.5613 7.0125 -2.6625 0.9366
11.6157 6.9400 -2.2291 0.9466
-2.7245 -8.3851 -1.6572 0.9648
-0.6643 -14.7919 -2.7831 0.9415
1.9804 -14.6197 -2.7730 0.9417
3.2766 -14.3560 -2.7678 0.9418
4.5415 -13.9772 -2.7624 0.9419
7.8809 -11.9391 -2.6889 0.9434
9.7440 -10.1915 -2.6502 0.9442
10.6183 -9.2769 -2.6502 0.9442
11.8704 -1.0684 -2.2402 0.9526
11.9184 0.0000 -2.2402 0.9526
11.8704 1.0684 -2.2402 0.9526
11.7269 2.1281 -2.2402 0.9526
11.4889 3.1707 -2.2402 0.9526
11.1584 4.1878 -2.2402 0.9526
11.6176 6.9412 -2.5437 0.9464
-2.7233 -8.3816 -1.8629 0.9646
-2.9690 -13.0080 -2.8204 0.9469
-1.7715 -13.0781 -2.7897 0.9475
-0.5917 -13.1758 -2.7879 0.9475
0.5890 -13.1161 -2.7753 0.9477
2.9118 -12.7575 -2.7660 0.9479
5.1251 -11.9907 -2.7564 0.9481
6.1684 -11.4629 -2.7516 0.9482
7.1456 -10.8252 -2.7418 0.9484
8.7012 -9.1008 -2.6615 0.9498
9.4620 -8.2667 -2.6559 0.9499
11.2962 -5.4400 -2.6502 0.9500
12.5301 -2.2739 -2.6919 0.9493
10.5553 -0.9500 -2.2402 0.9576
10.5979 0.0000 -2.2402 0.9576
10.2160 2.8195 -2.2402 0.9576
11.6310 5.6012 -2.7288 0.9486
11.1217 6.6449 -2.7386 0.9484
-3.7434 -11.5210 -2.8470 0.9514
-1.5932 -11.7614 -2.7894 0.9524
1.5814 -11.6746 -2.7689 0.9527
2.6176 -11.4684 -2.7647 0.9528
3.6294 -11.1702 -2.7604 0.9529
4.6088 -10.7829 -2.7560 0.9530
5.5480 -10.3100 -2.7516 0.9530
7.2489 -9.0899 -2.7325 0.9534
7.9006 -8.2634 -2.6869 0.9541
9.7019 -5.7966 -2.6562 0.9546
10.6519 -3.9977 -2.6739 0.9543
9.3786 -1.7020 -2.2402 0.9616
9.4934 -0.8544 -2.2402 0.9616
9.1883 2.5358 -2.2402 0.9616
8.9240 3.3492 -2.2402 0.9616
8.5879 4.1357 -2.2402 0.9616
10.0148 5.9836 -2.7418 0.9532
-2.4072 -10.5466 -2.8009 0.9563
-1.4460 -10.6751 -2.7892 0.9565
-0.4831 -10.7561 -2.7877 0.9565
2.3751 -10.4057 -2.7635 0.9569
3.2936 -10.1366 -2.7596 0.9569
4.1830 -9.7866 -2.7557 0.9570
5.0361 -9.3587 -2.7517 0.9570
7.8285 -6.8396 -2.6916 0.9580
8.8324 -5.2771 -2.6639 0.9584
9.2783 -4.4682 -2.6664 0.9583
10.0612 -2.7767 -2.7024 0.9578
8.6173 0.7756 -2.2402 0.9649
8.5131 1.5449 -2.2402 0.9649
8.3404 2.3018 -2.2402 0.9649
8.1004 3.0401 -2.2402 0.9649
9.1080 5.4418 -2.7471 0.9571
-2.1959 -9.6208 -2.7936 0.9598
-0.4418 -9.8373 -2.7877 0.9599
0.4416 -9.8326 -2.7863 0.9599
1.3205 -9.7487 -2.7850 0.9599
2.1868 -9.5809 -2.7820 0.9600
3.0116 -9.2689 -2.7590 0.9603
6.0447 -7.5799 -2.7446 0.9605
6.6913 -6.9986 -2.7411 0.9605
7.2611 -6.3439 -2.7296 0.9607
7.7116 -5.6028 -2.6985 0.9611
8.5476 -4.1163 -2.6857 0.9613
8.9246 -3.3495 -2.6986 0.9611
9.2365 -2.5491 -2.7125 0.9609
7.9198 -0.7128 -2.2511 0.9675
7.9198 0.7128 -2.2511 0.9675
7.9198 2.1857 -2.3259 0.9664
7.9198 2.9723 -2.3947 0.9654
7.9198 3.8140 -2.4885 0.9641
-2.8293 -8.7075 -2.8161 0.9624
-2.0186 -8.8441 -2.7902 0.9627
-0.4066 -9.0540 -2.7876 0.9628
2.0141 -8.8242 -2.7839 0.9628
2.7958 -8.6045 -2.7827 0.9628
4.2396 -7.8784 -2.7518 0.9633
4.9228 -7.4576 -2.7485 0.9633
5.5648 -6.9780 -2.7452 0.9633
6.7058 -5.8587 -2.7389 0.9634
7.1902 -5.2240 -2.7336 0.9635
7.5582 -4.5158 -2.7081 0.9638
7.8983 -3.8036 -2.6964 0.9640
8.2437 -3.0939 -2.7083 0.9638
7.9198 -1.4372 -2.4757 0.9669
7.9198 0.0000 -2.4360 0.9674
7.9198 0.7128 -2.4458 0.9673
7.9198 1.4372 -2.4757 0.9669
7.9198 2.1857 -2.5270 0.9662
7.9198 2.9723 -2.6019 0.9652
7.9198 3.8140 -2.7037 0.9639
7.7112 4.6072 -2.7629 0.9631
-2.6107 -8.0351 -2.8084 0.9650
-1.8678 -8.1835 -2.7902 0.9652
-1.1268 -8.3180 -2.7902 0.9652
0.3761 -8.3742 -2.7864 0.9653
1.1248 -8.3033 -2.7853 0.9653
1.8638 -8.1658 -2.7842 0.9653
3.2893 -7.6958 -2.7820 0.9653
3.9512 -7.3426 -2.7717 0.9655
4.5694 -6.9223 -2.7571 0.9656
6.6615 -4.8399 -2.7371 0.9659
7.0617 -4.2192 -2.7344 0.9659
7.3476 -3.5384 -2.7108 0.9662
7.6518 -2.8718 -2.7167 0.9661
7.9198 0.0000 -2.6326 0.9672
7.9198 0.7128 -2.6432 0.9670
7.9198 1.4372 -2.6756 0.9666
7.9198 2.1857 -2.7310 0.9660
7.7796 2.9197 -2.7621 0.9656
7.4953 3.6095 -2.7653 0.9655
7.1516 4.2729 -2.7692 0.9655
-2.4210 -7.4510 -2.8016 0.9673
-1.7362 -7.6068 -2.7902 0.9674
-1.0473 -7.7318 -2.7902 0.9674
-0.3501 -7.7946 -2.7902 0.9674
1.0455 -7.7185 -2.7854 0.9675
4.2821 -6.4870 -2.7796 0.9675
4.8306 -6.0574 -2.7706 0.9676
5.3390 -5.5842 -2.7628 0.9677
5.8064 -5.0729 -2.7573 0.9678
6.6131 -3.9512 -2.7549 0.9678
7.1319 -2.6767 -2.7241 0.9682
7.3735 -2.0350 -2.7354 0.9680
7.5594 -1.3718 -2.7474 0.9679
7.7256 0.0000 -2.7627 0.9677
7.6955 0.6926 -2.7631 0.9677
7.4554 2.0576 -2.7658 0.9677
7.2472 2.7199 -2.7682 0.9677
6.9818 3.3622 -2.7712 0.9676
6.6610 3.9797 -2.7748 0.9676
-2.2544 -6.9384 -2.7958 0.9692
-0.3267 -7.2736 -2.7902 0.9693
0.3266 -7.2736 -2.7902 0.9693
0.9759 -7.2043 -2.7860 0.9693
1.6170 -7.0840 -2.7845 0.9694
2.2446 -6.9082 -2.7836 0.9694
2.8538 -6.6770 -2.7827 0.9694
3.4398 -6.3922 -2.7818 0.9694
4.5232 -5.6719 -2.7801 0.9694
6.5260 -3.1428 -2.7758 0.9694
6.6911 -2.5112 -2.7388 0.9698
6.8954 -1.9030 -2.7412 0.9698
7.0673 -1.2825 -2.7525 0.9697
7.1836 -0.6465 -2.7640 0.9696
7.2241 -0.0000 -2.7684 0.9695
7.1959 0.6476 -2.7687 0.9695
7.1113 1.2905 -2.7697 0.9695
6.9710 1.9239 -2.7713 0.9695
6.7759 2.5430 -2.7735 0.9695
6.5272 3.1434 -2.7763 0.9694
6.2268 3.7204 -2.7797 0.9694
-2.1070 -6.4845 -2.7905 0.9710
-1.5170 -6.6465 -2.7902 0.9710
-0.9151 -6.7557 -2.7902 0.9710
0.3059 -6.8106 -2.7902 0.9710
2.1019 -6.4689 -2.7838 0.9710
2.6725 -6.2524 -2.7829 0.9710
3.2212 -5.9859 -2.7821 0.9710
4.6938 -4.9093 -2.7798 0.9711
5.1138 -4.4678 -2.7792 0.9711
5.4925 -3.9906 -2.7786 0.9711
6.3354 -2.3777 -2.7695 0.9712
6.6283 -1.2029 -2.7571 0.9713
6.7500 0.6075 -2.7738 0.9711
5.8396 3.4890 -2.7841 0.9710
-1.9784 -6.0889 -2.7902 0.9725
-1.4246 -6.2417 -2.7902 0.9725
-0.8594 -6.3443 -2.7902 0.9725
0.2872 -6.3958 -2.7902 0.9725
1.9781 -6.0881 -2.7898 0.9725
3.5173 -5.3285 -2.7826 0.9725
3.9798 -4.9905 -2.7819 0.9725
4.4121 -4.6147 -2.7825 0.9725
5.1729 -3.7584 -2.7867 0.9725
5.4936 -3.2823 -2.7890 0.9725
5.7681 -2.7778 -2.7901 0.9725
5.9913 -2.2486 -2.7890 0.9725
6.1193 -1.6888 -2.7666 0.9727
6.2338 -1.1313 -2.7612 0.9727
6.3343 -0.5701 -2.7718 0.9726
6.3743 0.0000 -2.7780 0.9726
6.3493 0.5714 -2.7783 0.9726
6.1502 1.6974 -2.7806 0.9725
5.9775 2.2434 -2.7825 0.9725
5.4917 3.2811 -2.7880 0.9725
-1.8627 -5.7328 -2.7902 0.9738
0.2704 -6.0218 -2.7902 0.9738
1.8627 -5.7328 -2.7902 0.9738
2.3691 -5.5428 -2.7902 0.9738
2.8562 -5.3076 -2.7899 0.9738
3.3198 -5.0293 -2.7895 0.9738
4.1642 -4.3554 -2.7893 0.9738
5.1746 -3.0917 -2.7902 0.9738
5.4309 -2.6154 -2.7902 0.9738
6.0105 0.0000 -2.7822 0.9739
5.9869 0.5388 -2.7824 0.9739
5.6358 2.1151 -2.7864 0.9738
-1.7578 -5.4098 -2.7902 0.9750
-1.2658 -5.5456 -2.7902 0.9750
-0.7636 -5.6367 -2.7902 0.9750
-0.2552 -5.6825 -2.7902 0.9750
0.2552 -5.6825 -2.7902 0.9750
0.7635 -5.6367 -2.7902 0.9750
1.2657 -5.5456 -2.7902 0.9750
2.2356 -5.2305 -2.7902 0.9750
2.6954 -5.0090 -2.7902 0.9750
3.1336 -4.7472 -2.7902 0.9750
3.5465 -4.4472 -2.7902 0.9750
4.6019 -3.3434 -2.7902 0.9750
4.8830 -2.9175 -2.7902 0.9750
5.1249 -2.4680 -2.7902 0.9750
5.3255 -1.9987 -2.7902 0.9750
5.6795 0.0000 -2.7859 0.9750
5.4792 1.5122 -2.7882 0.9750
-1.6620 -5.1152 -2.7902 0.9761
-0.7220 -5.3297 -2.7902 0.9761
-0.2413 -5.3730 -2.7902 0.9761
0.2413 -5.3730 -2.7902 0.9761
1.1968 -5.2435 -2.7902 0.9761
2.1139 -4.9456 -2.7902 0.9761
2.5486 -4.7362 -2.7902 0.9761
3.7168 -3.8875 -2.7902 0.9761
4.0503 -3.5387 -2.7902 0.9761
4.6171 -2.7586 -2.7902 0.9761
5.1846 -1.4308 -2.7902 0.9761
5.1846 1.4308 -2.7902 0.9761
5.0354 1.8898 -2.7902 0.9761
4.8458 2.3335 -2.7902 0.9761
4.6171 2.7586 -2.7902 0.9761
-1.5742 -4.8450 -2.7902 0.9770
-0.6838 -5.0483 -2.7902 0.9770
-0.2286 -5.0892 -2.7902 0.9770
0.2286 -5.0892 -2.7902 0.9770
0.6838 -5.0483 -2.7902 0.9770
1.1336 -4.9666 -2.7902 0.9770
1.5742 -4.8450 -2.7902 0.9770
2.8065 -4.2516 -2.7902 0.9770
3.1763 -3.9829 -2.7902 0.9770
4.1214 -2.9944 -2.7902 0.9770
4.3732 -2.6129 -2.7902 0.9770
4.7695 -1.7900 -2.7902 0.9770
4.9108 -1.3553 -2.7902 0.9770
5.0125 -0.9096 -2.7902 0.9770
5.0944 0.0000 -2.7902 0.9770
5.0738 0.4567 -2.7902 0.9770
4.9108 1.3553 -2.7902 0.9770
4.5899 2.2104 -2.7902 0.9770
4.3732 2.6129 -2.7902 0.9770
-1.4934 -4.5962 -2.7902 0.9779
-1.0754 -4.7116 -2.7902 0.9779
-0.2168 -4.8279 -2.7902 0.9779
0.2168 -4.8279 -2.7902 0.9779
0.6487 -4.7890 -2.7902 0.9779
2.6624 -4.0333 -2.7902 0.9779
3.3397 -3.4931 -2.7902 0.9779
3.6394 -3.1797 -2.7902 0.9779
3.9098 -2.8406 -2.7902 0.9779
4.1487 -2.4787 -2.7902 0.9779
4.3542 -2.0969 -2.7902 0.9779
4.5246 -1.6981 -2.7902 0.9779
4.8328 0.0000 -2.7902 0.9779
4.5246 1.6981 -2.7902 0.9779
