ply
format ascii 1.0
element vertex 365
property float32 x
property float32 y
property float32 z
property float32 I
end_header
8.9921 -0.8093 1.5920 0.9640
8.8273 3.3130 1.6625 0.9624
8.8142 3.3080 1.4423 0.9626
8.8819 3.3334 1.2354 0.9625
8.8238 9.2289 1.6627 0.9498
7.3336 9.1961 1.5317 0.9537
8.7791 9.1822 1.3642 0.9502
7.3351 9.1979 1.2633 0.9538
14.6297 7.0452 1.3746 0.9369
11.5946 6.9275 1.1434 0.9472
10.6012 7.7022 1.1093 0.9488
7.3365 9.1997 0.9961 0.9539
6.6853 10.1277 1.0273 0.9525
6.3516 11.8034 1.1347 0.9476
6.5309 15.2798 1.4067 0.9355
14.6318 7.0462 1.0071 0.9370
10.6026 7.7032 0.8127 0.9488
9.1882 8.0275 0.7566 0.9523
7.9808 8.3473 0.7161 0.9548
6.0452 14.1435 0.9538 0.9402
11.5490 -1.0394 0.4572 0.9546
14.6338 7.0472 0.6405 0.9370
9.1896 8.0287 0.4812 0.9523
7.1154 8.9226 0.4500 0.9553
6.1440 11.4176 0.5113 0.9494
6.0455 14.1441 0.6065 0.9403
6.0381 18.5832 0.7705 0.9248
14.5275 6.9962 0.2724 0.9375
11.6004 6.9309 0.2283 0.9474
10.6054 7.7052 0.2214 0.9489
9.1910 8.0299 0.2062 0.9523
7.9834 8.3500 0.1951 0.9548
7.1164 8.9238 0.1928 0.9554
6.6884 10.1326 0.2051 0.9526
6.1447 11.4189 0.2190 0.9494
6.0458 14.1448 0.2598 0.9403
14.8208 -2.6896 -0.0848 0.9415
13.2999 3.6705 -0.0777 0.9463
14.5317 6.9982 -0.0908 0.9375
10.6068 7.7063 -0.0738 0.9489
9.1924 8.0312 -0.0687 0.9523
7.9847 8.3513 -0.0651 0.9548
6.6895 10.1342 -0.0684 0.9526
6.1454 11.4202 -0.0730 0.9494
6.0461 14.1454 -0.0866 0.9403
14.8201 -2.6895 -0.4241 0.9415
13.3503 -1.2015 -0.3774 0.9478
16.4805 6.1853 -0.4957 0.9320
14.5359 7.0003 -0.4543 0.9375
11.6042 6.9332 -0.3806 0.9473
10.6082 7.7073 -0.3692 0.9489
9.1938 8.0324 -0.3438 0.9523
6.6906 10.1358 -0.3420 0.9526
5.6916 17.5173 -0.5186 0.9289
-2.6171 11.4663 -0.3312 0.9540
14.8201 -2.6895 -0.7639 0.9415
8.6464 0.0000 -0.4385 0.9660
8.6464 1.5691 -0.4457 0.9654
8.6464 3.2451 -0.4684 0.9637
14.5402 7.0023 -0.8184 0.9374
11.6061 6.9343 -0.6856 0.9473
10.6096 7.7083 -0.6651 0.9488
7.9872 8.3540 -0.5862 0.9548
5.6913 17.5163 -0.9340 0.9289
-2.6171 11.4663 -0.5965 0.9540
17.3917 0.0000 -1.2752 0.9326
13.4157 3.7025 -1.0204 0.9457
16.4867 6.1876 -1.2912 0.9318
11.6080 6.9355 -0.9915 0.9472
9.1967 8.0349 -0.8954 0.9522
7.9885 8.3554 -0.8476 0.9547
7.1203 8.9288 -0.8374 0.9552
5.6910 17.5153 -1.3504 0.9288
-2.6171 11.4663 -0.8624 0.9539
16.1906 0.0000 -1.5544 0.9370
16.3973 2.9757 -1.6002 0.9352
16.4897 6.1888 -1.6909 0.9317
10.6124 7.7103 -1.2594 0.9487
9.1981 8.0361 -1.1726 0.9521
7.9898 8.3567 -1.1100 0.9546
7.1213 8.9300 -1.0966 0.9551
6.6938 10.1407 -1.1665 0.9523
13.5007 -1.2151 -1.6102 0.9469
15.8613 0.0000 -1.8841 0.9381
13.4946 3.7243 -1.6629 0.9452
14.5529 7.0084 -1.9187 0.9370
11.6119 6.9378 -1.6068 0.9470
9.1995 8.0373 -1.4511 0.9520
7.9912 8.3581 -1.3736 0.9545
6.6949 10.1423 -1.4436 0.9522
6.1490 11.4268 -1.5414 0.9491
15.9501 -9.5298 -2.6326 0.9277
17.3954 -6.5286 -2.6326 0.9277
17.9105 -4.9430 -2.6326 0.9277
18.2815 -3.3176 -2.6326 0.9277
8.5564 0.0000 -1.2123 0.9660
16.4960 6.1911 -2.4965 0.9313
14.5572 7.0105 -2.2893 0.9368
11.6138 6.9389 -1.9169 0.9468
9.2010 8.0386 -1.7311 0.9518
7.1233 8.9325 -1.6188 0.9549
6.6960 10.1439 -1.7222 0.9521
6.1497 11.4281 -1.8388 0.9489
6.0477 14.1493 -2.1803 0.9397
4.3543 19.0773 -2.7726 0.9240
2.6267 19.3908 -2.7726 0.9240
0.8779 19.5482 -2.7726 0.9240
-2.6453 19.5285 -2.7922 0.9235
12.9285 -9.3931 -2.6326 0.9373
13.7184 -8.1964 -2.6326 0.9373
15.4046 -4.2514 -2.6326 0.9373
13.4370 -1.2094 -2.2226 0.9468
13.4913 0.0000 -2.2226 0.9468
13.4370 1.2094 -2.2226 0.9468
13.0052 3.5892 -2.2226 0.9468
14.5615 7.0126 -2.6625 0.9366
10.6167 7.7134 -2.1619 0.9482
9.2024 8.0399 -2.0131 0.9517
7.1243 8.9338 -1.8824 0.9547
6.1504 11.4295 -2.1382 0.9487
5.2008 16.0063 -2.7726 0.9340
2.2592 16.6777 -2.7726 0.9340
0.7551 16.8130 -2.7726 0.9340
-0.7551 16.8131 -2.7726 0.9340
-2.2639 16.7124 -2.7783 0.9339
-3.8304 16.7821 -2.8358 0.9326
13.1130 -4.9214 -2.6326 0.9446
13.9101 -2.5243 -2.6573 0.9441
11.7770 1.0599 -2.2226 0.9530
11.0706 4.1549 -2.2226 0.9530
11.6177 6.9413 -2.5438 0.9464
9.2038 8.0411 -2.2972 0.9515
6.6981 10.1473 -2.2853 0.9517
6.1512 11.4308 -2.4399 0.9485
5.7883 13.5423 -2.7682 0.9418
4.5582 14.0288 -2.7726 0.9417
3.2824 14.3809 -2.7726 0.9417
1.9800 14.6172 -2.7726 0.9417
-0.6618 14.7359 -2.7726 0.9417
10.0808 -7.3241 -2.6339 0.9503
10.6914 -6.3878 -2.6326 0.9504
11.2210 -5.4038 -2.6326 0.9504
11.6935 -4.3886 -2.6401 0.9502
10.3455 -1.8774 -2.2226 0.9579
10.4722 -0.9425 -2.2226 0.9579
10.5145 0.0000 -2.2226 0.9579
10.4722 0.9425 -2.2226 0.9579
9.8440 3.6945 -2.2226 0.9579
11.0526 6.6036 -2.7215 0.9487
10.4370 7.5829 -2.7270 0.9486
7.1264 8.9363 -2.4161 0.9543
6.6993 10.1489 -2.5705 0.9515
6.1519 11.4322 -2.7442 0.9483
5.1551 12.0610 -2.7726 0.9478
1.7607 12.9978 -2.7726 0.9478
-0.5885 13.1033 -2.7726 0.9478
-1.7607 12.9978 -2.7726 0.9478
9.0974 -6.6097 -2.6428 0.9548
9.6395 -5.7593 -2.6391 0.9549
10.0922 -4.8601 -2.6326 0.9550
10.5854 -3.9728 -2.6573 0.9546
10.9663 -3.0265 -2.6737 0.9543
9.3048 -1.6886 -2.2226 0.9619
9.4187 -0.8477 -2.2226 0.9619
9.4567 0.0000 -2.2226 0.9619
9.3048 1.6886 -2.2226 0.9619
9.1160 2.5158 -2.2226 0.9619
8.5202 4.1031 -2.2226 0.9619
9.4099 6.8367 -2.7336 0.9533
8.7849 7.6751 -2.7416 0.9532
4.6365 10.8476 -2.7726 0.9527
3.6455 11.2196 -2.7726 0.9527
2.6251 11.5012 -2.7726 0.9527
1.5835 11.6902 -2.7726 0.9527
0.5293 11.7851 -2.7726 0.9527
9.2189 -4.4396 -2.6493 0.9586
9.6564 -3.6241 -2.6705 0.9583
9.9984 -2.7594 -2.6855 0.9580
8.5495 -0.7695 -2.2226 0.9652
8.5840 0.0000 -2.2226 0.9652
8.5495 0.7695 -2.2226 0.9652
8.0367 3.0162 -2.2226 0.9652
7.9198 3.8140 -2.2760 0.9643
9.0516 5.4081 -2.7301 0.9574
8.5482 6.2106 -2.7358 0.9573
6.6477 8.3359 -2.7606 0.9569
5.0743 9.4296 -2.7726 0.9567
2.3828 10.4398 -2.7726 0.9567
1.4374 10.6114 -2.7726 0.9567
0.4804 10.6975 -2.7726 0.9567
-0.4804 10.6975 -2.7726 0.9567
7.6688 -5.5717 -2.6835 0.9614
8.0654 -4.8188 -2.6597 0.9617
8.4942 -4.0906 -2.6690 0.9616
8.8689 -3.3286 -2.6817 0.9614
9.1788 -2.5332 -2.6956 0.9612
7.9198 -1.4372 -2.2787 0.9671
7.9198 0.7128 -2.2511 0.9675
7.9198 2.9723 -2.3947 0.9654
8.3043 4.9616 -2.7385 0.9606
6.7286 7.0376 -2.7564 0.9603
5.3933 8.1704 -2.7715 0.9601
4.6410 8.6244 -2.7726 0.9601
3.8492 9.0057 -2.7726 0.9601
0.4394 9.7840 -2.7726 0.9601
-2.1816 9.5581 -2.7754 0.9601
7.1499 -5.1947 -2.7183 0.9637
7.5165 -4.4909 -2.6931 0.9640
8.1922 -3.0746 -2.6914 0.9640
7.9198 -1.4372 -2.4757 0.9669
7.9198 -0.7128 -2.4458 0.9673
7.9198 0.0000 -2.4360 0.9674
7.9198 0.7128 -2.4458 0.9673
7.9198 1.4372 -2.4757 0.9669
7.9198 2.1857 -2.5270 0.9662
7.9198 2.9723 -2.6019 0.9652
7.9198 3.8140 -2.7037 0.9639
7.6635 4.5787 -2.7458 0.9633
7.2349 5.2565 -2.7506 0.9633
5.6130 7.0385 -2.7690 0.9630
4.9659 7.5230 -2.7726 0.9630
4.2715 7.9378 -2.7726 0.9630
2.0058 8.7881 -2.7726 0.9630
1.2100 8.9326 -2.7726 0.9630
0.4044 9.0051 -2.7726 0.9630
-1.2100 8.9326 -2.7726 0.9630
-2.0058 8.7882 -2.7726 0.9630
7.0164 -4.1921 -2.7169 0.9661
7.8639 -2.1703 -2.7117 0.9662
7.9198 -1.4372 -2.6756 0.9666
7.9198 0.0000 -2.6326 0.9672
7.9198 0.7128 -2.6432 0.9670
7.4489 3.5872 -2.7482 0.9658
7.1074 4.2464 -2.7521 0.9657
5.7534 6.0175 -2.7674 0.9655
4.5950 6.9611 -2.7726 0.9655
0.3742 8.3325 -2.7726 0.9655
-1.1196 8.2654 -2.7726 0.9655
-1.8560 8.1318 -2.7726 0.9655
6.5763 -3.9292 -2.7395 0.9680
7.3274 -2.0222 -2.7183 0.9682
7.5122 -1.3633 -2.7303 0.9681
7.6347 -0.6871 -2.7413 0.9680
7.6779 0.0000 -2.7457 0.9679
7.5582 1.3716 -2.7470 0.9679
6.2481 4.5395 -2.7618 0.9677
5.8261 5.0901 -2.7666 0.9677
4.2712 6.4705 -2.7726 0.9676
3.6739 6.8273 -2.7726 0.9676
2.3958 7.3736 -2.7726 0.9676
1.7252 7.5587 -2.7726 0.9676
1.0407 7.6829 -2.7726 0.9676
0.3478 7.7453 -2.7726 0.9676
-1.0407 7.6829 -2.7726 0.9676
5.8259 -4.2328 -2.7596 0.9696
6.1817 -3.6934 -2.7595 0.9696
6.4901 -3.1254 -2.7605 0.9696
6.6546 -2.4975 -2.7239 0.9700
7.1794 -0.0000 -2.7513 0.9697
7.1513 0.6436 -2.7516 0.9697
7.0673 1.2825 -2.7526 0.9697
6.7339 2.5273 -2.7563 0.9697
5.4451 4.7573 -2.7709 0.9695
4.5109 5.6565 -2.7726 0.9695
3.4284 6.3711 -2.7726 0.9695
2.8435 6.6527 -2.7726 0.9695
2.2357 6.8808 -2.7726 0.9695
1.6099 7.0536 -2.7726 0.9695
0.9712 7.1695 -2.7726 0.9695
-0.3246 7.2277 -2.7726 0.9695
-1.6099 7.0535 -2.7726 0.9695
5.8007 -3.4658 -2.7656 0.9712
6.0973 -2.9363 -2.7698 0.9712
6.3017 -2.3651 -2.7548 0.9713
6.4284 -1.7741 -2.7293 0.9716
6.6947 -0.6025 -2.7510 0.9714
6.7347 0.0000 -2.7563 0.9713
6.4982 1.7934 -2.7590 0.9713
6.0839 2.9298 -2.7637 0.9712
5.8034 3.4674 -2.7668 0.9712
5.4766 3.9789 -2.7705 0.9712
4.6815 4.8964 -2.7726 0.9711
4.2237 5.2964 -2.7726 0.9711
3.2102 5.9654 -2.7726 0.9711
2.6625 6.2292 -2.7726 0.9711
2.0934 6.4428 -2.7726 0.9711
0.3039 6.7675 -2.7726 0.9711
-0.3039 6.7675 -2.7726 0.9711
5.4593 -3.2618 -2.7716 0.9726
6.2948 -0.5665 -2.7545 0.9728
6.3349 0.0000 -2.7608 0.9727
6.1122 1.6868 -2.7634 0.9727
5.9405 2.2295 -2.7653 0.9727
5.4577 3.2608 -2.7708 0.9726
4.7909 4.1856 -2.7726 0.9726
3.9665 4.9738 -2.7726 0.9726
3.5047 5.3093 -2.7726 0.9726
3.0146 5.6021 -2.7726 0.9726
1.4156 6.2023 -2.7726 0.9726
-0.2854 6.3554 -2.7726 0.9726
-0.8540 6.3042 -2.7726 0.9726
-1.4156 6.2023 -2.7726 0.9726
4.8458 -3.5207 -2.7726 0.9739
5.1419 -3.0721 -2.7726 0.9739
5.3966 -2.5989 -2.7726 0.9739
5.6078 -2.1046 -2.7726 0.9739
5.7732 -1.5933 -2.7722 0.9739
5.9333 -0.5340 -2.7575 0.9741
5.8796 1.0670 -2.7660 0.9740
5.1419 3.0721 -2.7726 0.9739
4.8458 3.5207 -2.7726 0.9739
4.5107 3.9409 -2.7726 0.9739
4.1393 4.3293 -2.7726 0.9739
3.7346 4.6830 -2.7726 0.9739
2.8383 5.2746 -2.7726 0.9739
1.8509 5.6966 -2.7726 0.9739
1.3329 5.8396 -2.7726 0.9739
0.2687 5.9837 -2.7726 0.9739
-0.2687 5.9837 -2.7726 0.9739
5.4486 -1.5037 -2.7726 0.9751
5.5614 -1.0092 -2.7726 0.9751
5.6046 -0.5044 -2.7603 0.9752
5.5556 1.0082 -2.7697 0.9752
5.4453 1.5028 -2.7709 0.9751
4.5728 3.3223 -2.7726 0.9751
4.2565 3.7188 -2.7726 0.9751
2.2215 5.1974 -2.7726 0.9751
-0.2536 5.6466 -2.7726 0.9751
5.0036 -1.8779 -2.7726 0.9762
5.3224 0.4790 -2.7723 0.9762
5.1518 1.4218 -2.7726 0.9762
4.8151 2.3188 -2.7726 0.9762
4.3237 3.1414 -2.7726 0.9762
1.1892 5.2104 -2.7726 0.9762
0.2398 5.3390 -2.7726 0.9762
-0.2398 5.3390 -2.7726 0.9762
-1.1892 5.2104 -2.7726 0.9762
4.3456 -2.5964 -2.7726 0.9772
4.5609 -2.1964 -2.7726 0.9772
4.8797 -1.3467 -2.7726 0.9772
5.0418 -0.4538 -2.7726 0.9772
5.0622 0.0000 -2.7726 0.9772
5.0418 0.4538 -2.7726 0.9772
4.8797 1.3467 -2.7726 0.9772
4.5608 2.1964 -2.7726 0.9772
4.0954 2.9755 -2.7726 0.9772
3.4983 3.6589 -2.7726 0.9772
2.7887 4.2247 -2.7726 0.9772
2.3988 4.4577 -2.7726 0.9772
1.9896 4.6548 -2.7726 0.9772
0.2271 5.0571 -2.7726 0.9772
4.3266 -2.0836 -2.7726 0.9781
4.4960 -1.6874 -2.7726 0.9781
4.7250 -0.8575 -2.7726 0.9781
4.7250 0.8575 -2.7726 0.9781
4.3266 2.0836 -2.7726 0.9781
3.6164 3.1596 -2.7726 0.9781
2.9941 3.7545 -2.7726 0.9781
2.6455 4.0078 -2.7726 0.9781
1.8874 4.4158 -2.7726 0.9781
1.4840 4.5672 -2.7726 0.9781
1.0686 4.6818 -2.7726 0.9781
0.2154 4.7974 -2.7726 0.9781
-0.6446 4.7587 -2.7726 0.9781
-1.0686 4.6818 -2.7726 0.9781
