ply
format ascii 1.0
element vertex 484
property float32 x
property float32 y
property float32 z
property float32 I
end_header
-4.7162 1.3016 0.8627 0.9803
-6.2617 -0.5637 1.1086 0.9748
-4.2544 -1.5967 0.8013 0.9817
-3.8900 -2.3241 0.7990 0.9818
-4.5846 -3.3310 0.9992 0.9772
-3.5050 -3.0622 0.8207 0.9813
-3.4170 -5.1766 1.0937 0.9751
-4.2851 3.7437 0.8717 0.9772
-4.2291 3.0726 0.8008 0.9791
-4.8570 2.3390 0.8259 0.9784
-4.7116 1.3004 0.7488 0.9804
-4.0645 0.0000 0.6227 0.9837
-4.2522 -1.5959 0.6958 0.9818
-3.9873 -1.9202 0.6780 0.9823
-4.5804 -3.3279 0.8674 0.9773
-4.2187 6.3911 0.9972 0.9696
-4.8514 2.3363 0.7012 0.9785
-4.7072 1.2991 0.6359 0.9805
-4.5683 0.8291 0.6046 0.9814
-7.8093 0.7029 1.0211 0.9689
-6.2484 -0.5625 0.8170 0.9750
-4.7844 -1.3204 0.6463 0.9802
-4.2500 -1.5950 0.5911 0.9819
-3.8866 -2.3221 0.5896 0.9819
-3.5056 -3.0627 0.6062 0.9814
-3.4104 -5.1667 0.8062 0.9753
-5.2646 9.7834 1.1930 0.9563
-4.7610 5.9701 0.8200 0.9697
-4.2075 4.4007 0.6538 0.9758
-4.2756 3.7355 0.6097 0.9774
-4.6533 2.7802 0.5821 0.9784
-4.5166 1.6950 0.5180 0.9808
-5.1548 0.4640 0.5558 0.9794
-4.0577 0.0000 0.4357 0.9838
-5.8146 -1.0553 0.6346 0.9765
-4.5359 -1.2519 0.5053 0.9812
-4.2479 -1.5942 0.4872 0.9819
-3.9787 -1.9160 0.4742 0.9824
-3.8850 -2.3211 0.4860 0.9820
-4.5722 -3.3219 0.6069 0.9775
-3.5059 -3.0630 0.4999 0.9814
-3.4061 -3.5624 0.5293 0.9804
-2.8101 -3.5237 0.4840 0.9820
-3.4072 -5.1618 0.6642 0.9754
-5.8943 13.7908 1.2696 0.9416
-4.1736 6.3225 0.6413 0.9700
-4.5770 5.7394 0.6214 0.9710
-4.2084 4.4016 0.5155 0.9759
-4.2709 3.7314 0.4801 0.9775
-4.0648 2.9533 0.4253 0.9800
-4.6515 2.7791 0.4587 0.9785
-4.8403 2.3310 0.4548 0.9787
-4.5134 1.6938 0.4081 0.9808
-4.6983 1.2967 0.4126 0.9806
-5.1504 0.4636 0.4378 0.9795
-6.2353 -0.5613 0.5300 0.9752
-4.5316 -1.2507 0.3980 0.9813
-4.2457 -1.5934 0.3839 0.9820
-3.9744 -1.9140 0.3734 0.9824
-3.8833 -2.3201 0.3829 0.9820
-4.5681 -3.3190 0.4780 0.9776
-3.5062 -3.0633 0.3941 0.9815
-3.4040 -5.1569 0.5231 0.9755
-5.2233 16.0752 1.0481 0.9345
-5.2455 9.7479 0.6864 0.9566
-4.5772 5.7396 0.4552 0.9710
-4.2093 4.4026 0.3777 0.9759
-4.2663 3.7273 0.3513 0.9776
-4.0725 2.9589 0.3122 0.9800
-4.8348 2.3283 0.3328 0.9787
-4.5102 1.6926 0.2987 0.9809
-4.5561 0.8268 0.2871 0.9816
-6.2287 -0.5607 0.3878 0.9752
-5.8039 -1.0534 0.3658 0.9766
-4.5273 -1.2496 0.2912 0.9814
-3.9702 -1.9119 0.2733 0.9825
-4.5641 -3.3160 0.3498 0.9776
-2.8104 -3.5242 0.2795 0.9821
-3.4008 -5.1521 0.3828 0.9756
-5.4159 12.6711 0.5434 0.9463
-4.4797 8.3246 0.3728 0.9629
-4.2251 6.4007 0.3024 0.9698
-4.2673 5.3511 0.2699 0.9730
-4.2103 4.4036 0.2402 0.9759
-4.0803 2.9645 0.1989 0.9800
-4.6479 2.7770 0.2135 0.9786
-4.8294 2.3257 0.2114 0.9788
-4.5521 0.8261 0.1824 0.9817
-5.1417 0.4628 0.2036 0.9795
-5.7986 -1.0524 0.2324 0.9767
-4.5231 -1.2484 0.1850 0.9814
-3.8800 -2.3182 0.1782 0.9821
-4.5601 -3.3131 0.2223 0.9777
-3.5068 -3.0638 0.1836 0.9815
-2.8106 -3.5244 0.1778 0.9821
-4.4804 8.3259 0.1597 0.9629
-4.2267 6.4031 0.1296 0.9698
-4.6461 2.7759 0.0914 0.9786
-4.5038 1.6902 0.0813 0.9809
-4.6853 1.2931 0.0821 0.9807
-4.5481 0.8254 0.0781 0.9817
-5.1374 0.4624 0.0871 0.9796
-4.0444 0.0000 0.0683 0.9840
-4.5189 -1.2472 0.0792 0.9814
-4.2393 -1.5910 0.0765 0.9820
-3.9618 -1.9079 0.0743 0.9826
-3.5071 -3.0640 0.0787 0.9815
-2.8923 -3.0251 0.0707 0.9834
-3.3945 -5.1425 0.1041 0.9757
-4.4812 8.3272 -0.0532 0.9629
-4.2282 6.4055 -0.0432 0.9698
-4.2628 5.3455 -0.0385 0.9730
-4.2121 4.4055 -0.0343 0.9759
-4.2524 3.7152 -0.0318 0.9777
-4.6444 2.7749 -0.0305 0.9786
-4.5441 0.8247 -0.0260 0.9817
-5.7879 -1.0505 -0.0331 0.9767
-4.5147 -1.2461 -0.0264 0.9814
-4.2372 -1.5902 -0.0255 0.9821
-3.9576 -1.9059 -0.0247 0.9826
-3.8767 -2.3162 -0.0254 0.9821
-4.5520 -3.3073 -0.0317 0.9777
-3.5073 -3.0643 -0.0262 0.9815
-2.8110 -3.5249 -0.0254 0.9821
-5.0487 15.5383 -0.4600 0.9367
-5.4134 12.6652 -0.3878 0.9464
-4.2298 6.4079 -0.2162 0.9697
-4.2606 5.3427 -0.1924 0.9730
-4.4974 1.6878 -0.1353 0.9810
-4.6766 1.2907 -0.1366 0.9808
-4.5104 -1.2449 -0.1318 0.9815
-4.2351 -1.5894 -0.1274 0.9821
-3.9535 -1.9039 -0.1236 0.9826
-2.8928 -3.0256 -0.1179 0.9834
-2.8112 -3.5252 -0.1270 0.9821
-5.4125 12.6633 -0.6984 0.9463
-4.2314 6.4103 -0.3895 0.9697
-4.2584 5.3399 -0.3464 0.9730
-4.2139 4.4074 -0.3092 0.9759
-4.1115 2.9872 -0.2577 0.9799
-4.6408 2.7728 -0.2742 0.9786
-4.4943 1.6867 -0.2434 0.9810
-6.1966 -0.5578 -0.3155 0.9754
-4.5062 -1.2437 -0.2371 0.9815
-4.5440 -3.3015 -0.2848 0.9778
-3.5079 -3.0648 -0.2362 0.9815
-2.8114 -3.5254 -0.2287 0.9821
-5.4117 12.6613 -1.0096 0.9463
-4.2149 4.4084 -0.4472 0.9758
-4.2387 3.7032 -0.4127 0.9777
-4.1194 2.9930 -0.3733 0.9798
-4.6390 2.7717 -0.3962 0.9786
-4.6680 1.2883 -0.3551 0.9808
-4.5321 0.8225 -0.3377 0.9817
-6.1902 -0.5572 -0.4557 0.9754
-5.7721 -1.0476 -0.4301 0.9767
-4.5020 -1.2426 -0.3424 0.9814
-4.2308 -1.5878 -0.3313 0.9820
-3.9451 -1.8999 -0.3211 0.9826
-2.8932 -3.0261 -0.3070 0.9833
-3.3818 -5.1234 -0.4501 0.9757
-5.0367 15.5016 -1.5648 0.9366
-5.4108 12.6593 -1.3217 0.9462
-4.4840 8.3324 -0.9084 0.9627
-4.2539 5.3343 -0.6550 0.9730
-4.2158 4.4094 -0.5857 0.9758
-4.2341 3.6992 -0.5398 0.9777
-4.6373 2.7707 -0.5186 0.9785
-4.6637 1.2871 -0.4645 0.9807
-4.5281 0.8218 -0.4418 0.9817
-5.1157 0.4604 -0.4931 0.9796
-4.0278 0.0000 -0.3867 0.9839
-5.7668 -1.0467 -0.5627 0.9767
-4.4978 -1.2414 -0.4480 0.9814
-4.2287 -1.5870 -0.4336 0.9820
-3.9410 -1.8979 -0.4199 0.9826
-3.8702 -2.3123 -0.4328 0.9820
-4.5360 -3.2956 -0.5383 0.9777
-2.8934 -3.0263 -0.4020 0.9833
-4.4847 8.3338 -1.1242 0.9626
-4.2517 5.3315 -0.8100 0.9729
-4.2167 4.4103 -0.7248 0.9757
-4.7914 2.3074 -0.6317 0.9788
-4.4847 1.6831 -0.5690 0.9809
-4.6593 1.2859 -0.5742 0.9807
-5.1114 0.4600 -0.6096 0.9795
-6.1773 -0.5561 -0.7367 0.9753
-4.4936 -1.2402 -0.5537 0.9814
-4.2265 -1.5862 -0.5362 0.9820
-3.9368 -1.8958 -0.5190 0.9826
-4.5320 -3.2927 -0.6654 0.9777
-3.5088 -3.0656 -0.5535 0.9814
-3.3755 -5.1138 -0.7278 0.9756
-5.0287 15.4770 -2.3058 0.9364
-5.4091 12.6554 -1.9501 0.9459
-4.2494 5.3287 -0.9657 0.9728
-4.2177 4.4113 -0.8648 0.9756
-4.2249 3.6912 -0.7949 0.9776
-4.1435 3.0105 -0.7257 0.9795
-4.6337 2.7685 -0.7648 0.9784
-4.7860 2.3048 -0.7527 0.9788
-4.4815 1.6819 -0.6782 0.9808
-4.5201 0.8203 -0.6509 0.9816
-5.1070 0.4597 -0.7265 0.9795
-4.0212 0.0000 -0.5698 0.9839
-5.7562 -1.0447 -0.8289 0.9766
-4.4894 -1.2391 -0.6599 0.9814
-4.2244 -1.5854 -0.6393 0.9819
-3.9326 -1.8938 -0.6185 0.9825
-3.8669 -2.3103 -0.6382 0.9820
-4.5280 -3.2898 -0.7930 0.9776
-2.8939 -3.0267 -0.5933 0.9832
-2.8122 -3.5264 -0.6391 0.9819
-3.3723 -5.1090 -0.8674 0.9756
-5.0247 15.4646 -2.6787 0.9362
-4.2186 4.4123 -1.0057 0.9756
-4.2203 3.6871 -0.9232 0.9775
-4.6319 2.7674 -0.8889 0.9784
-4.7805 2.3022 -0.8741 0.9787
-4.4783 1.6807 -0.7880 0.9808
-4.5161 0.8196 -0.7561 0.9816
-5.1027 0.4593 -0.8440 0.9794
-6.1644 -0.5549 -1.0196 0.9752
-3.9284 -1.8918 -0.7183 0.9825
-3.8652 -2.3093 -0.7417 0.9819
-4.5239 -3.2868 -0.9212 0.9776
-2.8941 -3.0270 -0.6899 0.9832
-2.8124 -3.5266 -0.7431 0.9819
-8.4239 -15.6542 -2.9285 0.9305
-5.4074 12.6513 -2.5861 0.9455
-4.2411 6.4250 -1.4470 0.9692
-4.2449 5.3230 -1.2797 0.9727
-4.2156 3.6831 -1.0522 0.9775
-4.6462 1.2823 -0.9060 0.9806
-4.5120 0.8188 -0.8619 0.9815
-5.0983 0.4589 -0.9621 0.9794
-6.1579 -0.5543 -1.1621 0.9751
-5.7455 -1.0428 -1.0976 0.9765
-4.5198 -3.2839 -1.0501 0.9775
-3.5097 -3.0663 -0.8760 0.9812
-2.8943 -3.0272 -0.7872 0.9831
-2.8126 -3.5269 -0.8479 0.9818
-3.3659 -5.0993 -1.1484 0.9754
-4.5438 -8.4438 -1.8023 0.9617
-3.5996 -8.4217 -1.7215 0.9634
-5.2551 12.2949 -2.8263 0.9468
-4.1491 3.0145 -1.0841 0.9793
-4.7695 2.2969 -1.1190 0.9786
-4.5079 0.8181 -0.9684 0.9814
-4.0110 0.0000 -0.8479 0.9837
-5.7401 -1.0418 -1.2332 0.9764
-4.4765 -1.2355 -0.9816 0.9812
-4.2179 -1.5830 -0.9523 0.9817
-3.5100 -3.0666 -0.9852 0.9811
-2.8128 -3.5271 -0.9536 0.9817
-4.6919 10.9773 -2.8057 0.9521
-4.2444 6.4300 -1.8107 0.9688
-4.2402 5.3172 -1.5984 0.9724
-4.2215 4.4153 -1.4357 0.9752
-4.2062 3.6748 -1.3127 0.9773
-4.1459 3.0122 -1.2044 0.9792
-4.7639 2.2942 -1.2427 0.9785
-4.4685 1.6770 -1.1217 0.9806
-4.6373 1.2799 -1.1306 0.9804
-4.5038 0.8173 -1.0758 0.9814
-5.0894 0.4581 -1.2010 0.9792
-6.1447 -0.5531 -1.4500 0.9750
-4.4722 -1.2343 -1.0904 0.9811
-4.2157 -1.5822 -1.0583 0.9817
-3.9156 -1.8856 -1.0214 0.9823
-3.8602 -2.3063 -1.0568 0.9817
-3.5103 -3.0669 -1.0955 0.9810
-2.8130 -3.5274 -1.0604 0.9816
-3.3594 -5.0895 -1.4332 0.9753
-5.7176 -10.6252 -2.8358 0.9516
-4.6825 -10.9552 -2.8001 0.9522
-3.2871 10.1168 -2.7542 0.9570
-4.4891 8.3420 -2.4528 0.9616
-4.2461 6.4326 -1.9956 0.9687
-4.2225 4.4164 -1.5820 0.9751
-4.1426 3.0098 -1.3258 0.9791
-4.6245 2.7630 -1.3948 0.9780
-4.7583 2.2915 -1.3674 0.9784
-4.4652 1.6757 -1.2349 0.9805
-4.6328 1.2786 -1.2444 0.9803
-5.0848 0.4577 -1.3219 0.9791
-4.0042 0.0000 -1.0368 0.9836
-6.1380 -0.5525 -1.5957 0.9749
-5.7291 -1.0398 -1.5076 0.9762
-4.2134 -1.5813 -1.1652 0.9816
-4.5074 -3.2749 -1.4426 0.9772
-3.5106 -3.0672 -1.2070 0.9809
-2.8950 -3.0279 -1.0847 0.9828
-2.8132 -3.5277 -1.1683 0.9815
-3.6144 -8.4563 -2.3811 0.9627
-3.8525 9.0135 -2.7750 0.9601
-4.4899 8.3434 -2.6822 0.9614
-4.2479 6.4352 -2.1829 0.9685
-4.2355 5.3113 -1.9232 0.9722
-4.2235 4.4174 -1.7302 0.9749
-4.1393 3.0074 -1.4484 0.9790
-4.7527 2.2888 -1.4933 0.9783
-4.4619 1.6745 -1.3492 0.9804
-4.6283 1.2774 -1.3592 0.9802
-4.4954 0.8158 -1.2934 0.9812
-5.0803 0.4573 -1.4440 0.9790
-4.4634 -1.2319 -1.3108 0.9809
-3.9069 -1.8815 -1.2276 0.9821
-3.8567 -2.3042 -1.2718 0.9815
-4.5032 -3.2718 -1.5758 0.9771
-3.5110 -3.0674 -1.3198 0.9808
-2.8952 -3.0282 -1.1860 0.9827
-4.6911 -8.7174 -2.8025 0.9597
-2.7470 8.4544 -2.7342 0.9635
-3.5302 8.2593 -2.7627 0.9631
-4.1918 3.6622 -1.7121 0.9770
-4.6207 2.7608 -1.6556 0.9777
-4.6237 1.2761 -1.4753 0.9801
-4.4912 0.8151 -1.4040 0.9811
-5.0757 0.4568 -1.5675 0.9789
-4.2089 -1.5796 -1.3827 0.9814
-3.8549 -2.3032 -1.3812 0.9814
-4.4989 -3.2687 -1.7105 0.9770
-3.5113 -3.0677 -1.4341 0.9807
-2.8955 -3.0284 -1.2887 0.9826
-2.8137 -3.5282 -1.3880 0.9813
-3.3495 -5.0744 -1.8701 0.9749
-4.2961 -7.9835 -2.7885 0.9628
-2.5347 7.8009 -2.7265 0.9660
-4.2307 5.3053 -2.2556 0.9718
-4.2255 4.4195 -2.0325 0.9746
-4.1325 3.0025 -1.6980 0.9787
-4.7411 2.2832 -1.7492 0.9781
-4.4550 1.6719 -1.5817 0.9801
-4.6190 1.2748 -1.5928 0.9800
-4.4869 0.8143 -1.5158 0.9810
-6.1176 -0.5507 -2.0417 0.9744
-4.4544 -1.2294 -1.5360 0.9807
-3.8532 -2.3021 -1.4920 0.9813
-3.5116 -3.0680 -1.5500 0.9805
-2.8139 -3.5285 -1.5002 0.9812
-3.3461 -5.0693 -2.0190 0.9747
-3.9582 -7.3556 -2.7766 0.9654
-2.3503 7.2334 -2.7198 0.9682
-3.0158 7.0558 -2.7440 0.9679
-3.6675 6.8154 -2.7677 0.9677
-4.2532 6.4433 -2.7609 0.9677
-4.2283 5.3022 -2.4252 0.9716
-4.2265 4.4206 -2.1871 0.9744
-4.1819 3.6536 -1.9858 0.9767
-4.7353 2.2804 -1.8795 0.9779
-4.4516 1.6706 -1.7003 0.9800
-4.6143 1.2735 -1.7118 0.9799
-5.0663 0.4560 -1.8191 0.9786
-3.9900 0.0000 -1.4269 0.9832
-4.4498 -1.2282 -1.6508 0.9806
-3.8935 -1.8750 -1.5454 0.9818
-4.4903 -3.2624 -1.9848 0.9767
-3.5119 -3.0683 -1.6677 0.9804
-2.8959 -3.0289 -1.4986 0.9824
-2.8141 -3.5287 -1.6140 0.9810
-3.0149 -7.0538 -2.7432 0.9679
-2.1885 6.7354 -2.7139 0.9701
-2.8064 6.5660 -2.7364 0.9699
-4.2258 5.2991 -2.5974 0.9714
-4.2276 4.4217 -2.3444 0.9741
-4.1769 3.6492 -2.1255 0.9765
-4.1256 2.9975 -1.9542 0.9784
-4.6149 2.7573 -2.0601 0.9772
-4.4480 1.6693 -1.8207 0.9799
-4.6095 1.2722 -1.8325 0.9797
-6.1036 -0.5494 -2.3485 0.9741
-5.7006 -1.0347 -2.2203 0.9755
-4.4451 -1.2269 -1.7671 0.9804
-4.4859 -3.2592 -2.1249 0.9765
-3.5123 -3.0686 -1.7873 0.9802
-2.8962 -3.0292 -1.6060 0.9822
-3.3392 -5.0588 -2.3229 0.9744
-2.0468 6.2993 -2.7108 0.9718
-2.6213 6.1329 -2.7297 0.9716
-3.1842 5.9172 -2.7502 0.9714
-3.7284 5.6483 -2.7699 0.9712
-4.2287 4.4228 -2.5044 0.9739
-4.7233 2.2746 -2.1456 0.9776
-4.4445 1.6680 -1.9429 0.9797
-4.6047 1.2708 -1.9550 0.9796
-4.4736 0.8119 -1.8609 0.9805
-5.0567 0.4551 -2.0779 0.9783
-3.9826 0.0000 -1.6300 0.9829
-6.0964 -0.5488 -2.5052 0.9739
-5.6947 -1.0336 -2.3688 0.9753
-4.4404 -1.2256 -1.8853 0.9803
-3.8842 -1.8705 -1.7645 0.9815
-3.8477 -2.2988 -1.8344 0.9808
-4.4813 -3.2559 -2.2671 0.9763
-3.5126 -3.0689 -1.9090 0.9800
-2.8146 -3.5293 -1.8475 0.9807
-3.1830 -5.9151 -2.7492 0.9714
-2.4563 5.7467 -2.7237 0.9731
-3.4904 5.2878 -2.7613 0.9727
-4.2298 4.4240 -2.6675 0.9736
-4.6108 2.7548 -2.3408 0.9768
-4.7172 2.2717 -2.2818 0.9774
-5.0517 0.4547 -2.2105 0.9781
-6.0892 -0.5481 -2.6645 0.9737
-4.4356 -1.2242 -2.0054 0.9801
-3.8795 -1.8683 -1.8766 0.9814
-3.8458 -2.2977 -1.9524 0.9806
-4.4768 -3.2526 -2.4116 0.9761
-3.5129 -3.0692 -2.0330 0.9799
-2.8967 -3.0297 -1.8268 0.9819
-3.3321 -5.0480 -2.6360 0.9740
-2.9814 -5.5405 -2.7420 0.9729
-2.4561 -5.7462 -2.7235 0.9731
-1.8097 5.5697 -2.7108 0.9745
-2.3081 5.4000 -2.7183 0.9744
-2.8012 5.2054 -2.7362 0.9743
-3.7312 4.6787 -2.7701 0.9740
-4.1588 4.3497 -2.7856 0.9738
-4.6087 2.7536 -2.4851 0.9766
-4.4371 1.6652 -2.1938 0.9793
-4.4644 0.8102 -2.1003 0.9802
-3.9750 0.0000 -1.8400 0.9826
-4.4307 -1.2229 -2.1276 0.9799
-4.1945 -1.5742 -2.0738 0.9804
-3.8747 -1.8659 -1.9907 0.9812
-3.8438 -2.2966 -2.0726 0.9805
-2.8970 -3.0300 -1.9404 0.9817
-2.8150 -3.5299 -2.0899 0.9803
-2.3080 -5.3998 -2.7182 0.9744
-1.7078 5.2559 -2.7108 0.9757
-2.1741 5.0866 -2.7134 0.9757
-2.6376 4.9015 -2.7303 0.9755
-3.5108 4.4024 -2.7620 0.9752
-3.9118 4.0914 -2.7766 0.9751
-4.6065 2.7523 -2.6322 0.9764
-4.7046 2.2656 -2.5614 0.9770
-4.4333 1.6638 -2.3228 0.9791
-5.0416 0.4538 -2.4830 0.9777
-4.4258 -1.2215 -2.2521 0.9798
-4.1920 -1.5733 -2.1963 0.9802
-3.8698 -1.8636 -2.1069 0.9810
-4.4674 -3.2458 -2.7087 0.9757
-3.0836 -4.6714 -2.7456 0.9754
-2.0537 4.8049 -2.7108 0.9767
-2.4890 4.6253 -2.7249 0.9766
-3.3108 4.1516 -2.7548 0.9764
-3.6879 3.8572 -2.7685 0.9762
-4.6981 2.2625 -2.7052 0.9768
-4.4549 0.8085 -2.3489 0.9798
-3.9670 0.0000 -2.0580 0.9823
-4.1894 -1.5723 -2.3214 0.9800
-3.8398 -2.2942 -2.3205 0.9800
-4.3538 -3.1632 -2.7919 0.9760
-3.5140 -3.0701 -2.4208 0.9792
-2.8975 -3.0305 -2.1752 0.9813
-2.9091 -4.4071 -2.7395 0.9765
-2.0525 -4.8020 -2.7092 0.9767
-2.3533 4.3732 -2.7200 0.9776
-3.4838 3.6437 -2.7611 0.9773
-3.8128 3.3312 -2.7730 0.9772
-4.1033 2.9813 -2.7780 0.9771
-4.5791 1.2638 -2.6018 0.9786
-3.9629 0.0000 -2.1705 0.9821
-4.1867 -1.5713 -2.4492 0.9798
-3.8597 -1.8587 -2.3464 0.9807
-3.5144 -3.0704 -2.5560 0.9789
-2.8978 -3.0308 -2.2966 0.9811
-2.7498 -4.1657 -2.7338 0.9775
-1.4509 4.4655 -2.7108 0.9785
-1.8454 4.3174 -2.7108 0.9785
-2.9612 3.7133 -2.7421 0.9783
-3.8897 2.8260 -2.7758 0.9780
-4.1409 2.4741 -2.7850 0.9780
-4.4215 1.6593 -2.7266 0.9784
-4.4449 0.8067 -2.6082 0.9794
-4.8488 0.4364 -2.8107 0.9778
-3.9588 0.0000 -2.2856 0.9819
-4.7843 -0.8682 -2.8073 0.9778
-4.4102 -1.2172 -2.6414 0.9791
-3.8545 -1.8562 -2.4700 0.9804
-3.5148 -3.0708 -2.6947 0.9787
-2.2287 -4.1417 -2.7154 0.9785
-1.8454 -4.3174 -2.7108 0.9785
