ply
format ascii 1.0
element vertex 471
property float32 x
property float32 y
property float32 z
property float32 I
end_header
-4.2043 4.3973 1.0727 0.9756
-4.2918 3.7496 1.0049 0.9771
-4.2318 3.0746 0.9223 0.9790
-4.6595 2.7839 0.9571 0.9782
-4.8652 2.3429 0.9522 0.9783
-4.5279 1.6993 0.8528 0.9805
-4.0699 0.0000 0.7176 0.9836
-5.8332 -1.0587 1.0453 0.9762
-4.7910 -1.3222 0.8764 0.9800
-4.5863 -3.3322 0.9996 0.9772
-2.8093 -3.5228 0.7945 0.9819
-4.2166 6.3879 1.1725 0.9695
-4.7716 5.9835 1.1724 0.9695
-4.2053 4.3983 0.9322 0.9757
-4.2870 3.7454 0.8721 0.9772
-4.5247 1.6981 0.7404 0.9806
-7.8183 0.7038 1.2026 0.9687
-6.2575 -0.5633 0.9625 0.9749
-4.7883 -1.3215 0.7610 0.9801
-4.2533 -1.5963 0.6960 0.9818
-3.9896 -1.9213 0.6784 0.9822
-3.5051 -3.0623 0.7130 0.9813
-3.4054 -3.5617 0.7549 0.9803
-4.2134 -9.8577 1.6423 0.9575
-4.2182 6.3903 0.9971 0.9696
-4.7670 5.9776 0.9956 0.9696
-4.2823 3.7413 0.7405 0.9773
-4.2280 3.0718 0.6805 0.9791
-4.6559 2.7817 0.7063 0.9784
-4.5214 1.6969 0.6289 0.9807
-4.5704 0.8294 0.6049 0.9814
-6.2508 -0.5627 0.8173 0.9750
-4.7856 -1.3207 0.6465 0.9802
-4.2512 -1.5955 0.5913 0.9819
-3.9852 -1.9192 0.5760 0.9823
-4.5780 -3.3262 0.7369 0.9774
-2.8097 -3.5233 0.5868 0.9820
-4.7624 5.9719 0.8202 0.9697
-4.2071 4.4003 0.6537 0.9758
-4.2261 3.0704 0.5609 0.9792
-4.5181 1.6956 0.5182 0.9808
-4.7049 1.2985 0.5241 0.9806
-7.8045 0.7025 0.8415 0.9690
-4.0597 0.0000 0.4359 0.9838
-6.2443 -0.5621 0.6732 0.9751
-4.2490 -1.5946 0.4873 0.9819
-3.9810 -1.9171 0.4745 0.9824
-3.8858 -2.3217 0.4861 0.9820
-3.5057 -3.0629 0.4999 0.9814
-3.4059 -3.5623 0.5292 0.9804
-3.4084 -5.1637 0.6644 0.9754
-4.2242 3.0691 0.4420 0.9793
-4.6523 2.7796 0.4588 0.9785
-4.5149 1.6944 0.4082 0.9808
-4.7005 1.2973 0.4128 0.9806
-4.5622 0.8279 0.3925 0.9816
-4.0563 0.0000 0.3434 0.9838
-6.2377 -0.5615 0.5302 0.9752
-5.8114 -1.0547 0.5000 0.9766
-4.5338 -1.2513 0.3981 0.9813
-3.8842 -2.3207 0.3830 0.9820
-3.4062 -3.5626 0.4172 0.9804
-2.8101 -3.5238 0.3815 0.9821
-3.4052 -5.1588 0.5233 0.9755
-5.3059 16.3299 1.0647 0.9335
-5.4169 12.6734 0.8547 0.9463
-4.2682 3.7290 0.3515 0.9775
-4.8373 2.3295 0.3329 0.9787
-4.6961 1.2961 0.3021 0.9807
-4.5582 0.8272 0.2873 0.9816
-4.0530 0.0000 0.2513 0.9839
-5.8060 -1.0538 0.3659 0.9766
-4.2447 -1.5930 0.2811 0.9820
-3.9725 -1.9130 0.2734 0.9825
-3.5063 -3.0634 0.2887 0.9815
-2.8918 -3.0246 0.2595 0.9834
-2.8103 -3.5240 0.2795 0.9821
-3.4020 -5.1540 0.3830 0.9756
-5.0612 15.5768 0.6458 0.9365
-5.4160 12.6715 0.5434 0.9463
-4.2246 6.4000 0.3024 0.9698
-4.2636 3.7250 0.2232 0.9776
-4.6487 2.7775 0.2135 0.9786
-4.5085 1.6920 0.1899 0.9809
-4.6917 1.2949 0.1919 0.9807
-4.5542 0.8265 0.1825 0.9816
-5.1437 0.4630 0.2036 0.9795
-4.0496 0.0000 0.1597 0.9839
-6.2247 -0.5603 0.2464 0.9753
-4.5253 -1.2490 0.1851 0.9814
-4.2426 -1.5922 0.1787 0.9820
-3.9683 -1.9110 0.1737 0.9825
-3.8809 -2.3187 0.1783 0.9821
-4.5618 -3.3144 0.2223 0.9777
-2.8920 -3.0248 0.1650 0.9834
-2.8105 -3.5243 0.1777 0.9821
-3.3988 -5.1492 0.2433 0.9756
-5.0572 15.5645 0.2764 0.9366
-5.4152 12.6695 0.2327 0.9464
-4.2262 6.4024 0.1296 0.9698
-4.2108 4.4041 0.1029 0.9759
-4.2590 3.7210 0.0955 0.9776
-4.0844 2.9675 0.0853 0.9800
-4.8264 2.3242 0.0905 0.9788
-4.5502 0.8258 0.0781 0.9817
-5.1394 0.4626 0.0872 0.9796
-4.0463 0.0000 0.0684 0.9839
-6.2183 -0.5597 0.1055 0.9753
-3.9641 -1.9090 0.0743 0.9826
-3.8793 -2.3177 0.0763 0.9821
-2.8107 -3.5245 0.0761 0.9821
-4.4810 8.3268 -0.0532 0.9629
-4.2117 4.4051 -0.0343 0.9759
-4.0921 2.9732 -0.0285 0.9800
-4.5022 1.6896 -0.0271 0.9809
-4.5462 0.8250 -0.0260 0.9817
-5.1350 0.4622 -0.0290 0.9796
-4.2383 -1.5906 -0.0255 0.9821
-3.9599 -1.9070 -0.0247 0.9826
-3.8776 -2.3167 -0.0254 0.9821
-2.8924 -3.0252 -0.0236 0.9834
-3.3925 -5.1396 -0.0347 0.9757
-5.4135 12.6656 -0.3878 0.9464
-4.4817 8.3282 -0.2663 0.9629
-4.2127 4.4061 -0.1716 0.9759
-4.2498 3.7129 -0.1589 0.9777
-4.0999 2.9788 -0.1427 0.9799
-4.4990 1.6884 -0.1353 0.9810
-4.6788 1.2913 -0.1367 0.9808
-5.1307 0.4618 -0.1451 0.9796
-4.0397 0.0000 -0.1137 0.9840
-5.7848 -1.0499 -0.1655 0.9767
-4.5126 -1.2455 -0.1318 0.9814
-3.9557 -1.9050 -0.1236 0.9826
-4.5497 -3.3056 -0.1584 0.9777
-3.5075 -3.0644 -0.1311 0.9815
-2.8926 -3.0255 -0.1179 0.9834
-5.0453 15.5278 -0.8280 0.9367
-5.4127 12.6636 -0.6984 0.9463
-4.4824 8.3295 -0.4797 0.9628
-4.2309 6.4096 -0.3895 0.9697
-4.2592 5.3409 -0.3464 0.9730
-4.2136 4.4070 -0.3092 0.9759
-4.1078 2.9845 -0.2575 0.9799
-4.6416 2.7732 -0.2742 0.9786
-4.6744 1.2901 -0.2459 0.9808
-5.1264 0.4614 -0.2610 0.9796
-4.0364 0.0000 -0.2047 0.9840
-6.1990 -0.5580 -0.3156 0.9754
-5.7795 -1.0490 -0.2979 0.9767
-3.9516 -1.9030 -0.2224 0.9826
-3.8743 -2.3148 -0.2289 0.9821
-4.5457 -3.3027 -0.2850 0.9777
-3.3862 -5.1300 -0.3117 0.9757
-5.0413 15.5156 -1.1962 0.9367
-4.2406 3.7049 -0.4129 0.9777
-4.8047 2.3138 -0.3910 0.9788
-5.1221 0.4610 -0.3771 0.9796
-4.0331 0.0000 -0.2957 0.9840
-4.5042 -1.2432 -0.3426 0.9814
-4.2320 -1.5883 -0.3314 0.9820
-3.8727 -2.3138 -0.3308 0.9821
-4.5417 -3.2998 -0.4116 0.9777
-3.5081 -3.0649 -0.3416 0.9815
-3.3830 -5.1252 -0.4503 0.9757
-5.0373 15.5033 -1.5650 0.9366
-5.4110 12.6597 -1.3218 0.9462
-4.2341 6.4144 -0.7379 0.9696
-4.2547 5.3353 -0.6551 0.9730
-4.2154 4.4090 -0.5856 0.9758
-4.2360 3.7009 -0.5400 0.9777
-4.6381 2.7711 -0.5187 0.9785
-4.4895 1.6849 -0.4604 0.9809
-4.6658 1.2877 -0.4647 0.9807
-4.5302 0.8221 -0.4420 0.9817
-5.1177 0.4606 -0.4933 0.9796
-4.0298 0.0000 -0.3869 0.9839
-6.1862 -0.5569 -0.5963 0.9753
-5.7689 -1.0471 -0.5629 0.9767
-4.2298 -1.5875 -0.4337 0.9820
-3.9432 -1.8990 -0.4202 0.9826
-3.8711 -2.3128 -0.4329 0.9820
-4.5377 -3.2969 -0.5385 0.9777
-2.8933 -3.0262 -0.4019 0.9833
-4.4845 8.3334 -1.1241 0.9626
-4.2164 4.4100 -0.7248 0.9757
-4.1317 3.0019 -0.6066 0.9796
-4.6363 2.7700 -0.6415 0.9785
-4.4863 1.6837 -0.5692 0.9809
-4.5262 0.8214 -0.5464 0.9816
-5.1134 0.4602 -0.6099 0.9795
-4.0264 0.0000 -0.4783 0.9839
-6.1798 -0.5563 -0.7370 0.9753
-4.2277 -1.5867 -0.5364 0.9820
-3.8694 -2.3118 -0.5354 0.9820
-4.5337 -3.2940 -0.6657 0.9777
-2.8935 -3.0264 -0.4974 0.9833
-2.8119 -3.5260 -0.5357 0.9820
-3.3767 -5.1156 -0.7281 0.9756
-5.0293 15.4787 -2.3060 0.9364
-4.2373 6.4193 -1.0898 0.9694
-4.2502 5.3297 -0.9659 0.9728
-4.2268 3.6929 -0.7953 0.9776
-4.6345 2.7690 -0.7649 0.9784
-4.4831 1.6825 -0.6785 0.9808
-4.6571 1.2853 -0.6845 0.9807
-5.1090 0.4598 -0.7268 0.9795
-4.0231 0.0000 -0.5700 0.9839
-5.7583 -1.0451 -0.8292 0.9766
-3.8678 -2.3108 -0.6384 0.9820
-4.5296 -3.2910 -0.7933 0.9776
-3.5090 -3.0657 -0.6602 0.9814
-2.8937 -3.0266 -0.5933 0.9832
-2.8121 -3.5263 -0.6391 0.9819
-5.0253 15.4663 -2.6790 0.9362
-5.4084 12.6537 -2.2670 0.9457
-4.2390 6.4218 -1.2676 0.9693
-4.2183 4.4119 -1.0056 0.9756
-4.2222 3.6888 -0.9236 0.9775
-4.1479 3.0137 -0.8446 0.9794
-4.6327 2.7679 -0.8890 0.9784
-4.7829 2.3033 -0.8745 0.9787
-4.0197 0.0000 -0.6622 0.9838
-6.1668 -0.5551 -1.0200 0.9752
-4.2234 -1.5850 -0.7431 0.9819
-3.9306 -1.8929 -0.7187 0.9825
-2.8123 -3.5265 -0.7431 0.9819
-3.3704 -5.1060 -1.0079 0.9755
-6.9876 -16.3482 -2.9289 0.9305
-4.7018 14.4708 -2.8599 0.9400
-4.4867 8.3375 -1.7796 0.9622
-4.2456 5.3240 -1.2799 0.9727
-4.2192 4.4129 -1.1476 0.9755
-4.2175 3.6847 -1.0527 0.9775
-4.1538 3.0179 -0.9651 0.9793
-4.6309 2.7668 -1.0140 0.9783
-4.4766 1.6800 -0.8987 0.9807
-5.1003 0.4590 -0.9625 0.9794
-6.1603 -0.5545 -1.1626 0.9751
-3.9264 -1.8908 -0.8191 0.9824
-3.5096 -3.0662 -0.8760 0.9812
-3.3671 -5.1011 -1.1489 0.9754
-4.5503 -8.4558 -1.8049 0.9617
-3.6135 -8.4542 -1.7281 0.9633
-4.2202 4.4139 -1.2909 0.9753
-4.7719 2.2980 -1.1196 0.9786
-4.4734 1.6788 -1.0100 0.9807
-4.5099 0.8185 -0.9689 0.9814
-5.0958 0.4587 -1.0815 0.9793
-4.0130 0.0000 -0.8483 0.9837
-5.7422 -1.0422 -1.2336 0.9764
-4.2190 -1.5834 -0.9526 0.9817
-3.8627 -2.3078 -0.9511 0.9818
-2.8127 -3.5270 -0.9536 0.9817
-5.3492 -12.5152 -2.8770 0.9459
-3.7127 11.4265 -2.8237 0.9518
-4.7879 11.2020 -2.8631 0.9512
-4.2410 5.3182 -1.5987 0.9724
-4.2081 3.6765 -1.3133 0.9773
-4.7663 2.2953 -1.2433 0.9785
-4.6394 1.2804 -1.1311 0.9804
-4.5058 0.8177 -1.0763 0.9814
-4.0096 0.0000 -0.9423 0.9837
-5.7367 -1.0412 -1.3703 0.9763
-4.2168 -1.5826 -1.0585 0.9817
-3.9178 -1.8867 -1.0220 0.9823
-3.8610 -2.3068 -1.0570 0.9817
-3.5102 -3.0667 -1.0955 0.9810
-3.3607 -5.0913 -1.4337 0.9752
-5.8344 -10.8422 -2.8937 0.9507
-4.3201 10.1073 -2.8460 0.9556
-4.2387 5.3152 -1.7602 0.9723
-4.2221 4.4160 -1.5819 0.9751
-4.2034 3.6724 -1.4452 0.9772
-4.6253 2.7635 -1.3951 0.9780
-4.7607 2.2926 -1.3681 0.9784
-4.4668 1.6763 -1.2353 0.9805
-4.6349 1.2792 -1.2449 0.9803
-4.5017 0.8170 -1.1846 0.9813
-5.0868 0.4578 -1.3224 0.9791
-4.0061 0.0000 -1.0373 0.9836
-5.7312 -1.0402 -1.5082 0.9762
-4.4699 -1.2337 -1.2006 0.9810
-3.9135 -1.8846 -1.1247 0.9822
-4.5091 -3.2761 -1.4431 0.9772
-3.5105 -3.0670 -1.2070 0.9809
-3.3574 -5.0863 -1.5780 0.9751
-4.3128 -10.0903 -2.8412 0.9557
-3.0560 9.4055 -2.7996 0.9597
-3.9314 9.1979 -2.8317 0.9593
-4.2363 5.3123 -1.9235 0.9721
-4.2231 4.4170 -1.7300 0.9749
-4.1986 3.6682 -1.5783 0.9771
-4.6234 2.7624 -1.5247 0.9779
-4.7550 2.2899 -1.4941 0.9783
-4.6304 1.2779 -1.3598 0.9802
-5.0823 0.4574 -1.4446 0.9790
-4.0026 0.0000 -1.1331 0.9835
-6.1337 -0.5521 -1.7434 0.9747
-3.9091 -1.8825 -1.2283 0.9821
-3.8576 -2.3048 -1.2721 0.9815
-4.5049 -3.2730 -1.5764 0.9771
-3.3541 -5.0813 -1.7236 0.9750
-4.7870 -8.8957 -2.8598 0.9589
-3.9282 -9.1904 -2.8294 0.9593
-2.8033 8.6277 -2.7903 0.9627
-4.3874 8.1531 -2.8478 0.9620
-4.2491 6.4371 -2.3724 0.9682
-4.2339 5.3093 -2.0887 0.9720
-4.1374 3.0060 -1.5730 0.9788
-4.6215 2.7612 -1.6559 0.9777
-4.7493 2.2871 -1.6214 0.9782
-4.6258 1.2767 -1.4760 0.9801
-4.4932 0.8154 -1.4046 0.9811
-5.0777 0.4570 -1.5681 0.9789
-3.9991 0.0000 -1.2300 0.9834
-3.9047 -1.8804 -1.3330 0.9820
-3.8558 -2.3037 -1.3815 0.9814
-4.5006 -3.2700 -1.7111 0.9770
-2.8953 -3.0283 -1.2887 0.9826
-2.8135 -3.5281 -1.3880 0.9813
-3.3507 -5.0762 -1.8708 0.9749
-4.2508 6.4398 -2.5649 0.9680
-4.2315 5.3062 -2.2560 0.9718
-4.2252 4.4191 -2.0323 0.9746
-4.1340 3.0035 -1.6985 0.9787
-4.4566 1.6725 -1.5823 0.9801
-4.6211 1.2754 -1.5935 0.9800
-4.4889 0.8146 -1.5165 0.9810
-5.0730 0.4566 -1.6931 0.9788
-3.9955 0.0000 -1.3281 0.9833
-4.2077 -1.5792 -1.4939 0.9812
-3.9002 -1.8783 -1.4390 0.9819
-3.8540 -2.3026 -1.4923 0.9813
-3.5114 -3.0679 -1.5500 0.9805
-3.3473 -5.0711 -2.0198 0.9747
-4.0391 -7.5059 -2.8333 0.9647
-3.3200 -7.7675 -2.8079 0.9650
-2.3983 7.3813 -2.7755 0.9676
-3.0775 7.2001 -2.8002 0.9673
-3.7426 6.9548 -2.8243 0.9670
-4.2527 6.4425 -2.7605 0.9677
-4.1305 3.0010 -1.8258 0.9785
-5.0683 0.4562 -1.8198 0.9786
-6.1131 -0.5503 -2.1949 0.9743
-4.2054 -1.5783 -1.6063 0.9811
-3.8957 -1.8761 -1.5463 0.9818
-4.4920 -3.2636 -1.9856 0.9767
-3.5118 -3.0681 -1.6676 0.9804
-2.8958 -3.0288 -1.4985 0.9824
-2.8140 -3.5286 -1.6140 0.9810
-3.7405 -6.9510 -2.8228 0.9670
-2.2332 6.8732 -2.7695 0.9695
-2.8638 6.7003 -2.7924 0.9693
-3.4806 6.4682 -2.8148 0.9690
-4.1788 3.6509 -2.1265 0.9765
-4.4496 1.6699 -1.8213 0.9798
-4.6116 1.2728 -1.8333 0.9797
-4.4802 0.8131 -1.7449 0.9807
-5.0635 0.4557 -1.9483 0.9785
-3.9882 0.0000 -1.5284 0.9831
-6.1060 -0.5496 -2.3494 0.9741
-4.4472 -1.2275 -1.7680 0.9804
-4.2030 -1.5774 -1.7204 0.9810
-3.5121 -3.0684 -1.7872 0.9802
-3.3404 -5.0606 -2.3237 0.9744
-3.4791 -6.4652 -2.8135 0.9690
-2.8632 -6.6988 -2.7918 0.9693
-2.0874 6.4246 -2.7647 0.9712
-2.6749 6.2583 -2.7855 0.9710
-3.8047 5.7639 -2.8266 0.9706
-4.1737 3.6464 -2.2683 0.9763
-4.1235 2.9959 -2.0860 0.9782
-4.6136 2.7565 -2.1996 0.9770
-4.4460 1.6686 -1.9436 0.9797
-5.0587 0.4553 -2.0788 0.9783
-3.9845 0.0000 -1.6308 0.9829
-4.4425 -1.2262 -1.8862 0.9803
-3.8485 -2.2994 -1.8348 0.9808
-2.8963 -3.0293 -1.7153 0.9820
-3.2481 -6.0360 -2.8054 0.9708
-2.5065 5.8643 -2.7794 0.9726
-4.0570 5.0873 -2.8358 0.9720
-4.2294 4.4236 -2.6673 0.9736
-4.1684 3.6419 -2.4124 0.9761
-4.7195 2.2728 -2.2830 0.9774
-4.6019 1.2701 -2.0805 0.9794
-6.0916 -0.5483 -2.6655 0.9737
-5.6908 -1.0329 -2.5207 0.9751
-4.4377 -1.2248 -2.0064 0.9801
-4.1982 -1.5756 -1.9542 0.9806
-3.8817 -1.8693 -1.8777 0.9814
-3.5128 -3.0690 -2.0329 0.9799
-2.8966 -3.0296 -1.8267 0.9819
-2.8146 -3.5295 -1.9674 0.9805
-3.3333 -5.0498 -2.6370 0.9739
-3.0424 -5.6537 -2.7981 0.9724
-2.5063 -5.8637 -2.7792 0.9726
-2.3553 5.5104 -2.7739 0.9739
-3.3442 5.0662 -2.8099 0.9736
-3.8075 4.7745 -2.8267 0.9734
-4.2305 4.4248 -2.8337 0.9734
-4.6095 2.7540 -2.4855 0.9766
-4.5968 1.2687 -2.2074 0.9792
-4.1957 -1.5746 -2.0744 0.9804
-3.8769 -1.8670 -1.9919 0.9812
-4.4738 -3.2505 -2.5597 0.9759
-3.5131 -3.0693 -2.1594 0.9796
-2.8578 -5.3107 -2.7916 0.9738
-1.7417 5.3604 -2.7647 0.9752
-2.2186 5.1907 -2.7690 0.9752
-2.6916 5.0017 -2.7862 0.9750
-3.9918 4.1751 -2.8334 0.9746
-4.1578 3.6325 -2.7082 0.9757
-4.6073 2.7528 -2.6327 0.9764
-4.7070 2.2667 -2.5627 0.9770
-4.5917 1.2673 -2.3366 0.9790
-4.4617 0.8097 -2.2243 0.9800
-3.9729 0.0000 -1.9488 0.9825
-4.4279 -1.2221 -2.2532 0.9797
-3.8720 -1.8647 -2.1081 0.9810
-3.8427 -2.2959 -2.1957 0.9803
-2.6911 -5.0009 -2.7857 0.9750
-2.2186 -5.1907 -2.7690 0.9752
-1.6469 5.0684 -2.7647 0.9763
-3.3785 4.2366 -2.8111 0.9759
-3.7633 3.9361 -2.8251 0.9758
-4.4310 1.6629 -2.4553 0.9789
-5.0383 0.4535 -2.6244 0.9775
-3.9689 0.0000 -2.0590 0.9823
-5.5456 -0.4991 -2.8886 0.9752
-4.4228 -1.2207 -2.3802 0.9795
-4.1905 -1.5727 -2.3220 0.9800
-3.8670 -1.8623 -2.2267 0.9808
-3.8407 -2.2947 -2.3210 0.9800
-4.4425 -3.2277 -2.8487 0.9756
-3.5139 -3.0700 -2.4207 0.9792
-2.0946 -4.9004 -2.7647 0.9763
-1.5599 4.8008 -2.7647 0.9772
-2.4014 4.4626 -2.7756 0.9772
-2.8066 4.2519 -2.7904 0.9770
-4.1048 2.9823 -2.7789 0.9771
-4.4682 2.6696 -2.8508 0.9765
-4.6939 2.2604 -2.8534 0.9765
-4.4271 1.6614 -2.5899 0.9787
-5.0330 0.4530 -2.7677 0.9772
-5.1646 -0.9372 -2.8749 0.9763
-4.1878 -1.5717 -2.4499 0.9798
-3.8386 -2.2934 -2.4491 0.9798
-4.1951 -3.0479 -2.8401 0.9766
-2.8977 -3.0307 -2.2966 0.9811
-2.8156 -3.5307 -2.4734 0.9796
-2.4013 -4.4623 -2.7754 0.9772
-1.4798 4.5543 -2.7647 0.9781
-2.2743 4.2264 -2.7710 0.9781
-3.3642 3.5187 -2.8106 0.9778
-4.2256 2.5247 -2.8420 0.9775
-4.4476 2.1418 -2.8500 0.9775
-4.4230 1.6599 -2.7276 0.9784
-4.5757 1.2629 -2.7406 0.9783
-4.4470 0.8070 -2.6094 0.9793
-4.9479 0.4453 -2.8682 0.9773
-3.9606 0.0000 -2.2867 0.9819
-4.4123 -1.2178 -2.6427 0.9791
-3.8567 -1.8573 -2.4714 0.9804
-3.8365 -2.2922 -2.5802 0.9796
-3.9682 -2.8831 -2.8319 0.9776
-3.5146 -3.0706 -2.6945 0.9787
-2.8159 -3.5310 -2.6075 0.9794
-2.2743 -4.2263 -2.7709 0.9781
-1.8821 -4.4033 -2.7647 0.9781
