ply
format ascii 1.0
element vertex 353
property float32 x
property float32 y
property float32 z
property float32 I
end_header
-4.0705 0.0000 0.7177 0.9836
-4.7914 -1.3223 0.8764 0.9800
-4.2558 -1.5972 0.8015 0.9817
-3.8911 -2.3248 0.7992 0.9818
-4.5868 -3.3325 0.9997 0.9772
-4.0586 -3.5459 0.9503 0.9783
-3.4051 -3.5614 0.8688 0.9802
-2.8093 -3.5228 0.7945 0.9819
-3.4186 -5.1790 1.0942 0.9751
-4.0670 0.0000 0.6230 0.9837
-5.8282 -1.0578 0.9074 0.9763
-4.2536 -1.5964 0.6960 0.9818
-4.5826 -3.3295 0.8678 0.9773
-3.5051 -3.0623 0.7130 0.9813
-3.4054 -3.5617 0.7549 0.9803
-3.4153 -5.1740 0.9497 0.9752
-4.0636 0.0000 0.5292 0.9837
-6.2515 -0.5627 0.8174 0.9750
-5.8228 -1.0568 0.7706 0.9764
-4.7860 -1.3208 0.6465 0.9802
-3.9859 -1.9195 0.5761 0.9823
-3.8877 -2.3228 0.5897 0.9819
-3.5054 -3.0626 0.6062 0.9814
-2.8097 -3.5233 0.5868 0.9820
-4.0602 0.0000 0.4360 0.9838
-4.7833 -1.3201 0.5328 0.9802
-4.5744 -3.3235 0.6072 0.9775
-3.4059 -3.5623 0.5292 0.9804
-2.8099 -3.5235 0.4839 0.9820
-4.0569 0.0000 0.3434 0.9838
-6.2384 -0.5616 0.5302 0.9752
-5.8120 -1.0549 0.5000 0.9766
-4.5344 -1.2515 0.3982 0.9813
-4.2471 -1.5940 0.3840 0.9820
-3.9773 -1.9154 0.3737 0.9824
-3.8844 -2.3208 0.3830 0.9820
-2.8101 -3.5238 0.3815 0.9821
-3.4055 -5.1593 0.5233 0.9755
-3.9731 -1.9133 0.2735 0.9825
-3.8828 -2.3198 0.2805 0.9820
-4.5663 -3.3176 0.3500 0.9776
-3.4024 -5.1545 0.3830 0.9756
-4.0502 0.0000 0.1597 0.9839
-5.8013 -1.0529 0.2325 0.9767
-3.8811 -2.3188 0.1783 0.9821
-4.5622 -3.3147 0.2224 0.9777
-3.5066 -3.0636 0.1836 0.9815
-2.8920 -3.0247 0.1650 0.9834
-2.8105 -3.5242 0.1777 0.9821
-4.0469 0.0000 0.0684 0.9839
-5.7960 -1.0520 0.0995 0.9767
-4.5216 -1.2480 0.0792 0.9814
-3.8795 -2.3179 0.0763 0.9821
-3.5069 -3.0639 0.0787 0.9815
-3.3960 -5.1449 0.1041 0.9756
-4.2386 -1.5908 -0.0255 0.9821
-3.8779 -2.3169 -0.0254 0.9821
-3.3929 -5.1401 -0.0347 0.9757
-4.0402 0.0000 -0.1138 0.9840
-3.8762 -2.3159 -0.1271 0.9821
-2.8926 -3.0254 -0.1179 0.9834
-3.3897 -5.1353 -0.1733 0.9757
-6.1997 -0.5581 -0.3157 0.9754
-4.2344 -1.5892 -0.2294 0.9820
-3.8746 -2.3149 -0.2289 0.9821
-4.5462 -3.3030 -0.2850 0.9777
-3.5077 -3.0646 -0.2362 0.9815
-2.8928 -3.0257 -0.2123 0.9834
-3.3865 -5.1305 -0.3118 0.9757
-4.0336 0.0000 -0.2958 0.9840
-6.1933 -0.5575 -0.4559 0.9754
-4.5048 -1.2433 -0.3426 0.9814
-3.9480 -1.9013 -0.3213 0.9826
-3.8729 -2.3139 -0.3308 0.9821
-4.5422 -3.3001 -0.4117 0.9777
-3.5080 -3.0649 -0.3416 0.9815
-2.8930 -3.0259 -0.3070 0.9833
-2.8115 -3.5255 -0.3306 0.9821
-3.3834 -5.1257 -0.4503 0.9757
-4.0303 0.0000 -0.3869 0.9839
-6.1869 -0.5569 -0.5964 0.9753
-5.7696 -1.0472 -0.5630 0.9767
-4.5005 -1.2422 -0.4482 0.9814
-4.5382 -3.2972 -0.5385 0.9777
-3.5083 -3.0651 -0.4473 0.9815
-2.8117 -3.5257 -0.4329 0.9820
-3.3802 -5.1209 -0.5891 0.9756
-6.1804 -0.5563 -0.7371 0.9753
-4.2280 -1.5868 -0.5364 0.9820
-3.9396 -1.8972 -0.5194 0.9825
-3.8696 -2.3120 -0.5355 0.9820
-2.8935 -3.0263 -0.4974 0.9833
-4.0236 0.0000 -0.5701 0.9839
-6.1740 -0.5558 -0.8783 0.9753
-4.4921 -1.2398 -0.6603 0.9813
-4.2258 -1.5860 -0.6395 0.9819
-4.5301 -3.2914 -0.7934 0.9776
-3.5089 -3.0657 -0.6602 0.9814
-2.8121 -3.5262 -0.6391 0.9819
-2.6501 -19.5638 -2.7973 0.9233
0.8801 -19.5965 -2.7794 0.9238
7.6432 -17.8822 -2.7555 0.9244
10.5828 -16.0322 -2.7219 0.9253
12.8735 -13.4646 -2.6395 0.9275
14.0286 -12.2565 -2.6395 0.9275
-4.0203 0.0000 -0.6623 0.9838
-6.1675 -0.5552 -1.0201 0.9752
-3.9312 -1.8932 -0.7188 0.9825
-3.5092 -3.0659 -0.7677 0.9813
-2.8939 -3.0268 -0.6899 0.9832
-3.3707 -5.1065 -1.0080 0.9755
-8.6351 -16.0467 -3.0020 0.9288
-7.0244 -16.4344 -2.9443 0.9301
-0.7569 -16.8546 -2.7794 0.9339
5.2136 -16.0459 -2.7794 0.9339
6.6099 -15.4646 -2.7706 0.9341
11.0723 -11.5807 -2.6395 0.9371
12.0658 -10.5416 -2.6395 0.9371
-4.4835 -1.2375 -0.8742 0.9812
-3.9270 -1.8911 -0.8193 0.9824
-3.8646 -2.3090 -0.8462 0.9818
-3.5095 -3.0662 -0.8760 0.9812
-2.8941 -3.0270 -0.7872 0.9831
-2.8125 -3.5267 -0.8479 0.9818
-3.3675 -5.1016 -1.1490 0.9754
-3.3414 -14.6396 -2.8224 0.9407
-1.9848 -14.6525 -2.7793 0.9416
1.9726 -14.5624 -2.7622 0.9419
3.2638 -14.2997 -2.7569 0.9420
5.7421 -13.4344 -2.7461 0.9423
7.8548 -11.8995 -2.6800 0.9436
10.5751 -9.2392 -2.6395 0.9444
-4.0135 0.0000 -0.8484 0.9837
-6.1544 -0.5540 -1.3062 0.9751
-5.7428 -1.0423 -1.2337 0.9764
-4.4792 -1.2363 -0.9822 0.9812
-3.8630 -2.3080 -0.9512 0.9818
-2.9572 -12.9564 -2.8092 0.9471
-0.5894 -13.1248 -2.7771 0.9477
0.5867 -13.0647 -2.7644 0.9479
1.7526 -12.9383 -2.7599 0.9480
2.9004 -12.7075 -2.7552 0.9481
6.1443 -11.4180 -2.7408 0.9484
7.8954 -9.9006 -2.6768 0.9495
8.6670 -9.0650 -2.6510 0.9500
9.4247 -8.2342 -2.6454 0.9501
-6.1478 -0.5534 -1.4507 0.9750
-3.9184 -1.8870 -1.0222 0.9823
-3.5101 -3.0667 -1.0955 0.9810
-5.8663 -10.9014 -2.9095 0.9504
-4.8042 -11.2401 -2.8729 0.9510
-3.7285 -11.4753 -2.8358 0.9516
-2.6497 -11.6090 -2.7985 0.9522
-0.5301 -11.8041 -2.7770 0.9526
0.5298 -11.7973 -2.7754 0.9526
3.6152 -11.1265 -2.7495 0.9531
5.5263 -10.2696 -2.7409 0.9532
7.8744 -8.2360 -2.6780 0.9543
-4.0066 0.0000 -1.0374 0.9836
-4.2149 -1.5818 -1.1656 0.9816
-3.9141 -1.8849 -1.1248 0.9822
-3.5104 -3.0670 -1.2069 0.9809
-3.3577 -5.0868 -1.5781 0.9751
-3.3697 -10.3708 -2.8234 0.9559
-1.4404 -10.6338 -2.7784 0.9566
0.4809 -10.7088 -2.7755 0.9567
1.4380 -10.6154 -2.7736 0.9567
3.2807 -10.0969 -2.7488 0.9571
4.1666 -9.7482 -2.7449 0.9571
7.2594 -7.5927 -2.7199 0.9575
7.8020 -6.8164 -2.6824 0.9581
-4.0031 0.0000 -1.1333 0.9835
-6.1344 -0.5522 -1.7436 0.9747
-5.7262 -1.0393 -1.6475 0.9761
-4.4661 -1.2326 -1.3116 0.9809
-3.9097 -1.8828 -1.2285 0.9821
-3.5108 -3.0673 -1.3198 0.9808
-2.8951 -3.0280 -1.1860 0.9827
-2.8133 -3.5278 -1.2774 0.9814
-3.3544 -5.0818 -1.7238 0.9750
-4.8131 -8.9443 -2.8754 0.9587
-3.9496 -9.2406 -2.8449 0.9591
-3.0716 -9.4533 -2.8139 0.9595
-1.3173 -9.7250 -2.7782 0.9600
0.4399 -9.7945 -2.7756 0.9601
1.3154 -9.7110 -2.7742 0.9601
2.1791 -9.5471 -2.7722 0.9601
2.9999 -9.2326 -2.7482 0.9604
6.6651 -6.9712 -2.7304 0.9607
-5.7206 -1.0383 -1.7883 0.9760
-4.2104 -1.5801 -1.3832 0.9814
-3.8560 -2.3038 -1.3816 0.9814
-2.8953 -3.0283 -1.2886 0.9826
-3.3510 -5.0767 -1.8710 0.9749
-4.4079 -8.1912 -2.8611 0.9618
-2.0108 -8.8099 -2.7794 0.9629
-1.2124 -8.9503 -2.7781 0.9629
-0.4050 -9.0190 -2.7768 0.9629
2.0063 -8.7901 -2.7732 0.9630
3.5190 -8.2331 -2.7539 0.9632
4.2229 -7.8475 -2.7410 0.9634
-3.8543 -2.3028 -1.4924 0.9813
-3.5114 -3.0678 -1.5499 0.9805
-2.8955 -3.0285 -1.3928 0.9825
-2.8138 -3.5283 -1.5001 0.9812
-3.3476 -5.0716 -2.0200 0.9747
-3.3381 -7.8100 -2.8233 0.9648
-2.6004 -8.0032 -2.7972 0.9652
-1.8606 -8.1519 -2.7794 0.9654
-1.1224 -8.2858 -2.7794 0.9654
0.3746 -8.3418 -2.7757 0.9654
1.1204 -8.2712 -2.7745 0.9654
2.5772 -7.9319 -2.7723 0.9655
3.2766 -7.6660 -2.7712 0.9655
3.9376 -7.3173 -2.7621 0.9656
5.1315 -6.4348 -2.7358 0.9659
-6.1138 -0.5503 -2.1951 0.9743
-5.7092 -1.0362 -2.0750 0.9757
-4.4525 -1.2289 -1.6518 0.9806
-4.2057 -1.5784 -1.6064 0.9811
-3.8524 -2.3017 -1.6048 0.9811
-3.5117 -3.0681 -1.6676 0.9804
-2.8958 -3.0287 -1.4985 0.9824
-3.3442 -5.0664 -2.1709 0.9745
-3.0934 -7.2373 -2.8146 0.9671
0.3482 -7.7540 -2.7757 0.9676
1.0415 -7.6887 -2.7746 0.9676
1.7259 -7.5615 -2.7736 0.9676
2.3958 -7.3736 -2.7726 0.9676
3.0461 -7.1267 -2.7716 0.9676
3.6714 -6.8226 -2.7706 0.9676
4.2668 -6.4639 -2.7697 0.9676
4.8140 -6.0365 -2.7611 0.9677
5.7867 -5.0557 -2.7479 0.9679
-3.9887 0.0000 -1.5286 0.9831
-6.1067 -0.5497 -2.3496 0.9741
-5.7033 -1.0352 -2.2213 0.9755
-4.4478 -1.2276 -1.7682 0.9804
-4.2033 -1.5775 -1.7205 0.9810
-4.4880 -3.2608 -2.1259 0.9765
-3.5121 -3.0684 -1.7872 0.9802
-3.4981 -6.5005 -2.8289 0.9689
-2.8788 -6.7354 -2.8070 0.9691
-1.6139 -7.0710 -2.7794 0.9694
0.9723 -7.1781 -2.7759 0.9694
1.6107 -7.0565 -2.7738 0.9695
2.8428 -6.6511 -2.7719 0.9695
3.9822 -6.0328 -2.7702 0.9695
-3.9850 0.0000 -1.6310 0.9829
-4.2009 -1.5766 -1.8364 0.9808
-3.8487 -2.2995 -1.8349 0.9808
-4.4835 -3.2575 -2.2682 0.9763
-2.8963 -3.0293 -1.7153 0.9820
-2.0986 -6.4587 -2.7794 0.9711
-1.5112 -6.6208 -2.7794 0.9711
-0.9116 -6.7296 -2.7794 0.9711
2.0937 -6.4439 -2.7730 0.9711
3.2087 -5.9628 -2.7713 0.9712
4.2195 -5.2911 -2.7698 0.9712
4.6756 -4.8903 -2.7691 0.9712
5.0940 -4.4505 -2.7685 0.9712
-6.0922 -0.5484 -2.6658 0.9737
-5.6914 -1.0330 -2.5209 0.9751
-4.4383 -1.2250 -2.0066 0.9801
-3.8823 -1.8696 -1.8780 0.9814
-3.8469 -2.2984 -1.9530 0.9806
-3.5128 -3.0690 -2.0329 0.9799
-2.8965 -3.0295 -1.8267 0.9819
-3.3336 -5.0503 -2.6373 0.9739
-3.0590 -5.6846 -2.8134 0.9722
-2.5200 -5.8958 -2.7943 0.9724
-1.4191 -6.2176 -2.7794 0.9726
0.2861 -6.3711 -2.7794 0.9726
1.9706 -6.0648 -2.7792 0.9726
2.5045 -5.8595 -2.7771 0.9726
3.5045 -5.3091 -2.7724 0.9726
4.3960 -4.5979 -2.7723 0.9726
4.7938 -4.1882 -2.7742 0.9726
-6.0848 -0.5477 -2.8279 0.9734
-2.8149 -3.5297 -2.0898 0.9803
-3.3299 -5.0447 -2.7980 0.9737
-2.8734 -5.3397 -2.8068 0.9736
-1.8555 -5.7107 -2.7794 0.9739
-0.8060 -5.9502 -2.7794 0.9739
2.3599 -5.5214 -2.7794 0.9739
4.5210 -3.9499 -2.7789 0.9739
-3.9735 0.0000 -1.9491 0.9825
-5.9226 -0.5330 -2.9169 0.9739
-4.4284 -1.2223 -2.2535 0.9797
-4.4695 -3.2473 -2.7100 0.9757
-3.5135 -3.0696 -2.2885 0.9794
-2.8971 -3.0301 -2.0564 0.9815
-2.2307 -5.2191 -2.7841 0.9750
-1.2608 -5.5242 -2.7794 0.9751
0.2542 -5.6605 -2.7794 0.9751
0.7606 -5.6150 -2.7794 0.9751
1.2609 -5.5242 -2.7794 0.9751
2.2270 -5.2103 -2.7794 0.9751
2.6851 -4.9897 -2.7794 0.9751
3.9157 -4.0955 -2.7794 0.9751
-5.5759 -0.5018 -2.9044 0.9751
-4.4234 -1.2209 -2.3806 0.9795
-4.1908 -1.5728 -2.3222 0.9800
-3.8676 -1.8625 -2.2270 0.9808
-3.8409 -2.2948 -2.3211 0.9800
-4.4647 -3.2438 -2.8630 0.9754
-2.8154 -3.5303 -2.3425 0.9799
-2.9848 -4.5217 -2.8107 0.9759
-2.1059 -4.9270 -2.7797 0.9761
-1.1922 -5.2233 -2.7794 0.9761
-0.2404 -5.3522 -2.7794 0.9761
0.2404 -5.3522 -2.7794 0.9761
1.1922 -5.2233 -2.7794 0.9761
1.6556 -5.0954 -2.7794 0.9761
2.1057 -4.9265 -2.7794 0.9761
3.3404 -4.1888 -2.7794 0.9761
3.7025 -3.8725 -2.7794 0.9761
4.0347 -3.5250 -2.7794 0.9761
-5.2608 -0.4735 -2.8930 0.9762
-5.1928 -0.9424 -2.8906 0.9762
-3.8625 -1.8601 -2.3481 0.9806
-3.5142 -3.0703 -2.5559 0.9789
-2.8976 -3.0307 -2.2965 0.9811
-2.8156 -3.5307 -2.4734 0.9796
-2.4144 -4.4867 -2.7906 0.9770
-1.1292 -4.9475 -2.7794 0.9771
-0.6812 -5.0287 -2.7794 0.9771
0.6812 -5.0288 -2.7794 0.9771
1.9945 -4.6663 -2.7794 0.9771
3.1640 -3.9675 -2.7794 0.9771
3.5069 -3.6680 -2.7794 0.9771
3.8216 -3.3388 -2.7794 0.9771
-4.9728 -0.4475 -2.8826 0.9772
-4.9088 -0.8908 -2.8804 0.9772
-4.4129 -1.2180 -2.6430 0.9791
-4.1854 -1.5708 -2.5810 0.9796
-3.8573 -1.8576 -2.4718 0.9804
-3.8368 -2.2923 -2.5804 0.9796
-2.8979 -3.0310 -2.4211 0.9808
-2.6714 -4.0470 -2.7997 0.9779
-2.2867 -4.2494 -2.7861 0.9780
-1.0712 -4.6934 -2.7794 0.9780
-0.6462 -4.7705 -2.7794 0.9780
-0.2160 -4.8092 -2.7794 0.9780
0.2160 -4.8092 -2.7794 0.9780
0.6462 -4.7705 -2.7794 0.9780
1.0712 -4.6934 -2.7794 0.9780
1.4876 -4.5785 -2.7794 0.9780
1.8921 -4.4267 -2.7794 0.9780
2.2812 -4.2393 -2.7794 0.9780
3.0015 -3.7638 -2.7794 0.9780
3.3268 -3.4796 -2.7794 0.9780
3.6254 -3.1674 -2.7794 0.9780
