ply
format ascii 1.0
element vertex 374
property float32 x
property float32 y
property float32 z
property float32 I
end_header
-4.0689 0.0000 0.7175 0.9836
-6.2628 -0.5637 1.1088 0.9748
-5.8320 -1.0585 1.0451 0.9762
-4.7904 -1.3220 0.8762 0.9800
-4.5854 -3.3315 0.9994 0.9772
-6.2561 -0.5631 0.9623 0.9749
-5.8265 -1.0575 0.9072 0.9763
-3.9883 -1.9207 0.6782 0.9822
-3.8887 -2.3234 0.6939 0.9818
-4.5812 -3.3285 0.8675 0.9773
-3.5052 -3.0624 0.7131 0.9813
-3.4054 -3.5618 0.7549 0.9803
-3.4143 -5.1725 0.9495 0.9752
-4.2134 -9.8577 1.6423 0.9575
-6.2495 -0.5625 0.8171 0.9750
-5.8210 -1.0565 0.7704 0.9764
-4.7850 -1.3205 0.6464 0.9802
-3.9840 -1.9186 0.5758 0.9823
-4.5771 -3.3255 0.7367 0.9774
-2.8098 -3.5234 0.5868 0.9820
-3.4110 -5.1676 0.8063 0.9753
-5.8156 -1.0555 0.6347 0.9765
-4.5369 -1.2522 0.5054 0.9812
-4.2484 -1.5944 0.4873 0.9819
-3.8854 -2.3214 0.4860 0.9820
-3.5058 -3.0629 0.4999 0.9814
-2.8100 -3.5236 0.4840 0.9820
-4.0553 0.0000 0.3433 0.9839
-5.8102 -1.0546 0.4999 0.9766
-3.9754 -1.9145 0.3735 0.9824
-4.5689 -3.3196 0.4781 0.9776
-2.8102 -3.5239 0.3815 0.9821
-4.0519 0.0000 0.2513 0.9839
-4.5283 -1.2498 0.2913 0.9813
-3.8821 -2.3194 0.2804 0.9820
-2.8919 -3.0246 0.2595 0.9834
-2.8104 -3.5241 0.2795 0.9821
-4.0486 0.0000 0.1596 0.9839
-6.2234 -0.5602 0.2464 0.9753
-4.5241 -1.2487 0.1851 0.9814
-4.2420 -1.5920 0.1787 0.9820
-3.9670 -1.9104 0.1736 0.9825
-3.5067 -3.0637 0.1836 0.9815
-2.8921 -3.0249 0.1650 0.9834
-2.8106 -3.5244 0.1777 0.9821
-3.3982 -5.1481 0.2432 0.9756
-6.2170 -0.5596 0.1054 0.9753
-5.7942 -1.0517 0.0995 0.9767
-4.5199 -1.2475 0.0792 0.9814
-4.2398 -1.5912 0.0765 0.9820
-3.8788 -2.3174 0.0763 0.9821
-4.5568 -3.3108 0.0951 0.9777
-3.5070 -3.0640 0.0787 0.9815
-2.8923 -3.0251 0.0707 0.9834
-2.8108 -3.5246 0.0761 0.9821
-3.3950 -5.1433 0.1041 0.9756
-4.0419 0.0000 -0.0228 0.9840
-6.2105 -0.5590 -0.0351 0.9754
-5.7889 -1.0507 -0.0331 0.9767
-4.5156 -1.2463 -0.0264 0.9814
-4.2377 -1.5904 -0.0255 0.9821
-3.9587 -1.9064 -0.0247 0.9826
-3.8771 -2.3165 -0.0254 0.9821
-4.5528 -3.3079 -0.0317 0.9777
-3.3918 -5.1386 -0.0347 0.9757
-5.7837 -1.0497 -0.1655 0.9768
-4.5114 -1.2452 -0.1318 0.9814
-3.5076 -3.0645 -0.1312 0.9815
-2.8112 -3.5251 -0.1270 0.9821
11.3130 -14.1861 -0.5109 0.9300
-5.7784 -1.0488 -0.2978 0.9768
-4.5072 -1.2440 -0.2371 0.9814
-3.9503 -1.9024 -0.2224 0.9826
-4.5448 -3.3020 -0.2849 0.9778
-3.5079 -3.0647 -0.2362 0.9815
-3.3855 -5.1290 -0.3117 0.9757
-4.5030 -1.2429 -0.3425 0.9814
-3.8722 -2.3135 -0.3307 0.9821
-3.5082 -3.0650 -0.3416 0.9815
-2.8115 -3.5256 -0.3306 0.9821
-6.1849 -0.5567 -0.5962 0.9754
-4.4988 -1.2417 -0.4481 0.9814
-4.2292 -1.5872 -0.4337 0.9820
-3.5085 -3.0652 -0.4473 0.9815
-3.3792 -5.1194 -0.5889 0.9757
-5.7625 -1.0459 -0.6957 0.9767
-4.2271 -1.5864 -0.5363 0.9820
-3.9378 -1.8963 -0.5192 0.9825
-4.5328 -3.2933 -0.6655 0.9777
-2.8936 -3.0265 -0.4974 0.9833
-2.8120 -3.5261 -0.5357 0.9820
-3.3761 -5.1146 -0.7280 0.9756
-6.1720 -0.5556 -0.8780 0.9753
-5.7572 -1.0449 -0.8291 0.9766
-3.9336 -1.8943 -0.6186 0.9825
-3.3729 -5.1098 -0.8675 0.9756
-2.6070 -19.2456 -2.7518 0.9245
-0.8661 -19.2856 -2.7353 0.9250
0.8661 -19.2856 -2.7353 0.9250
2.5914 -19.1303 -2.7353 0.9250
5.9554 -18.3288 -2.7306 0.9251
7.5246 -17.6048 -2.7127 0.9256
9.0155 -16.7536 -2.6957 0.9260
11.7416 -14.7236 -2.6683 0.9267
12.6584 -13.2397 -2.5954 0.9287
13.7942 -12.0517 -2.5954 0.9287
-4.0187 0.0000 -0.6620 0.9838
-6.1655 -0.5550 -1.0198 0.9752
-4.5247 -3.2874 -0.9214 0.9776
-3.5094 -3.0660 -0.7677 0.9813
-2.8940 -3.0269 -0.6899 0.9832
-2.8123 -3.5266 -0.7431 0.9819
-3.3697 -5.1050 -1.0077 0.9755
-3.7704 -16.5193 -2.7914 0.9336
0.7449 -16.5872 -2.7353 0.9349
2.2287 -16.4537 -2.7353 0.9349
7.6298 -14.1785 -2.6525 0.9368
8.7018 -13.1826 -2.6022 0.9380
9.8227 -12.3173 -2.5954 0.9381
-4.0153 0.0000 -0.7547 0.9838
-5.7464 -1.0430 -1.0977 0.9765
-3.8639 -2.3086 -0.8460 0.9818
-2.8943 -3.0271 -0.7872 0.9831
-3.3665 -5.1001 -1.1486 0.9754
-3.6059 -8.4365 -1.7245 0.9633
-3.2870 -14.4011 -2.7765 0.9417
-0.6511 -14.4970 -2.7276 0.9426
1.9409 -14.3282 -2.7177 0.9428
3.2113 -14.0697 -2.7126 0.9430
5.6498 -13.2183 -2.7020 0.9432
7.7478 -11.7374 -2.6435 0.9444
9.5474 -9.9851 -2.5968 0.9453
10.3984 -9.0848 -2.5954 0.9454
-6.1524 -0.5538 -1.3057 0.9751
-5.7410 -1.0420 -1.2334 0.9764
-4.2184 -1.5832 -0.9524 0.9817
-3.8622 -2.3076 -0.9510 0.9818
-2.8945 -3.0274 -0.8854 0.9830
-2.8128 -3.5271 -0.9536 0.9817
-2.7230 -8.3806 -1.8627 0.9646
-2.9090 -12.7454 -2.7634 0.9480
-0.5801 -12.9163 -2.7330 0.9485
0.5773 -12.8546 -2.7199 0.9488
2.8538 -12.5031 -2.7109 0.9489
3.9562 -12.1759 -2.7062 0.9490
5.0229 -11.7517 -2.7015 0.9491
6.0454 -11.2343 -2.6967 0.9492
7.0158 -10.6284 -2.6920 0.9493
9.2726 -8.1013 -2.6027 0.9509
-4.0085 0.0000 -0.9421 0.9837
-5.7356 -1.0410 -1.3700 0.9763
-4.4731 -1.2346 -1.0906 0.9811
-3.9166 -1.8861 -1.0217 0.9823
-3.8605 -2.3065 -1.0569 0.9817
-4.5124 -3.2785 -1.3109 0.9773
-3.5103 -3.0668 -1.0955 0.9810
-2.8947 -3.0276 -0.9845 0.9829
-2.8129 -3.5273 -1.0603 0.9816
-5.7707 -10.7238 -2.8621 0.9512
0.5214 -11.6098 -2.7313 0.9534
2.5654 -11.2397 -2.7095 0.9537
3.5571 -10.9475 -2.7053 0.9538
4.5169 -10.5679 -2.7011 0.9539
8.3666 -7.3097 -2.6111 0.9554
-4.0050 0.0000 -1.0370 0.9836
-4.4688 -1.2334 -1.2003 0.9810
-4.2140 -1.5815 -1.1654 0.9816
-3.9123 -1.8841 -1.1243 0.9822
-3.8588 -2.3055 -1.1639 0.9816
-2.8132 -3.5276 -1.1682 0.9815
-3.3567 -5.0853 -1.5777 0.9751
-3.3148 -10.2018 -2.7774 0.9566
-1.4176 -10.4649 -2.7343 0.9573
-0.4735 -10.5442 -2.7328 0.9573
1.4153 -10.4483 -2.7300 0.9574
2.3277 -10.1982 -2.7084 0.9577
3.2279 -9.9345 -2.7046 0.9578
4.0996 -9.5914 -2.7007 0.9578
4.9357 -9.1721 -2.6968 0.9579
6.4756 -8.1202 -2.6892 0.9580
7.6934 -6.7216 -2.6451 0.9587
-4.0015 0.0000 -1.1328 0.9835
-5.7245 -1.0390 -1.6470 0.9761
-4.4643 -1.2322 -1.3111 0.9809
-4.2117 -1.5807 -1.2735 0.9815
-3.5109 -3.0674 -1.3198 0.9808
-2.8952 -3.0281 -1.1860 0.9827
-2.8134 -3.5279 -1.2774 0.9814
-3.8853 -9.0900 -2.7985 0.9597
-3.0215 -9.2992 -2.7680 0.9602
-1.2964 -9.5706 -2.7341 0.9606
-0.4331 -9.6436 -2.7328 0.9607
0.4329 -9.6389 -2.7315 0.9607
1.2946 -9.5567 -2.7302 0.9607
2.9570 -9.1008 -2.7090 0.9610
5.2412 -7.9402 -2.6934 0.9612
5.9242 -7.4287 -2.6899 0.9613
7.1375 -6.2358 -2.6831 0.9614
-6.1256 -0.5514 -1.8917 0.9746
-5.7189 -1.0380 -1.7877 0.9760
-4.4599 -1.2309 -1.4230 0.9808
-3.5112 -3.0676 -1.4341 0.9807
-2.8136 -3.5281 -1.3880 0.9813
-4.3360 -8.0577 -2.8144 0.9624
-1.9758 -8.6566 -2.7311 0.9635
-0.3986 -8.8757 -2.7327 0.9635
0.3984 -8.8718 -2.7315 0.9635
2.7407 -8.4350 -2.7279 0.9636
3.4698 -8.1181 -2.7155 0.9637
4.8246 -7.3089 -2.6937 0.9640
5.4538 -6.8389 -2.6905 0.9641
6.0378 -6.3151 -2.6873 0.9641
-3.9945 0.0000 -1.3278 0.9833
-6.1187 -0.5508 -2.0421 0.9744
-5.7132 -1.0369 -1.9301 0.9758
-4.4553 -1.2297 -1.5363 0.9807
-4.2071 -1.5789 -1.4937 0.9812
-3.8990 -1.8777 -1.4385 0.9819
-4.4954 -3.2662 -1.8471 0.9768
-2.8138 -3.5284 -1.5001 0.9812
-3.3466 -5.0701 -2.0194 0.9747
-3.9950 -7.4239 -2.8024 0.9651
-3.2837 -7.6826 -2.7772 0.9654
-1.8311 -8.0225 -2.7353 0.9659
-0.3688 -8.2127 -2.7327 0.9659
0.3687 -8.2093 -2.7316 0.9660
1.1026 -8.1399 -2.7304 0.9660
1.8271 -8.0050 -2.7293 0.9660
2.5363 -7.8059 -2.7283 0.9660
3.2246 -7.5442 -2.7272 0.9660
3.8809 -7.2120 -2.7224 0.9661
4.4902 -6.8025 -2.7094 0.9662
5.5901 -5.8468 -2.6889 0.9665
6.0834 -5.3149 -2.6852 0.9665
-3.9908 0.0000 -1.4272 0.9832
-4.4507 -1.2284 -1.6511 0.9806
-4.2048 -1.5781 -1.6061 0.9811
-3.8945 -1.8755 -1.5458 0.9818
-3.5119 -3.0682 -1.6677 0.9804
-2.8959 -3.0289 -1.4986 0.9824
-2.8140 -3.5287 -1.6140 0.9810
-3.0429 -7.1193 -2.7687 0.9676
-2.3721 -7.3004 -2.7450 0.9679
-1.7021 -7.4572 -2.7353 0.9680
-1.0267 -7.5797 -2.7353 0.9680
0.3429 -7.6343 -2.7328 0.9681
1.6985 -7.4414 -2.7295 0.9681
2.3578 -7.2565 -2.7285 0.9681
2.9977 -7.0135 -2.7276 0.9681
5.2454 -5.4862 -2.7143 0.9683
5.7054 -4.9846 -2.7093 0.9683
-6.1047 -0.5495 -2.3489 0.9741
-4.2024 -1.5772 -1.7201 0.9810
-3.3397 -5.0596 -2.3232 0.9744
-3.4410 -6.3946 -2.7828 0.9694
-2.2089 -6.7982 -2.7393 0.9698
-0.3202 -7.1306 -2.7353 0.9699
0.3202 -7.1306 -2.7353 0.9699
1.5850 -6.9445 -2.7297 0.9699
2.2004 -6.7722 -2.7288 0.9700
3.3721 -6.2663 -2.7270 0.9700
3.9190 -5.9370 -2.7261 0.9700
5.3529 -4.6767 -2.7240 0.9700
-3.9835 0.0000 -1.6303 0.9829
-4.2000 -1.5763 -1.8360 0.9808
-3.8853 -1.8710 -1.7649 0.9815
-3.8480 -2.2991 -1.8346 0.9808
-4.4821 -3.2565 -2.2675 0.9763
-3.5125 -3.0688 -1.9090 0.9800
-2.8145 -3.5292 -1.8475 0.9807
-3.2126 -5.9701 -2.7747 0.9711
-2.6453 -6.1890 -2.7547 0.9713
-0.8971 -6.6228 -2.7353 0.9715
-0.2998 -6.6766 -2.7353 0.9715
0.2998 -6.6766 -2.7353 0.9715
0.8971 -6.6228 -2.7353 0.9715
2.6198 -6.1294 -2.7281 0.9716
3.1578 -5.8681 -2.7273 0.9716
4.1525 -5.2070 -2.7258 0.9716
5.0131 -4.3798 -2.7245 0.9716
-3.9797 0.0000 -1.7344 0.9828
-6.0903 -0.5482 -2.6650 0.9737
-4.4366 -1.2245 -2.0058 0.9801
-4.1975 -1.5753 -1.9540 0.9806
-3.8805 -1.8688 -1.8771 0.9814
-3.0092 -5.5919 -2.7675 0.9727
-2.4789 -5.7996 -2.7488 0.9729
-1.3966 -6.1190 -2.7353 0.9730
-0.8425 -6.2195 -2.7353 0.9730
-0.2816 -6.2700 -2.7353 0.9730
1.3966 -6.1189 -2.7353 0.9730
2.4660 -5.7696 -2.7345 0.9730
2.9710 -5.5211 -2.7325 0.9730
4.7205 -4.1242 -2.7319 0.9730
-6.0829 -0.5475 -2.8270 0.9734
-4.4317 -1.2232 -2.1281 0.9799
-4.1950 -1.5744 -2.0741 0.9804
-3.8757 -1.8664 -1.9912 0.9812
-4.4729 -3.2498 -2.5592 0.9759
-3.5132 -3.0694 -2.1595 0.9796
-1.3149 -5.7611 -2.7353 0.9743
-0.7932 -5.8558 -2.7353 0.9743
0.7932 -5.8558 -2.7353 0.9743
1.3149 -5.7611 -2.7353 0.9743
3.2553 -4.9315 -2.7352 0.9743
4.0833 -4.2707 -2.7350 0.9743
-3.9719 0.0000 -1.9483 0.9825
-5.8259 -0.5243 -2.8693 0.9743
-5.6773 -1.0304 -2.8303 0.9746
-4.1925 -1.5734 -2.1966 0.9802
-4.4681 -3.2463 -2.7091 0.9757
-3.5136 -3.0697 -2.2886 0.9794
-2.8152 -3.5301 -2.2148 0.9801
-3.1122 -4.7148 -2.7711 0.9751
-2.1944 -5.1340 -2.7387 0.9754
-1.7232 -5.3034 -2.7353 0.9755
-1.2409 -5.4365 -2.7353 0.9755
0.2502 -5.5707 -2.7353 0.9755
2.1916 -5.1276 -2.7353 0.9755
2.6424 -4.9105 -2.7353 0.9755
3.0720 -4.6539 -2.7353 0.9755
3.8536 -4.0305 -2.7353 0.9755
-5.4850 -0.4937 -2.8570 0.9755
-5.4138 -0.9825 -2.8544 0.9755
-4.4216 -1.2204 -2.3796 0.9795
-4.1899 -1.5725 -2.3217 0.9800
-3.8658 -1.8617 -2.2260 0.9809
-3.8402 -2.2944 -2.3207 0.9800
-4.3941 -3.1925 -2.8177 0.9758
-3.5140 -3.0700 -2.4207 0.9792
-2.8974 -3.0305 -2.1751 0.9813
-2.9361 -4.4480 -2.7649 0.9763
-2.0715 -4.8467 -2.7344 0.9765
-0.7078 -5.2249 -2.7353 0.9765
-0.2365 -5.2673 -2.7353 0.9765
0.7078 -5.2249 -2.7353 0.9765
1.6293 -5.0146 -2.7353 0.9765
2.0723 -4.8483 -2.7353 0.9765
2.9047 -4.4004 -2.7353 0.9765
3.9706 -3.4691 -2.7353 0.9765
-3.9638 0.0000 -2.1710 0.9821
-5.1750 -0.4658 -2.8458 0.9766
-4.1872 -1.5715 -2.4496 0.9798
-3.8607 -1.8592 -2.3470 0.9806
-2.8977 -3.0308 -2.2966 0.9811
-2.8157 -3.5308 -2.4734 0.9796
-2.3750 -4.4136 -2.7451 0.9774
-1.5433 -4.7497 -2.7353 0.9775
-1.1113 -4.8690 -2.7353 0.9775
-0.6704 -4.9490 -2.7353 0.9775
-0.2241 -4.9891 -2.7353 0.9775
0.6704 -4.9490 -2.7353 0.9775
1.1113 -4.8689 -2.7353 0.9775
1.9628 -4.5923 -2.7353 0.9775
2.3666 -4.3978 -2.7353 0.9775
3.4513 -3.6098 -2.7353 0.9775
3.7610 -3.2858 -2.7353 0.9775
-4.4112 -1.2175 -2.6420 0.9791
-4.1845 -1.5704 -2.5805 0.9796
-3.8361 -2.2919 -2.5799 0.9796
-3.9248 -2.8516 -2.8009 0.9778
-3.5147 -3.0707 -2.6946 0.9787
-2.8159 -3.5311 -2.6076 0.9794
-2.2494 -4.1802 -2.7407 0.9783
-1.8620 -4.3565 -2.7353 0.9784
-1.4640 -4.5058 -2.7353 0.9784
-0.6360 -4.6948 -2.7353 0.9784
-0.2126 -4.7329 -2.7353 0.9784
0.2126 -4.7329 -2.7353 0.9784
0.6360 -4.6948 -2.7353 0.9784
1.0542 -4.6189 -2.7353 0.9784
1.8621 -4.3565 -2.7353 0.9784
3.2741 -3.4244 -2.7353 0.9784
3.5678 -3.1171 -2.7353 0.9784
