ply
format ascii 1.0
element vertex 366
property float32 x
property float32 y
property float32 z
property float32 I
end_header
8.8304 3.3141 1.6631 0.9624
11.8199 3.2621 1.8784 0.9516
8.8743 3.3306 1.2343 0.9625
8.8237 9.2289 1.6627 0.9498
7.3335 9.1959 1.5317 0.9537
7.4409 11.2725 1.7589 0.9470
14.6275 7.0441 1.7434 0.9368
8.7789 9.1820 1.3641 0.9502
6.6841 10.1259 1.3029 0.9524
14.6295 7.0451 1.3746 0.9369
11.5945 6.9274 1.1433 0.9472
9.1867 8.0261 1.0327 0.9522
7.9794 8.3458 0.9774 0.9547
6.6852 10.1276 1.0273 0.9525
6.5308 15.2797 1.4067 0.9355
11.5964 6.9285 0.8377 0.9473
9.1881 8.0274 0.7566 0.9523
7.3379 9.2014 0.7298 0.9539
14.6337 7.0471 0.6404 0.9370
10.6039 7.7041 0.5168 0.9489
9.1895 8.0286 0.4812 0.9523
7.9820 8.3485 0.4554 0.9548
6.1439 11.4175 0.5112 0.9494
14.5272 6.9961 0.2724 0.9375
10.6053 7.7052 0.2214 0.9489
9.1909 8.0298 0.2062 0.9523
7.9832 8.3498 0.1951 0.9548
7.1163 8.9237 0.1928 0.9554
6.1446 11.4188 0.2190 0.9494
6.0457 14.1447 0.2598 0.9403
5.6923 17.5193 0.3112 0.9290
16.4772 6.1841 -0.0991 0.9320
10.6067 7.7062 -0.0738 0.9489
6.6894 10.1340 -0.0684 0.9526
6.1454 11.4201 -0.0730 0.9494
14.8201 -2.6895 -0.4241 0.9415
13.3352 3.6803 -0.3895 0.9461
11.6040 6.9331 -0.3806 0.9473
10.6081 7.7072 -0.3692 0.9489
9.1937 8.0323 -0.3438 0.9523
7.1183 8.9262 -0.3215 0.9553
6.6905 10.1356 -0.3420 0.9526
6.1461 11.4214 -0.3652 0.9494
6.0463 14.1460 -0.4332 0.9403
5.6917 17.5173 -0.5186 0.9289
-2.6171 11.4663 -0.3312 0.9540
8.6464 3.2451 -0.4684 0.9637
14.5399 7.0022 -0.8184 0.9374
11.6059 6.9342 -0.6856 0.9473
9.1951 8.0335 -0.6192 0.9523
7.9871 8.3539 -0.5861 0.9548
6.1468 11.4227 -0.6578 0.9494
6.0466 14.1467 -0.7802 0.9402
-2.6171 11.4663 -0.5965 0.9540
17.4166 0.0000 -1.2770 0.9325
13.4126 3.7017 -1.0202 0.9457
14.5441 7.0042 -1.1836 0.9373
11.6079 6.9354 -0.9915 0.9472
10.6109 7.7092 -0.9617 0.9488
9.1965 8.0347 -0.8954 0.9522
7.9884 8.3552 -0.8476 0.9547
7.1203 8.9286 -0.8373 0.9552
6.6926 10.1389 -0.8908 0.9524
6.1475 11.4240 -0.9512 0.9493
-2.6171 11.4663 -0.8624 0.9539
13.4595 -1.2114 -1.2974 0.9471
16.2083 0.0000 -1.5561 0.9369
16.3973 2.9757 -1.6002 0.9352
13.4519 3.7125 -1.3397 0.9455
16.4896 6.1887 -1.6909 0.9317
11.6098 6.9365 -1.2984 0.9471
10.6123 7.7103 -1.2593 0.9487
7.1212 8.9299 -1.0965 0.9551
6.1482 11.4254 -1.2456 0.9492
6.0471 14.1480 -1.4771 0.9400
16.1698 0.0000 -1.9207 0.9369
16.3973 2.9757 -1.9796 0.9351
13.4915 3.7234 -1.6625 0.9452
16.4927 6.1899 -2.0925 0.9315
14.5526 7.0083 -1.9187 0.9370
11.6117 6.9377 -1.6067 0.9470
10.6137 7.7113 -1.5584 0.9485
9.1994 8.0372 -1.4511 0.9520
7.9910 8.3580 -1.3736 0.9545
7.1222 8.9311 -1.3569 0.9550
6.6948 10.1421 -1.4435 0.9522
6.1489 11.4267 -1.5414 0.9491
6.0474 14.1486 -1.8277 0.9399
16.0985 -9.6184 -2.6571 0.9270
16.8959 -8.1367 -2.6571 0.9270
18.4517 -3.3485 -2.6571 0.9270
13.6796 -1.2312 -1.9461 0.9460
16.3973 2.9757 -2.3613 0.9349
13.5499 3.7395 -1.9916 0.9448
14.5569 7.0104 -2.2893 0.9368
11.6137 6.9388 -1.9169 0.9468
10.6151 7.7123 -1.8591 0.9484
9.2008 8.0385 -1.7311 0.9518
7.9923 8.3594 -1.6387 0.9544
6.6959 10.1438 -1.7222 0.9521
6.1496 11.4280 -1.8388 0.9489
6.0477 14.1493 -2.1803 0.9397
5.6901 17.5124 -2.6090 0.9283
13.0488 -9.4805 -2.6571 0.9367
13.8461 -8.2726 -2.6571 0.9367
15.5479 -4.2910 -2.6571 0.9367
15.8728 -2.8805 -2.6576 0.9367
13.6401 0.0000 -2.2471 0.9462
9.2023 8.0398 -2.0131 0.9517
7.9937 8.3607 -1.9056 0.9542
6.6970 10.1454 -2.0026 0.9519
6.1504 11.4294 -2.1382 0.9487
6.0480 14.1500 -2.5351 0.9395
5.2467 16.1477 -2.7971 0.9335
3.7781 16.5530 -2.7971 0.9335
2.2791 16.8250 -2.7971 0.9335
0.7617 16.9616 -2.7971 0.9335
-3.8652 16.9347 -2.8615 0.9320
12.7365 -6.1336 -2.6571 0.9441
14.0306 -2.5462 -2.6803 0.9436
11.9068 -1.0716 -2.2471 0.9525
11.9549 0.0000 -2.2471 0.9525
11.9068 1.0716 -2.2471 0.9525
11.7628 2.1346 -2.2471 0.9525
13.0768 6.2974 -2.7281 0.9426
7.9950 8.3621 -2.1745 0.9540
7.1253 8.9349 -2.1480 0.9546
6.6980 10.1471 -2.2853 0.9517
6.1511 11.4307 -2.4399 0.9485
4.5985 14.1527 -2.7971 0.9412
0.6676 14.8661 -2.7971 0.9412
-0.6676 14.8661 -2.7971 0.9412
-1.9975 14.7464 -2.7971 0.9412
10.1696 -7.3886 -2.6571 0.9499
10.7910 -6.4473 -2.6571 0.9499
11.7905 -4.4250 -2.6620 0.9498
12.2337 -3.3763 -2.6826 0.9494
12.5603 -2.2794 -2.6984 0.9491
10.6304 0.0000 -2.2471 0.9575
11.6598 5.6151 -2.7356 0.9485
10.5277 7.6488 -2.7507 0.9482
9.2052 8.0423 -2.5838 0.9513
7.9963 8.3635 -2.4459 0.9538
6.6992 10.1488 -2.5705 0.9515
5.2006 12.1675 -2.7971 0.9473
0.5937 13.2191 -2.7971 0.9473
-0.5937 13.2191 -2.7971 0.9473
-1.7762 13.1126 -2.7971 0.9473
9.1792 -6.6691 -2.6666 0.9544
10.1861 -4.9054 -2.6571 0.9546
9.5225 0.8570 -2.2471 0.9615
9.4073 1.7072 -2.2471 0.9615
9.2164 2.5436 -2.2471 0.9615
8.6142 4.1484 -2.2471 0.9615
8.8612 7.7418 -2.7655 0.9528
7.9977 8.3650 -2.7199 0.9536
7.1273 8.9375 -2.6866 0.9541
3.6777 11.3187 -2.7971 0.9523
0.5339 11.8892 -2.7971 0.9523
-0.5339 11.8892 -2.7971 0.9523
-2.6678 11.6885 -2.8177 0.9519
8.8545 -5.2903 -2.6706 0.9583
9.2997 -4.4785 -2.6725 0.9582
10.0856 -2.7835 -2.7090 0.9577
8.6786 0.0000 -2.2471 0.9648
8.6437 0.7779 -2.2471 0.9648
8.5392 1.5496 -2.2471 0.9648
8.3659 2.3088 -2.2471 0.9648
8.1253 3.0495 -2.2471 0.9648
9.1299 5.4549 -2.7537 0.9570
8.6235 6.2653 -2.7599 0.9569
5.1191 9.5130 -2.7971 0.9563
4.2458 9.9336 -2.7971 0.9563
2.4039 10.5320 -2.7971 0.9563
0.4847 10.7920 -2.7971 0.9563
-2.4136 10.5748 -2.8084 0.9562
8.5683 -4.1263 -2.6922 0.9612
8.9463 -3.3576 -2.7051 0.9611
7.9198 -1.4372 -2.2787 0.9671
7.9198 -0.7128 -2.2511 0.9675
7.9375 0.0000 -2.2471 0.9675
7.9198 0.7128 -2.2511 0.9675
7.9198 1.4372 -2.2787 0.9671
7.9198 2.9723 -2.3947 0.9654
7.9198 3.8140 -2.4885 0.9641
7.9089 5.7462 -2.7675 0.9602
7.3780 6.4459 -2.7735 0.9601
6.1393 7.6985 -2.7875 0.9599
5.4399 8.2411 -2.7954 0.9598
3.8832 9.0853 -2.7971 0.9598
3.0532 9.3968 -2.7971 0.9598
1.3263 9.7909 -2.7971 0.9598
-0.4433 9.8704 -2.7971 0.9598
-1.3263 9.7909 -2.7971 0.9598
-2.2014 9.6450 -2.8006 0.9597
7.2055 -5.2351 -2.7395 0.9634
7.5744 -4.5255 -2.7139 0.9637
8.2637 -3.1014 -2.7149 0.9637
7.9198 -1.4372 -2.4757 0.9669
7.9198 -0.7128 -2.4458 0.9673
7.9198 0.0000 -2.4360 0.9674
7.9198 1.4372 -2.4757 0.9669
7.9198 2.1857 -2.5270 0.9662
7.9198 2.9723 -2.6019 0.9652
7.9198 3.8140 -2.7037 0.9639
7.7298 4.6183 -2.7695 0.9630
7.2975 5.3020 -2.7744 0.9630
6.8065 5.9467 -2.7800 0.9629
6.2599 6.5474 -2.7862 0.9628
5.0097 7.5895 -2.7971 0.9627
4.3093 8.0080 -2.7971 0.9627
2.8101 8.6487 -2.7971 0.9627
1.2207 9.0115 -2.7971 0.9627
0.4080 9.0847 -2.7971 0.9627
-0.4080 9.0847 -2.7971 0.9627
-1.2207 9.0115 -2.7971 0.9627
7.0793 -4.2297 -2.7412 0.9658
7.3634 -3.5460 -2.7167 0.9661
7.6703 -2.8787 -2.7233 0.9661
7.9325 -2.1892 -2.7354 0.9659
7.9198 -1.4372 -2.6756 0.9666
7.9198 2.1857 -2.7310 0.9660
7.5134 3.6182 -2.7720 0.9655
7.1688 4.2832 -2.7759 0.9654
5.8031 6.0696 -2.7913 0.9652
4.6356 7.0226 -2.7971 0.9652
3.3071 7.7375 -2.7971 0.9652
2.6003 8.0028 -2.7971 0.9652
0.3775 8.4061 -2.7971 0.9652
-1.1295 8.3384 -2.7971 0.9652
7.1492 -2.6832 -2.7307 0.9681
7.7442 -0.0000 -2.7694 0.9676
7.6235 1.3835 -2.7708 0.9676
7.4734 2.0625 -2.7725 0.9676
7.2646 2.7264 -2.7748 0.9676
6.9986 3.3703 -2.7778 0.9675
5.8764 5.1341 -2.7905 0.9674
4.3089 6.5277 -2.7971 0.9673
3.0741 7.1922 -2.7971 0.9673
1.7405 7.6255 -2.7971 0.9673
-0.3509 7.8137 -2.7971 0.9673
-1.7405 7.6255 -2.7971 0.9673
6.2315 -3.7231 -2.7818 0.9694
6.5398 -3.1494 -2.7817 0.9694
6.7053 -2.5165 -2.7446 0.9698
7.0844 -1.2856 -2.7592 0.9696
7.2009 -0.6481 -2.7707 0.9695
7.2415 0.0000 -2.7751 0.9695
7.2132 0.6492 -2.7754 0.9695
7.1284 1.2936 -2.7764 0.9694
6.9878 1.9285 -2.7780 0.9694
6.5430 3.1509 -2.7830 0.9694
6.2418 3.7293 -2.7864 0.9693
4.0209 6.0914 -2.7971 0.9692
2.8687 6.7115 -2.7971 0.9692
0.3275 7.2915 -2.7971 0.9692
-0.9797 7.2328 -2.7971 0.9692
5.5061 -4.0004 -2.7855 0.9710
5.8491 -3.4947 -2.7886 0.9710
6.4845 -1.7896 -2.7531 0.9713
6.6444 -1.2058 -2.7638 0.9712
6.6866 1.2134 -2.7814 0.9711
6.5544 1.8089 -2.7829 0.9710
6.1365 2.9552 -2.7876 0.9710
5.8536 3.4974 -2.7908 0.9710
5.5239 4.0134 -2.7945 0.9709
4.7228 4.9397 -2.7971 0.9709
3.2385 6.0182 -2.7971 0.9709
1.5208 6.6628 -2.7971 0.9709
0.3066 6.8273 -2.7971 0.9709
-0.9174 6.7723 -2.7971 0.9709
5.1852 -3.7673 -2.7933 0.9724
6.0053 -2.2538 -2.7954 0.9724
6.2489 -1.1340 -2.7679 0.9727
6.3497 -0.5715 -2.7785 0.9726
6.3646 0.5728 -2.7850 0.9725
6.2895 1.1414 -2.7859 0.9725
6.1650 1.7014 -2.7873 0.9725
5.9919 2.2488 -2.7892 0.9725
5.7713 2.7793 -2.7917 0.9724
5.5049 3.2890 -2.7947 0.9724
5.1923 3.7724 -2.7971 0.9724
4.8332 4.2226 -2.7971 0.9724
4.4352 4.6389 -2.7971 0.9724
3.5356 5.3563 -2.7971 0.9724
2.5224 5.9015 -2.7971 0.9724
1.9833 6.1039 -2.7971 0.9724
0.2879 6.4115 -2.7971 0.9724
-0.2879 6.4115 -2.7971 0.9724
-0.8615 6.3599 -2.7971 0.9724
4.8883 -3.5516 -2.7969 0.9737
5.1873 -3.0993 -2.7971 0.9737
5.8981 -1.0703 -2.7747 0.9739
6.0249 0.0000 -2.7889 0.9738
5.9304 1.0762 -2.7899 0.9738
5.8128 1.6042 -2.7912 0.9738
5.6493 2.1202 -2.7931 0.9738
5.1873 3.0993 -2.7971 0.9737
4.1759 4.3676 -2.7971 0.9737
3.3289 5.0431 -2.7971 0.9737
2.8634 5.3212 -2.7971 0.9737
1.8673 5.7469 -2.7971 0.9737
0.8111 5.9880 -2.7971 0.9737
0.2711 6.0366 -2.7971 0.9737
-0.2711 6.0366 -2.7971 0.9737
-1.3446 5.8912 -2.7971 0.9737
5.6097 -1.0180 -2.7966 0.9749
5.6536 -0.5088 -2.7844 0.9750
5.6931 0.0000 -2.7926 0.9750
5.6707 0.5104 -2.7929 0.9750
5.6037 1.0169 -2.7936 0.9749
4.8950 2.9247 -2.7971 0.9749
4.2942 3.7517 -2.7971 0.9749
3.9406 4.1215 -2.7971 0.9749
2.7021 5.0213 -2.7971 0.9749
1.2688 5.5592 -2.7971 0.9749
0.7654 5.6506 -2.7971 0.9749
-1.2688 5.5592 -2.7971 0.9749
4.8577 -2.3393 -2.7971 0.9760
5.0478 -1.8945 -2.7971 0.9760
5.3050 -0.9627 -2.7971 0.9760
5.3699 -0.4833 -2.7971 0.9760
5.0478 1.8945 -2.7971 0.9760
4.8577 2.3393 -2.7971 0.9760
4.0603 3.5474 -2.7971 0.9760
3.7260 3.8970 -2.7971 0.9760
3.3616 4.2153 -2.7971 0.9760
2.9703 4.4997 -2.7971 0.9760
2.5549 4.7478 -2.7971 0.9760
0.2419 5.3862 -2.7971 0.9760
-0.2419 5.3862 -2.7971 0.9760
-0.7237 5.3428 -2.7971 0.9760
5.0248 -0.9119 -2.7971 0.9770
5.0863 -0.4578 -2.7971 0.9770
5.0863 0.4578 -2.7971 0.9770
5.0248 0.9119 -2.7971 0.9770
4.7812 1.7944 -2.7971 0.9770
4.3840 2.6193 -2.7971 0.9770
4.1316 3.0017 -2.7971 0.9770
3.8458 3.3600 -2.7971 0.9770
2.8134 4.2621 -2.7971 0.9770
2.4200 4.4971 -2.7971 0.9770
2.0071 4.6959 -2.7971 0.9770
1.5781 4.8569 -2.7971 0.9770
1.1364 4.9788 -2.7971 0.9770
0.6855 5.0607 -2.7971 0.9770
0.2291 5.1017 -2.7971 0.9770
-0.6855 5.0607 -2.7971 0.9770
3.9194 -2.8476 -2.7971 0.9779
4.3649 -2.1020 -2.7971 0.9779
4.6701 -1.2889 -2.7971 0.9779
4.7668 -0.8650 -2.7971 0.9779
4.8446 0.0000 -2.7971 0.9779
4.8252 0.4343 -2.7971 0.9779
4.7668 0.8650 -2.7971 0.9779
4.6701 1.2889 -2.7971 0.9779
4.5357 1.7023 -2.7971 0.9779
4.1589 2.4848 -2.7971 0.9779
3.9194 2.8476 -2.7971 0.9779
3.6484 3.1875 -2.7971 0.9779
3.3479 3.5017 -2.7971 0.9779
1.9041 4.4548 -2.7971 0.9779
1.4971 4.6075 -2.7971 0.9779
1.0780 4.7232 -2.7971 0.9779
0.6503 4.8008 -2.7971 0.9779
-0.6503 4.8008 -2.7971 0.9779
