ply
format ascii 1.0
element vertex 489
property float32 x
property float32 y
property float32 z
property float32 I
end_header
-4.2147 6.3850 1.3490 0.9694
-4.7771 5.9903 1.3510 0.9694
-4.2041 4.3971 1.0727 0.9756
-4.2929 3.7506 1.0052 0.9771
-4.6599 2.7842 0.9572 0.9782
-4.7195 1.3025 0.8633 0.9803
-6.2655 -0.5640 1.1092 0.9748
-4.2561 -1.5973 0.8016 0.9817
-3.9952 -1.9240 0.7819 0.9822
-3.8913 -2.3249 0.7993 0.9818
-4.5873 -3.3329 0.9998 0.9772
-3.4051 -3.5614 0.8688 0.9802
-2.8093 -3.5227 0.7945 0.9819
-4.7724 5.9844 1.1726 0.9695
-4.2050 4.3981 0.9322 0.9757
-4.6581 2.7831 0.8313 0.9783
-4.5255 1.6984 0.7405 0.9806
-4.5756 0.8304 0.7124 0.9814
-4.0676 0.0000 0.6231 0.9837
-4.7890 -1.3217 0.7611 0.9801
-3.8896 -2.3239 0.6941 0.9818
-2.8095 -3.5230 0.6903 0.9819
-3.4156 -5.1745 0.9498 0.9752
-4.2179 6.3899 0.9970 0.9696
-4.2060 4.3991 0.7926 0.9757
-4.6563 2.7820 0.7063 0.9784
-4.8552 2.3381 0.7017 0.9785
-4.5715 0.8296 0.6050 0.9814
-7.8125 0.7032 1.0215 0.9689
-4.7863 -1.3209 0.6466 0.9802
-3.8880 -2.3229 0.5898 0.9819
-3.5054 -3.0625 0.6061 0.9814
-4.2195 6.3923 0.8225 0.9697
-4.7632 5.9728 0.8203 0.9697
-4.2069 4.4001 0.6537 0.9758
-4.2266 3.0708 0.5610 0.9792
-4.6545 2.7809 0.5822 0.9784
-4.5190 1.6960 0.5183 0.9808
-4.7061 1.2988 0.5242 0.9806
-4.0608 0.0000 0.4361 0.9838
-6.2456 -0.5622 0.6734 0.9751
-5.8179 -1.0559 0.6349 0.9765
-4.7837 -1.3202 0.5329 0.9802
-3.8863 -2.3219 0.4861 0.9820
-4.5749 -3.3239 0.6072 0.9775
-2.8099 -3.5235 0.4839 0.9820
-5.8958 13.7941 1.2699 0.9416
-5.2582 9.7714 0.9393 0.9564
-4.2078 4.4010 0.5154 0.9759
-4.2739 3.7340 0.4804 0.9775
-4.2247 3.0694 0.4421 0.9793
-4.6527 2.7799 0.4588 0.9785
-4.8441 2.3328 0.4551 0.9786
-4.7016 1.2976 0.4129 0.9806
-4.5634 0.8282 0.3926 0.9816
-5.1535 0.4638 0.4380 0.9794
-4.0574 0.0000 0.3435 0.9838
-6.2391 -0.5616 0.5303 0.9752
-3.9779 -1.9157 0.3738 0.9824
-4.5708 -3.3209 0.4783 0.9776
-3.5060 -3.0630 0.3941 0.9815
-3.4061 -3.5625 0.4172 0.9804
-5.3059 16.3298 1.0647 0.9335
-4.1893 6.3463 0.4715 0.9700
-4.5771 5.7395 0.4552 0.9710
-4.0669 2.9548 0.3117 0.9801
-4.8386 2.3301 0.3330 0.9787
-4.5126 1.6935 0.2989 0.9809
-5.1492 0.4634 0.3206 0.9795
-6.2326 -0.5610 0.3880 0.9752
-5.8072 -1.0540 0.3660 0.9766
-4.5307 -1.2505 0.2915 0.9813
-4.2453 -1.5933 0.2812 0.9820
-3.9737 -1.9137 0.2735 0.9825
-3.5062 -3.0633 0.2887 0.9815
-2.8917 -3.0245 0.2595 0.9834
-3.4027 -5.1550 0.3830 0.9755
-5.0615 15.5777 0.6459 0.9365
-5.4161 12.6716 0.5434 0.9463
-5.2392 9.7362 0.4360 0.9567
-4.2685 5.3526 0.2700 0.9730
-4.2097 4.4030 0.2402 0.9759
-4.6491 2.7777 0.2136 0.9786
-4.6929 1.2952 0.1920 0.9807
-4.5553 0.8267 0.1826 0.9816
-6.2261 -0.5604 0.2465 0.9753
-4.2432 -1.5925 0.1787 0.9820
-3.9695 -1.9116 0.1737 0.9825
-3.8814 -2.3190 0.1783 0.9821
-4.5627 -3.3150 0.2224 0.9777
-2.8919 -3.0247 0.1650 0.9834
-2.8105 -3.5242 0.1777 0.9821
-3.3995 -5.1502 0.2433 0.9756
-5.0575 15.5655 0.2765 0.9366
-4.2663 5.3498 0.1156 0.9730
-4.0823 2.9660 0.0852 0.9800
-4.6474 2.7767 0.0914 0.9786
-4.5062 1.6912 0.0813 0.9809
-4.5513 0.8260 0.0781 0.9817
-5.1405 0.4627 0.0872 0.9796
-6.2196 -0.5599 0.1055 0.9753
-5.7966 -1.0521 0.0995 0.9767
-3.9653 -1.9096 0.0743 0.9825
-4.5587 -3.3121 0.0952 0.9777
-2.8921 -3.0249 0.0707 0.9834
-5.0535 15.5532 -0.0921 0.9367
-5.4144 12.6677 -0.0776 0.9464
-4.4809 8.3267 -0.0532 0.9629
-4.2115 4.4049 -0.0343 0.9759
-4.2554 3.7179 -0.0318 0.9776
-4.0901 2.9717 -0.0285 0.9800
-4.8223 2.3223 -0.0301 0.9788
-4.5030 1.6900 -0.0271 0.9809
-4.6842 1.2928 -0.0274 0.9807
-4.5180 -1.2470 -0.0264 0.9814
-3.8781 -2.3170 -0.0254 0.9821
-4.5547 -3.3092 -0.0317 0.9777
-2.8924 -3.0252 -0.0236 0.9834
-3.3932 -5.1406 -0.0347 0.9757
-5.0496 15.5410 -0.4601 0.9367
-5.4136 12.6658 -0.3878 0.9464
-4.2618 5.3442 -0.1925 0.9730
-4.6438 2.7746 -0.1523 0.9786
-4.8168 2.3197 -0.1505 0.9788
-4.4999 1.6888 -0.1353 0.9810
-4.5433 0.8245 -0.1300 0.9817
-6.2068 -0.5587 -0.1755 0.9754
-5.7860 -1.0501 -0.1656 0.9767
-4.5138 -1.2458 -0.1318 0.9814
-4.2368 -1.5901 -0.1274 0.9821
-3.8764 -2.3160 -0.1272 0.9821
-4.5507 -3.3063 -0.1584 0.9777
-3.5074 -3.0643 -0.1311 0.9815
-3.3900 -5.1358 -0.1733 0.9757
-5.0456 15.5288 -0.8281 0.9367
-5.4128 12.6638 -0.6984 0.9463
-4.2306 6.4092 -0.3895 0.9697
-4.2596 5.3414 -0.3465 0.9730
-4.6421 2.7735 -0.2742 0.9786
-4.4967 1.6876 -0.2436 0.9809
-4.5393 0.8238 -0.2340 0.9817
-4.0375 0.0000 -0.2048 0.9840
-4.5096 -1.2447 -0.2372 0.9814
-4.2347 -1.5893 -0.2294 0.9820
-3.9528 -1.9036 -0.2225 0.9826
-3.8748 -2.3151 -0.2289 0.9821
-3.5077 -3.0646 -0.2362 0.9815
-2.8928 -3.0256 -0.2123 0.9834
-2.8113 -3.5252 -0.2287 0.9821
-4.4830 8.3306 -0.6936 0.9628
-4.2143 4.4078 -0.4471 0.9758
-4.2417 3.7059 -0.4130 0.9777
-4.1137 2.9888 -0.3728 0.9798
-4.8060 2.3144 -0.3911 0.9788
-4.4935 1.6864 -0.3519 0.9809
-4.5353 0.8231 -0.3380 0.9817
-5.1232 0.4611 -0.3772 0.9796
-4.0341 0.0000 -0.2958 0.9840
-6.1940 -0.5576 -0.4560 0.9754
-4.5054 -1.2435 -0.3427 0.9814
-3.9486 -1.9016 -0.3213 0.9826
-3.8732 -2.3141 -0.3308 0.9821
-4.5427 -3.3005 -0.4117 0.9777
-3.5080 -3.0648 -0.3416 0.9815
-2.8930 -3.0258 -0.3070 0.9833
-3.3837 -5.1262 -0.4504 0.9757
-5.0376 15.5043 -1.5651 0.9366
-4.2338 6.4140 -0.7378 0.9696
-4.2551 5.3358 -0.6552 0.9729
-4.2152 4.4088 -0.5856 0.9758
-4.2371 3.7018 -0.5402 0.9776
-4.1216 2.9946 -0.4891 0.9797
-4.6669 1.2880 -0.4648 0.9807
-4.5313 0.8223 -0.4421 0.9817
-5.1188 0.4607 -0.4934 0.9796
-6.1876 -0.5570 -0.5964 0.9753
-4.5011 -1.2423 -0.4483 0.9814
-4.2304 -1.5877 -0.4338 0.9820
-3.5083 -3.0651 -0.4473 0.9815
-2.8117 -3.5257 -0.4329 0.9820
-3.3806 -5.1215 -0.5891 0.9756
-5.4102 12.6579 -1.6352 0.9461
-4.2325 3.6978 -0.6676 0.9776
-4.1296 3.0004 -0.6063 0.9796
-4.5273 0.8216 -0.5466 0.9816
-5.1145 0.4603 -0.6100 0.9795
-4.0275 0.0000 -0.4784 0.9839
-5.7648 -1.0463 -0.6960 0.9767
-3.9403 -1.8975 -0.5195 0.9825
-3.8699 -2.3121 -0.5355 0.9820
-3.5086 -3.0654 -0.5534 0.9814
-5.0296 15.4797 -2.3062 0.9364
-5.4094 12.6559 -1.9501 0.9459
-4.2506 5.3302 -0.9660 0.9728
-4.7897 2.3066 -0.7532 0.9788
-4.4839 1.6828 -0.6786 0.9808
-6.1746 -0.5558 -0.8784 0.9753
-5.7595 -1.0453 -0.8294 0.9766
-4.4927 -1.2400 -0.6604 0.9813
-3.9361 -1.8955 -0.6190 0.9825
-3.5089 -3.0656 -0.6602 0.9814
-2.8937 -3.0265 -0.5933 0.9832
-5.0256 15.4673 -2.6792 0.9362
-5.4085 12.6539 -2.2670 0.9457
-4.4859 8.3359 -1.5595 0.9624
-4.2387 6.4213 -1.2675 0.9693
-4.2483 5.3274 -1.1225 0.9728
-4.6538 1.2844 -0.7953 0.9806
-4.5192 0.8202 -0.7567 0.9816
-5.1057 0.4595 -0.8445 0.9794
-6.1682 -0.5552 -1.0202 0.9752
-5.7541 -1.0444 -0.9634 0.9766
-4.4884 -1.2388 -0.7671 0.9813
-4.2240 -1.5853 -0.7432 0.9819
-3.9319 -1.8935 -0.7189 0.9825
-3.8666 -2.3101 -0.7420 0.9819
-4.5265 -3.2887 -0.9217 0.9776
-3.5092 -3.0659 -0.7677 0.9813
-2.8122 -3.5264 -0.7431 0.9819
-3.3710 -5.1070 -1.0081 0.9755
-7.0621 -16.5227 -2.9601 0.9297
-5.4076 12.6519 -2.5862 0.9455
-4.4866 8.3373 -1.7796 0.9622
-4.2403 6.4238 -1.4468 0.9692
-4.2461 5.3245 -1.2801 0.9727
-4.2190 4.4127 -1.1475 0.9755
-4.1542 3.0182 -0.9651 0.9793
-4.4775 1.6804 -0.8989 0.9807
-4.6495 1.2832 -0.9066 0.9806
-4.0174 0.0000 -0.7551 0.9838
-6.1616 -0.5546 -1.1628 0.9751
-5.7488 -1.0434 -1.0982 0.9765
-4.2218 -1.5844 -0.8476 0.9818
-3.9276 -1.8914 -0.8194 0.9824
-4.5224 -3.2858 -1.0507 0.9775
-3.5095 -3.0661 -0.8759 0.9812
-2.8941 -3.0270 -0.7872 0.9831
-2.8124 -3.5267 -0.8479 0.9818
-4.1969 12.9166 -2.8708 0.9460
-5.4068 12.6498 -2.9079 0.9453
-4.4873 8.3387 -2.0016 0.9620
-4.2420 6.4263 -1.6277 0.9690
-4.2200 4.4137 -1.2908 0.9753
-4.2139 3.6816 -1.1828 0.9774
-4.7732 2.2987 -1.1199 0.9786
-4.4742 1.6792 -1.0102 0.9807
-4.6450 1.2820 -1.0186 0.9805
-4.5111 0.8187 -0.9691 0.9814
-5.0969 0.4587 -1.0817 0.9793
-4.0140 0.0000 -0.8485 0.9837
-6.1551 -0.5541 -1.3063 0.9751
-4.4798 -1.2364 -0.9823 0.9812
-4.2196 -1.5836 -0.9527 0.9817
-3.9234 -1.8894 -0.9205 0.9824
-3.8632 -2.3081 -0.9512 0.9818
-4.5183 -3.2828 -1.1806 0.9774
-3.5098 -3.0664 -0.9852 0.9811
-2.8944 -3.0272 -0.8853 0.9830
-3.3646 -5.0972 -1.2910 0.9753
-6.6132 -12.2894 -2.9500 0.9445
-5.4076 -12.6519 -2.9084 0.9453
-3.7533 11.5515 -2.8546 0.9513
-4.4881 8.3400 -2.2259 0.9618
-4.2437 6.4289 -1.8104 0.9688
-4.2092 3.6775 -1.3136 0.9773
-4.1481 3.0138 -1.2050 0.9792
-4.6276 2.7649 -1.2669 0.9781
-4.7676 2.2960 -1.2437 0.9785
-4.4709 1.6779 -1.1223 0.9806
-4.5070 0.8179 -1.0765 0.9814
-5.0924 0.4583 -1.2017 0.9792
-4.0106 0.0000 -0.9426 0.9837
-6.1485 -0.5535 -1.4509 0.9750
-5.7379 -1.0414 -1.3706 0.9763
-4.4755 -1.2352 -1.0912 0.9811
-3.8615 -2.3071 -1.0572 0.9817
-4.5142 -3.2798 -1.3114 0.9773
-3.5101 -3.0667 -1.0955 0.9810
-3.3613 -5.0923 -1.4340 0.9752
-5.8982 -10.9606 -2.9253 0.9501
-4.8303 -11.3011 -2.8885 0.9508
-4.3673 10.2179 -2.8771 0.9551
-4.4888 8.3414 -2.4526 0.9616
-4.2454 6.4315 -1.9953 0.9687
-4.2219 4.4158 -1.5818 0.9751
-4.6257 2.7638 -1.3952 0.9780
-4.6361 1.2795 -1.2452 0.9803
-4.5028 0.8172 -1.1849 0.9813
-6.1418 -0.5529 -1.5966 0.9748
-5.7324 -1.0404 -1.5085 0.9762
-3.9147 -1.8852 -1.1250 0.9822
-4.5100 -3.2768 -1.4434 0.9772
-3.5104 -3.0670 -1.2069 0.9809
-2.8948 -3.0277 -1.0846 0.9828
-4.5233 -8.4057 -2.4715 0.9613
-4.3599 -10.2005 -2.8722 0.9552
-4.4896 8.3429 -2.6821 0.9614
-4.2367 5.3128 -1.9237 0.9721
-4.2229 4.4168 -1.7299 0.9749
-4.1996 3.6691 -1.5787 0.9771
-4.6239 2.7626 -1.5248 0.9779
-4.7563 2.2905 -1.4945 0.9783
-4.6315 1.2783 -1.3602 0.9802
-4.4986 0.8164 -1.2943 0.9812
-4.0037 0.0000 -1.1334 0.9835
-6.1351 -0.5523 -1.7438 0.9747
-5.7268 -1.0394 -1.6477 0.9761
-4.4666 -1.2328 -1.3118 0.9809
-3.9104 -1.8831 -1.2287 0.9821
-3.8580 -2.3050 -1.2723 0.9815
-4.5058 -3.2737 -1.5767 0.9771
-2.8950 -3.0280 -1.1859 0.9827
-2.8133 -3.5277 -1.2774 0.9814
-3.3547 -5.0823 -1.7239 0.9750
-4.2488 6.4367 -2.3722 0.9682
-4.2343 5.3098 -2.0889 0.9720
-4.2239 4.4179 -1.8800 0.9747
-4.1381 3.0066 -1.5733 0.9788
-4.6220 2.7615 -1.6560 0.9777
-4.7506 2.2878 -1.6218 0.9782
-4.6269 1.2770 -1.4763 0.9801
-4.4943 0.8156 -1.4049 0.9811
-4.0001 0.0000 -1.2304 0.9834
-4.2106 -1.5803 -1.3833 0.9814
-3.8563 -2.3040 -1.3817 0.9814
-4.5016 -3.2706 -1.7114 0.9770
-3.5111 -3.0675 -1.4340 0.9807
-2.6148 8.0476 -2.8127 0.9650
-3.3576 7.8555 -2.8397 0.9646
-4.0860 7.5931 -2.8662 0.9643
-4.2506 6.4394 -2.5647 0.9680
-4.7448 2.2850 -1.7506 0.9780
-4.4900 0.8149 -1.5169 0.9809
-6.1214 -0.5510 -2.0430 0.9744
-4.4577 -1.2303 -1.5371 0.9807
-4.2083 -1.5794 -1.4941 0.9812
-3.9015 -1.8789 -1.4394 0.9819
-4.4972 -3.2675 -1.8478 0.9768
-2.8137 -3.5283 -1.5001 0.9812
-3.3480 -5.0721 -2.0202 0.9747
-4.0833 -7.5879 -2.8643 0.9643
-2.4246 7.4621 -2.8058 0.9672
-3.1111 7.2789 -2.8308 0.9669
-3.7835 7.0309 -2.8552 0.9667
-4.2260 4.4200 -2.1868 0.9744
-4.1313 3.0016 -1.8261 0.9785
-4.7389 2.2821 -1.8810 0.9779
-4.4540 1.6715 -1.7013 0.9800
-4.6176 1.2744 -1.7130 0.9799
-4.4857 0.8141 -1.6303 0.9808
-3.9929 0.0000 -1.4279 0.9832
-5.7098 -1.0363 -2.0752 0.9756
-4.4531 -1.2291 -1.6520 0.9806
-3.8969 -1.8767 -1.5468 0.9818
-3.8527 -2.3018 -1.6049 0.9811
-4.4929 -3.2643 -1.9860 0.9767
-3.3445 -5.0669 -2.1711 0.9745
-3.1102 -7.2766 -2.8299 0.9669
-2.8952 6.7736 -2.8229 0.9689
-4.1222 6.2450 -2.8675 0.9685
-4.2270 5.3005 -2.5981 0.9714
-4.1798 3.6518 -2.1270 0.9765
-4.1278 2.9991 -1.9553 0.9784
-4.7330 2.2793 -2.0131 0.9777
-4.4813 0.8133 -1.7454 0.9807
-3.9893 0.0000 -1.5288 0.9831
-5.7039 -1.0353 -2.2216 0.9755
-4.4484 -1.2278 -1.7684 0.9804
-4.2036 -1.5776 -1.7206 0.9810
-3.8509 -2.3008 -1.7190 0.9810
-4.4884 -3.2611 -2.1261 0.9765
-3.5120 -3.0684 -1.7872 0.9802
-3.3411 -5.0616 -2.3242 0.9744
-3.5171 -6.5358 -2.8443 0.9687
-2.7042 6.3268 -2.8160 0.9707
-3.2849 6.1043 -2.8371 0.9705
-3.8463 5.8269 -2.8575 0.9703
-4.2244 5.2974 -2.7731 0.9711
-4.2281 4.4222 -2.5041 0.9739
-4.1243 2.9965 -2.0864 0.9782
-4.6141 2.7568 -2.1998 0.9770
-4.7270 2.2764 -2.1473 0.9776
-5.0597 0.4554 -2.0792 0.9783
-5.6980 -1.0342 -2.3701 0.9753
-3.8490 -2.2996 -1.8350 0.9808
-3.2836 -6.1020 -2.8360 0.9705
-1.9812 6.0974 -2.7941 0.9724
-2.5339 5.9284 -2.8098 0.9723
-3.6008 5.4550 -2.8486 0.9719
-4.1013 5.1429 -2.8668 0.9717
-4.2292 4.4234 -2.6671 0.9737
-4.1207 2.9939 -2.2198 0.9780
-4.6120 2.7555 -2.3414 0.9768
-4.4432 1.6675 -2.0683 0.9795
-4.6030 1.2704 -2.0811 0.9794
-3.9818 0.0000 -1.7353 0.9828
-6.0929 -0.5485 -2.6661 0.9737
-5.6920 -1.0331 -2.5212 0.9751
-4.4389 -1.2251 -2.0069 0.9801
-4.1988 -1.5758 -1.9545 0.9806
-4.4794 -3.2545 -2.4130 0.9761
-2.8965 -3.0295 -1.8267 0.9819
-3.3339 -5.0508 -2.6375 0.9739
-1.8653 5.7409 -2.7941 0.9737
-2.8897 5.3700 -2.8228 0.9735
-4.2303 4.4246 -2.8336 0.9734
-4.1642 3.6382 -2.5596 0.9759
-4.1170 2.9912 -2.3556 0.9778
-4.6099 2.7543 -2.4857 0.9766
-4.7146 2.2704 -2.4222 0.9772
-4.5980 1.2690 -2.2079 0.9792
-4.4676 0.8108 -2.1018 0.9802
-5.0497 0.4545 -2.3469 0.9779
-3.9779 0.0000 -1.8413 0.9826
-6.0855 -0.5478 -2.8282 0.9734
-4.4340 -1.2238 -2.1292 0.9799
-4.1962 -1.5749 -2.0747 0.9804
-3.8452 -2.2973 -2.0733 0.9805
-4.4747 -3.2511 -2.5602 0.9759
-3.5131 -3.0693 -2.1594 0.9796
-2.8968 -3.0298 -1.9403 0.9817
-2.8148 -3.5297 -2.0898 0.9803
-3.3303 -5.0452 -2.7983 0.9737
-1.7602 5.4174 -2.7941 0.9749
-2.7210 5.0565 -2.8166 0.9747
-3.1821 4.8207 -2.8334 0.9746
-3.6218 4.5416 -2.8494 0.9745
-4.0355 4.2208 -2.8644 0.9743
-4.6078 2.7530 -2.6329 0.9764
-4.4357 1.6647 -2.3240 0.9791
-3.9740 0.0000 -1.9493 0.9825
-5.6796 -1.0308 -2.8315 0.9746
-4.4290 -1.2224 -2.2538 0.9797
-4.1937 -1.5739 -2.1972 0.9802
-3.8432 -2.2962 -2.1960 0.9803
-4.4700 -3.2477 -2.7102 0.9757
-3.5134 -3.0696 -2.2885 0.9794
-2.8151 -3.5300 -2.2147 0.9801
-3.1810 -4.8190 -2.8324 0.9746
-2.1172 4.9535 -2.7947 0.9760
-2.5677 4.7716 -2.8111 0.9759
-3.0019 4.5476 -2.8268 0.9757
-3.4155 4.2829 -2.8419 0.9756
-4.1095 2.9857 -2.6352 0.9774
-4.7018 2.2642 -2.7073 0.9768
-5.0394 0.4536 -2.6249 0.9775
-3.9700 0.0000 -2.0595 0.9823
-5.6062 -0.5046 -2.9201 0.9750
-4.4239 -1.2210 -2.3809 0.9795
-4.1911 -1.5729 -2.3223 0.9800
-3.8682 -1.8629 -2.2274 0.9808
-3.8412 -2.2950 -2.3213 0.9800
-2.8973 -3.0303 -2.1750 0.9813
-2.1173 -4.9537 -2.7948 0.9760
-1.5765 4.8518 -2.7941 0.9770
-2.0050 4.6910 -2.7941 0.9770
-2.8373 4.2983 -2.8209 0.9768
-3.2273 4.0470 -2.8350 0.9767
-4.5171 2.6988 -2.8820 0.9763
-4.4531 0.8082 -2.4788 0.9796
-3.9659 0.0000 -2.1721 0.9821
-5.2894 -0.4761 -2.9087 0.9761
-5.2211 -0.9475 -2.9063 0.9761
-4.4188 -1.2196 -2.5107 0.9793
-3.8631 -1.8604 -2.3485 0.9806
-4.2409 -3.0812 -2.8711 0.9764
-2.8976 -3.0306 -2.2965 0.9811
-2.8156 -3.5306 -2.4733 0.9796
-2.8367 -4.2973 -2.8202 0.9768
-2.0050 -4.6910 -2.7941 0.9770
-1.9021 4.4501 -2.7941 0.9779
-2.2992 4.2727 -2.8013 0.9778
-2.6864 4.0697 -2.8154 0.9777
-3.0548 3.8307 -2.8288 0.9776
-3.7213 3.2513 -2.8530 0.9774
-4.4962 2.1652 -2.8812 0.9772
-4.4239 1.6603 -2.7281 0.9784
-4.5769 1.2632 -2.7413 0.9783
-4.4481 0.8072 -2.6100 0.9793
-3.9617 0.0000 -2.2873 0.9819
-4.9355 -0.8957 -2.8960 0.9771
-4.4135 -1.2181 -2.6434 0.9791
-4.1857 -1.5709 -2.5812 0.9796
-4.0116 -2.9146 -2.8629 0.9774
-3.5146 -3.0706 -2.6945 0.9787
-2.8979 -3.0309 -2.4210 0.9808
-2.6859 -4.0690 -2.8149 0.9777
-2.2991 -4.2725 -2.8012 0.9778
-1.9021 -4.4501 -2.7941 0.9779
