ply
format ascii 1.0
element vertex 454
property float32 x
property float32 y
property float32 z
property float32 I
end_header
-4.2148 6.3851 1.3490 0.9694
-4.2042 4.3972 1.0727 0.9756
-4.2926 3.7503 1.0051 0.9771
-4.6598 2.7841 0.9571 0.9782
-4.5286 1.6995 0.8529 0.9805
-4.7191 1.3024 0.8632 0.9803
-4.5795 0.8311 0.8207 0.9813
-4.2164 6.3876 1.1725 0.9695
-4.2051 4.3982 0.9322 0.9757
-4.6580 2.7830 0.8312 0.9783
-4.5253 1.6983 0.7405 0.9806
-4.7146 1.3012 0.7493 0.9804
8.8237 9.2289 1.6627 0.9498
7.3336 9.1960 1.5317 0.9537
7.4409 11.2725 1.7589 0.9470
-4.2180 6.3900 0.9970 0.9696
-4.6562 2.7819 0.7063 0.9784
-4.7101 1.3000 0.6363 0.9805
-4.2196 6.3925 0.8225 0.9697
-4.2783 3.7378 0.6100 0.9774
-4.2264 3.0707 0.5610 0.9792
-4.6544 2.7808 0.5822 0.9784
-4.5188 1.6958 0.5183 0.9808
-4.5671 0.8288 0.4984 0.9815
-7.8053 0.7026 0.8415 0.9690
10.6011 7.7021 1.1093 0.9488
6.6852 10.1276 1.0273 0.9525
6.0381 18.5832 1.6541 0.9246
-5.2579 9.7708 0.9393 0.9564
-4.5770 5.7393 0.6214 0.9710
-4.2079 4.4011 0.5155 0.9759
-4.2736 3.7337 0.4804 0.9775
-4.2246 3.0693 0.4420 0.9793
-4.8437 2.3326 0.4551 0.9786
-4.5155 1.6946 0.4083 0.9808
-4.7013 1.2975 0.4129 0.9806
-4.5630 0.8281 0.3926 0.9816
-5.1532 0.4638 0.4380 0.9794
10.6025 7.7032 0.8127 0.9488
9.1881 8.0274 0.7566 0.9523
7.3379 9.2015 0.7298 0.9539
6.1433 11.4162 0.8039 0.9494
6.0452 14.1434 0.9538 0.9402
6.0381 18.5832 1.2117 0.9247
-5.3059 16.3298 1.0647 0.9335
-5.4169 12.6736 0.8547 0.9463
-4.2690 3.7297 0.3515 0.9775
-4.0675 2.9552 0.3118 0.9801
-4.5123 1.6934 0.2989 0.9809
-4.6969 1.2963 0.3022 0.9807
-4.5590 0.8274 0.2873 0.9816
-5.1488 0.4634 0.3206 0.9795
10.6039 7.7042 0.5168 0.9489
9.1896 8.0286 0.4812 0.9523
7.9820 8.3485 0.4554 0.9548
7.1154 8.9225 0.4500 0.9553
6.1440 11.4175 0.5112 0.9494
6.0455 14.1441 0.6065 0.9403
-5.4161 12.6716 0.5434 0.9463
-4.2217 6.3955 0.3022 0.9698
-4.2097 4.4030 0.2402 0.9759
-4.2643 3.7256 0.2233 0.9776
-4.0752 2.9609 0.1986 0.9800
-4.6490 2.7776 0.2135 0.9786
-4.8327 2.3273 0.2115 0.9788
-4.6926 1.2951 0.1920 0.9807
-4.5550 0.8266 0.1825 0.9816
-5.1445 0.4630 0.2037 0.9795
10.6053 7.7052 0.2214 0.9489
9.1910 8.0299 0.2062 0.9523
7.9833 8.3499 0.1951 0.9548
7.1164 8.9238 0.1928 0.9554
6.6884 10.1325 0.2051 0.9526
6.1447 11.4188 0.2190 0.9494
-5.0574 15.5652 0.2765 0.9366
-5.4152 12.6696 0.2327 0.9464
-4.4802 8.3254 0.1597 0.9629
-4.2662 5.3497 0.1156 0.9730
-4.2107 4.4040 0.1029 0.9759
-4.2597 3.7216 0.0955 0.9776
-4.0830 2.9665 0.0853 0.9800
-4.6472 2.7766 0.0914 0.9786
-4.5060 1.6910 0.0813 0.9809
-4.6882 1.2939 0.0822 0.9807
-4.5509 0.8259 0.0781 0.9817
-5.1401 0.4626 0.0872 0.9796
9.1924 8.0311 -0.0687 0.9523
7.9846 8.3512 -0.0651 0.9548
7.1173 8.9250 -0.0643 0.9554
6.1454 11.4201 -0.0730 0.9494
6.0460 14.1454 -0.0866 0.9403
5.6920 17.5183 -0.1037 0.9290
-4.2276 6.4045 -0.0432 0.9698
-4.2116 4.4050 -0.0343 0.9759
-4.2551 3.7176 -0.0318 0.9777
-4.0908 2.9721 -0.0285 0.9800
-4.8219 2.3221 -0.0301 0.9788
10.6081 7.7072 -0.3692 0.9489
6.6905 10.1357 -0.3420 0.9526
6.1461 11.4214 -0.3652 0.9494
6.0463 14.1460 -0.4332 0.9403
5.6917 17.5173 -0.5186 0.9289
-5.0495 15.5407 -0.4601 0.9367
-4.4816 8.3280 -0.2663 0.9629
-4.2125 4.4059 -0.1716 0.9759
-4.0986 2.9778 -0.1426 0.9799
-4.8164 2.3195 -0.1505 0.9788
-4.4996 1.6887 -0.1353 0.9810
-4.6796 1.2915 -0.1367 0.9808
-5.1315 0.4619 -0.1451 0.9796
9.1952 8.0336 -0.6192 0.9523
7.9872 8.3540 -0.5861 0.9548
7.1193 8.9275 -0.5791 0.9553
6.6916 10.1373 -0.6160 0.9525
6.0466 14.1467 -0.7802 0.9402
5.6913 17.5163 -0.9340 0.9289
-5.0455 15.5285 -0.8280 0.9367
-4.2134 4.4069 -0.3092 0.9759
-4.2460 3.7096 -0.2859 0.9777
-4.6419 2.7734 -0.2742 0.9786
-4.8110 2.3169 -0.2708 0.9788
-4.4964 1.6875 -0.2436 0.9809
-4.6752 1.2903 -0.2460 0.9808
-5.1272 0.4615 -0.2611 0.9796
9.1966 8.0348 -0.8954 0.9522
6.1475 11.4241 -0.9512 0.9493
6.0469 14.1473 -1.1281 0.9402
-2.6171 11.4663 -0.8624 0.9539
-5.4119 12.6618 -1.0096 0.9463
-4.2572 5.3385 -0.5007 0.9730
-4.2144 4.4079 -0.4471 0.9758
-4.1143 2.9893 -0.3729 0.9798
-4.6401 2.7724 -0.3963 0.9786
-4.6709 1.2891 -0.3553 0.9808
-4.5350 0.8230 -0.3379 0.9817
10.6123 7.7103 -1.2594 0.9487
7.1213 8.9299 -1.0965 0.9551
5.6907 17.5144 -1.7680 0.9287
-5.0375 15.5040 -1.5651 0.9366
-5.4110 12.6598 -1.3218 0.9462
-4.2339 6.4141 -0.7378 0.9696
-4.2153 4.4088 -0.5856 0.9758
-4.2368 3.7016 -0.5401 0.9776
-4.6384 2.7713 -0.5187 0.9785
-4.4901 1.6851 -0.4604 0.9809
-4.5310 0.8223 -0.4421 0.9817
7.9911 8.3580 -1.3736 0.9545
6.6948 10.1422 -1.4436 0.9522
6.1489 11.4267 -1.5414 0.9491
5.6904 17.5134 -2.1874 0.9285
-5.4102 12.6578 -1.6352 0.9461
-4.4845 8.3333 -1.1241 0.9626
-4.2355 6.4166 -0.9133 0.9695
-4.2527 5.3329 -0.8102 0.9729
-4.2162 4.4098 -0.7247 0.9757
-4.2322 3.6975 -0.6676 0.9776
-4.6366 2.7702 -0.6416 0.9785
-4.7948 2.3090 -0.6322 0.9788
-4.5270 0.8216 -0.5465 0.9816
10.6152 7.7124 -1.8591 0.9484
9.2009 8.0385 -1.7311 0.9518
7.9924 8.3594 -1.6387 0.9544
6.1497 11.4281 -1.8388 0.9489
6.0477 14.1493 -2.1803 0.9397
4.3743 19.1649 -2.7853 0.9237
2.6387 19.4799 -2.7853 0.9237
0.8820 19.6380 -2.7853 0.9237
-5.0295 15.4794 -2.3061 0.9364
-5.4093 12.6558 -1.9501 0.9459
-4.4852 8.3346 -1.3411 0.9625
-4.2171 4.4108 -0.8647 0.9756
-4.1384 3.0067 -0.7248 0.9795
-4.7893 2.3064 -0.7532 0.9788
-4.6579 1.2855 -0.6846 0.9807
10.6166 7.7134 -2.1618 0.9482
9.2023 8.0398 -2.0131 0.9517
7.1243 8.9337 -1.8824 0.9547
6.6970 10.1455 -2.0027 0.9519
6.0480 14.1500 -2.5351 0.9395
5.2246 16.0798 -2.7853 0.9338
3.7622 16.4834 -2.7853 0.9338
2.2696 16.7543 -2.7853 0.9338
-0.7585 16.8903 -2.7853 0.9338
-2.2746 16.7914 -2.7915 0.9336
-3.8485 16.8614 -2.8492 0.9323
-5.0255 15.4670 -2.6792 0.9362
-4.4859 8.3360 -1.5595 0.9624
-4.2482 5.3272 -1.1225 0.9728
-4.2181 4.4118 -1.0055 0.9756
-4.2229 3.6895 -0.9238 0.9775
-4.1466 3.0127 -0.8444 0.9794
-4.6330 2.7681 -0.8891 0.9784
-4.7838 2.3038 -0.8747 0.9787
-4.4805 1.6815 -0.7884 0.9808
-4.6535 1.2843 -0.7953 0.9806
-4.5189 0.8201 -0.7566 0.9816
-5.1054 0.4595 -0.8445 0.9794
10.6180 7.7144 -2.4669 0.9480
9.2038 8.0411 -2.2972 0.9515
7.9951 8.3622 -2.1746 0.9540
6.1511 11.4308 -2.4399 0.9485
3.2974 14.4470 -2.7853 0.9415
0.6648 14.8036 -2.7853 0.9415
-1.9891 14.6844 -2.7853 0.9415
-3.3515 14.6839 -2.8310 0.9405
-4.7378 14.5816 -2.8818 0.9395
-5.4076 12.6518 -2.5862 0.9455
-4.2404 6.4240 -1.4468 0.9692
-4.2459 5.3243 -1.2800 0.9727
-4.2183 3.6854 -1.0528 0.9775
-4.7783 2.3011 -0.9969 0.9786
-4.5148 0.8194 -0.8625 0.9815
4.0719 12.5318 -2.7853 0.9476
2.9321 12.8464 -2.7853 0.9476
0.5912 13.1635 -2.7853 0.9476
-2.9653 12.9919 -2.8168 0.9470
-5.4037 12.6426 -2.9063 0.9453
-4.2421 6.4265 -1.6277 0.9690
-4.2200 4.4138 -1.2908 0.9753
-4.2136 3.6813 -1.1827 0.9774
-4.7728 2.2984 -1.1198 0.9786
-4.4740 1.6790 -1.0101 0.9807
-4.6447 1.2819 -1.0185 0.9805
-5.0966 0.4587 -1.0817 0.9793
8.8246 7.7098 -2.7540 0.9530
7.9978 8.3650 -2.7200 0.9536
7.1273 8.9375 -2.6867 0.9541
6.5037 9.8526 -2.7746 0.9526
4.6578 10.8975 -2.7853 0.9525
3.6622 11.2711 -2.7853 0.9525
1.5908 11.7439 -2.7853 0.9525
-0.5317 11.8392 -2.7853 0.9525
-2.6563 11.6380 -2.8055 0.9521
-3.7411 11.5140 -2.8453 0.9515
-4.4881 8.3401 -2.2259 0.9618
-4.2413 5.3185 -1.5988 0.9724
-4.2210 4.4148 -1.4355 0.9752
-4.6275 2.7648 -1.2669 0.9781
-4.6402 1.2807 -1.1313 0.9804
8.5867 6.2386 -2.7481 0.9571
7.3803 7.7192 -2.7652 0.9568
6.6777 8.3736 -2.7731 0.9567
5.9146 8.9602 -2.7798 0.9566
4.2279 9.8918 -2.7853 0.9565
3.3243 10.2310 -2.7853 0.9565
2.3938 10.4878 -2.7853 0.9565
-0.4826 10.7466 -2.7853 0.9565
-3.3801 10.4028 -2.8321 0.9558
-4.4889 8.3415 -2.4526 0.9616
-4.2455 6.4316 -1.9953 0.9687
-4.2220 4.4158 -1.5818 0.9751
-4.2041 3.6730 -1.4454 0.9772
-4.6256 2.7637 -1.3951 0.9780
-4.4674 1.6766 -1.2355 0.9805
-5.0876 0.4579 -1.3226 0.9791
7.8764 5.7225 -2.7561 0.9603
7.3476 6.4194 -2.7621 0.9603
6.7589 7.0692 -2.7688 0.9602
6.1140 7.6668 -2.7761 0.9601
3.8669 9.0471 -2.7853 0.9599
3.0404 9.3573 -2.7853 0.9599
2.1894 9.5921 -2.7853 0.9599
1.3207 9.7498 -2.7853 0.9599
-0.4414 9.8289 -2.7853 0.9599
-1.3207 9.7498 -2.7853 0.9599
-2.1919 9.6033 -2.7885 0.9599
-3.0794 9.4775 -2.8211 0.9594
-4.2472 6.4342 -2.1825 0.9685
-4.2366 5.3126 -1.9237 0.9721
-4.2230 4.4169 -1.7299 0.9749
-4.1993 3.6688 -1.5786 0.9771
-4.6237 2.7626 -1.5248 0.9779
-4.6312 1.2782 -1.3601 0.9802
-4.4982 0.8163 -1.2942 0.9812
-5.0830 0.4575 -1.4448 0.9790
7.2675 5.2801 -2.7630 0.9631
6.2342 6.5204 -2.7747 0.9630
5.6382 7.0701 -2.7814 0.9629
4.9887 7.5575 -2.7853 0.9628
3.5591 8.3268 -2.7853 0.9628
2.0151 8.8285 -2.7853 0.9628
1.2156 8.9736 -2.7853 0.9628
0.4063 9.0465 -2.7853 0.9628
-0.4063 9.0465 -2.7853 0.9628
-2.0150 8.8285 -2.7853 0.9628
-2.8249 8.6940 -2.8117 0.9625
-3.6303 8.4934 -2.8410 0.9621
-4.4212 8.2159 -2.8697 0.9617
-4.1944 3.6646 -1.7131 0.9770
-4.6218 2.7614 -1.6560 0.9777
-4.4606 1.6740 -1.4654 0.9803
-4.4940 0.8156 -1.4048 0.9811
6.7392 4.8963 -2.7690 0.9655
6.2848 5.4909 -2.7741 0.9654
5.7792 6.0446 -2.7799 0.9654
5.2244 6.5511 -2.7853 0.9653
4.6161 6.9931 -2.7853 0.9653
3.2932 7.7049 -2.7853 0.9653
1.8646 8.1692 -2.7853 0.9653
1.1248 8.3034 -2.7853 0.9653
-0.3759 8.3708 -2.7853 0.9653
-1.1247 8.3034 -2.7853 0.9653
-3.3467 7.8300 -2.8305 0.9647
-4.6199 2.7603 -1.7889 0.9776
-4.7444 2.2848 -1.7504 0.9780
-4.4897 0.8148 -1.5168 0.9809
-5.0738 0.4567 -1.6934 0.9788
6.2762 4.5599 -2.7742 0.9676
5.3807 5.6277 -2.7844 0.9675
4.8562 6.0895 -2.7853 0.9675
4.2908 6.5002 -2.7853 0.9675
3.6908 6.8587 -2.7853 0.9675
3.0612 7.1619 -2.7853 0.9675
2.4068 7.4075 -2.7853 0.9675
1.0455 7.7182 -2.7853 0.9675
0.3494 7.7809 -2.7853 0.9675
-1.0455 7.7182 -2.7853 0.9675
-1.7331 7.5934 -2.7853 0.9675
-2.4167 7.4379 -2.7967 0.9673
-3.7712 7.0081 -2.8460 0.9668
-4.2525 6.4422 -2.7604 0.9677
-4.2260 4.4201 -2.1869 0.9744
-4.1846 3.6559 -1.9871 0.9767
-4.1311 3.0014 -1.8260 0.9785
-4.4537 1.6714 -1.7012 0.9800
-4.6172 1.2743 -1.7129 0.9799
5.0228 5.2534 -2.7853 0.9693
4.5316 5.6825 -2.7853 0.9693
3.4442 6.4003 -2.7853 0.9693
2.8566 6.6833 -2.7853 0.9693
2.2460 6.9125 -2.7853 0.9693
1.6173 7.0860 -2.7853 0.9693
0.9756 7.2024 -2.7853 0.9693
0.3261 7.2609 -2.7853 0.9693
-0.3261 7.2609 -2.7853 0.9693
-1.6173 7.0859 -2.7853 0.9693
-2.2503 6.9258 -2.7907 0.9693
-4.2268 5.3004 -2.5980 0.9714
-4.6160 2.7579 -2.0606 0.9772
-4.7326 2.2791 -2.0130 0.9778
-4.4502 1.6701 -1.8216 0.9798
-4.6124 1.2730 -1.8337 0.9797
-4.4809 0.8132 -1.7452 0.9807
-5.0643 0.4558 -1.9486 0.9785
5.5012 3.9968 -2.7830 0.9710
4.2431 5.3207 -2.7853 0.9710
3.2249 5.9928 -2.7853 0.9710
2.6747 6.2578 -2.7853 0.9710
0.9135 6.7439 -2.7853 0.9710
-0.3053 6.7986 -2.7853 0.9710
-0.9135 6.7439 -2.7853 0.9710
-1.5144 6.6348 -2.7853 0.9710
-2.1030 6.4724 -2.7853 0.9710
-4.2243 5.2972 -2.7730 0.9711
-4.2282 4.4223 -2.5041 0.9739
-4.1744 3.6470 -2.2687 0.9763
-4.1240 2.9963 -2.0863 0.9782
-4.4466 1.6688 -1.9438 0.9797
-4.4764 0.8124 -1.8620 0.9805
3.0285 5.6279 -2.7853 0.9725
1.9749 6.0782 -2.7853 0.9725
-0.2867 6.3845 -2.7853 0.9725
-0.8579 6.3331 -2.7853 0.9725
-1.4221 6.2308 -2.7853 0.9725
-1.9749 6.0782 -2.7853 0.9725
-2.5257 5.9092 -2.8007 0.9723
-4.0880 5.1262 -2.8575 0.9718
-4.1204 2.9937 -2.2197 0.9780
-4.7204 2.2732 -2.2834 0.9774
-4.6027 1.2703 -2.0809 0.9794
-5.0545 0.4549 -2.2117 0.9781
4.8681 3.5369 -2.7853 0.9738
4.1583 4.3492 -2.7853 0.9738
3.7517 4.7045 -2.7853 0.9738
2.8514 5.2988 -2.7853 0.9738
1.8594 5.7228 -2.7853 0.9738
-0.2700 6.0112 -2.7853 0.9738
-0.8077 5.9628 -2.7853 0.9738
-1.8594 5.7228 -2.7853 0.9738
-2.3733 5.5526 -2.7952 0.9737
-3.3697 5.1050 -2.8314 0.9734
-3.8366 4.8110 -2.8484 0.9732
-4.2304 4.4246 -2.8336 0.9734
-4.1639 3.6379 -2.5594 0.9759
-4.1168 2.9910 -2.3554 0.9778
-4.5976 1.2689 -2.2078 0.9792
4.2761 3.7359 -2.7853 0.9750
3.9240 4.1042 -2.7853 0.9750
3.5403 4.4394 -2.7853 0.9750
3.1281 4.7389 -2.7853 0.9750
2.6907 5.0002 -2.7853 0.9750
1.7547 5.4003 -2.7853 0.9750
1.2635 5.5358 -2.7853 0.9750
-1.2635 5.5359 -2.7853 0.9750
-1.7547 5.4003 -2.7853 0.9750
-3.6100 4.5268 -2.8401 0.9745
-4.1130 2.9883 -2.4938 0.9776
-4.5925 1.2675 -2.3370 0.9790
-5.0443 0.4540 -2.4844 0.9777
4.0432 3.5324 -2.7853 0.9761
3.7103 3.8807 -2.7853 0.9761
1.6591 5.1062 -2.7853 0.9761
0.7207 5.3204 -2.7853 0.9761
0.2409 5.3635 -2.7853 0.9761
-0.2409 5.3635 -2.7853 0.9761
-0.7207 5.3204 -2.7853 0.9761
-1.6591 5.1062 -2.7853 0.9761
-2.1104 4.9375 -2.7856 0.9761
-2.9921 4.5329 -2.8177 0.9758
-3.4044 4.2690 -2.8327 0.9757
-3.7921 3.9663 -2.8468 0.9756
-4.1092 2.9855 -2.6350 0.9774
-4.7014 2.2640 -2.7071 0.9768
-4.4316 1.6631 -2.4556 0.9789
-4.5873 1.2661 -2.4688 0.9788
-4.4577 0.8090 -2.3503 0.9798
3.8297 3.3459 -2.7853 0.9771
3.5143 3.6757 -2.7853 0.9771
3.1707 3.9759 -2.7853 0.9771
2.8015 4.2442 -2.7853 0.9771
1.5715 4.8365 -2.7853 0.9771
1.1316 4.9579 -2.7853 0.9771
0.6826 5.0394 -2.7853 0.9771
-0.2281 5.0803 -2.7853 0.9771
-1.5715 4.8365 -2.7853 0.9771
-1.9987 4.6762 -2.7853 0.9771
-2.4198 4.4968 -2.7969 0.9770
-3.2169 4.0338 -2.8258 0.9767
-3.5823 3.7468 -2.8391 0.9766
-3.9206 3.4253 -2.8514 0.9765
-4.4277 1.6617 -2.5902 0.9787
-4.5820 1.2646 -2.6034 0.9786
-4.4528 0.8081 -2.4786 0.9796
-5.0337 0.4531 -2.7681 0.9772
3.9029 2.8356 -2.7853 0.9780
3.6330 3.1741 -2.7853 0.9780
3.3339 3.4870 -2.7853 0.9780
3.0079 3.7718 -2.7853 0.9780
0.6476 4.7806 -2.7853 0.9780
0.2164 4.8194 -2.7853 0.9780
-0.2164 4.8194 -2.7853 0.9780
-0.6476 4.7806 -2.7853 0.9780
-1.0735 4.7033 -2.7853 0.9780
-1.4908 4.5882 -2.7853 0.9780
-1.8961 4.4361 -2.7853 0.9780
-2.6777 4.0565 -2.8062 0.9778
-3.0449 3.8182 -2.8196 0.9777
-3.3899 3.5456 -2.8321 0.9776
-3.9996 2.9059 -2.8543 0.9774
-4.2580 2.5440 -2.8637 0.9774
-4.4816 2.1582 -2.8718 0.9773
-4.4236 1.6601 -2.7279 0.9784
-4.4477 0.8072 -2.6099 0.9793
-4.9858 0.4487 -2.8902 0.9771
