ply
format ascii 1.0
element vertex 368
property float32 x
property float32 y
property float32 z
property float32 I
end_header
-5.8346 -1.0590 1.0456 0.9762
-4.7918 -1.3225 0.8765 0.9800
-4.2562 -1.5974 0.8016 0.9817
-3.8914 -2.3250 0.7993 0.9818
-3.4051 -3.5614 0.8688 0.9802
-3.4190 -5.1797 1.0944 0.9751
-4.0678 0.0000 0.6232 0.9837
-5.8290 -1.0580 0.9076 0.9763
-3.9910 -1.9220 0.6786 0.9822
-4.5833 -3.3300 0.8679 0.9773
-3.5050 -3.0623 0.7130 0.9813
-3.4053 -3.5617 0.7549 0.9803
-2.8095 -3.5230 0.6903 0.9819
-5.8236 -1.0570 0.7707 0.9764
-4.7864 -1.3210 0.6466 0.9802
-4.2519 -1.5957 0.5914 0.9818
-3.8880 -2.3230 0.5898 0.9819
-3.5053 -3.0625 0.6061 0.9814
-4.0610 0.0000 0.4361 0.9838
-6.2458 -0.5622 0.6734 0.9751
-5.8181 -1.0560 0.6350 0.9765
-4.7838 -1.3202 0.5329 0.9802
-3.8864 -2.3220 0.4861 0.9820
-4.5750 -3.3240 0.6073 0.9775
-3.5056 -3.0628 0.4999 0.9814
-6.2393 -0.5616 0.5303 0.9752
-4.5351 -1.2517 0.3983 0.9813
-3.9781 -1.9158 0.3738 0.9824
-4.5709 -3.3210 0.4783 0.9776
-3.4060 -5.1600 0.5234 0.9755
-4.0542 0.0000 0.2514 0.9839
-4.5309 -1.2505 0.2915 0.9813
-4.2454 -1.5933 0.2812 0.9820
-3.8831 -2.3200 0.2805 0.9820
-4.5669 -3.3181 0.3501 0.9776
-3.5062 -3.0633 0.2887 0.9815
-2.8917 -3.0245 0.2595 0.9834
-2.8103 -3.5240 0.2795 0.9821
-4.0509 0.0000 0.1597 0.9839
-5.8021 -1.0531 0.2325 0.9767
-4.2433 -1.5925 0.1787 0.9820
-3.9697 -1.9117 0.1737 0.9825
-4.5629 -3.3151 0.2224 0.9777
-3.5065 -3.0636 0.1836 0.9815
-5.7968 -1.0521 0.0995 0.9767
-4.2411 -1.5917 0.0765 0.9820
-3.9655 -1.9097 0.0744 0.9825
-3.8798 -2.3180 0.0763 0.9821
-4.5588 -3.3122 0.0952 0.9777
-2.8921 -3.0249 0.0707 0.9834
-2.8107 -3.5245 0.0761 0.9821
-4.0443 0.0000 -0.0228 0.9840
-5.7915 -1.0511 -0.0331 0.9767
-4.5182 -1.2470 -0.0264 0.9814
-4.2390 -1.5909 -0.0255 0.9821
-2.8923 -3.0252 -0.0236 0.9834
-2.8109 -3.5247 -0.0254 0.9821
-3.3933 -5.1408 -0.0347 0.9757
-4.0410 0.0000 -0.1138 0.9840
-4.2369 -1.5901 -0.1274 0.9821
-2.8111 -3.5249 -0.1270 0.9821
-3.3901 -5.1360 -0.1733 0.9757
11.3092 -14.1813 -0.5107 0.9300
-4.0377 0.0000 -0.2048 0.9840
-5.7809 -1.0492 -0.2980 0.9767
-4.5098 -1.2447 -0.2373 0.9814
-4.2348 -1.5893 -0.2294 0.9820
-4.5468 -3.3035 -0.2850 0.9777
-3.5077 -3.0646 -0.2362 0.9815
-2.8928 -3.0256 -0.2123 0.9834
-3.3870 -5.1312 -0.3118 0.9757
-4.5055 -1.2436 -0.3427 0.9814
-4.2326 -1.5885 -0.3315 0.9820
-4.5428 -3.3006 -0.4117 0.9777
-2.8930 -3.0258 -0.3069 0.9834
-2.8114 -3.5254 -0.3306 0.9821
-5.7703 -1.0473 -0.5630 0.9767
-4.2305 -1.5877 -0.4338 0.9820
-3.9446 -1.8996 -0.4203 0.9826
-4.5388 -3.2977 -0.5386 0.9777
-2.8932 -3.0261 -0.4019 0.9833
-6.1813 -0.5564 -0.7372 0.9753
-4.4971 -1.2412 -0.5542 0.9814
-4.2284 -1.5869 -0.5365 0.9820
-3.9405 -1.8976 -0.5195 0.9825
-3.8700 -2.3122 -0.5355 0.9820
-4.5348 -3.2947 -0.6658 0.9777
-2.8119 -3.5259 -0.5357 0.9820
-6.1749 -0.5558 -0.8784 0.9753
-4.4929 -1.2400 -0.6604 0.9813
-2.8937 -3.0265 -0.5933 0.9832
-2.8121 -3.5262 -0.6390 0.9819
-0.8863 -19.7347 -2.7990 0.9233
0.8863 -19.7347 -2.7990 0.9233
7.6959 -18.0054 -2.7744 0.9239
10.6558 -16.1428 -2.7406 0.9248
11.9992 -15.0466 -2.7269 0.9252
12.9691 -13.5646 -2.6591 0.9270
14.1328 -12.3474 -2.6591 0.9270
-4.2241 -1.5853 -0.7433 0.9819
-2.8122 -3.5264 -0.7431 0.9819
-3.3711 -5.1072 -1.0081 0.9755
-7.0749 -16.5524 -2.9655 0.9296
-5.4615 -16.8088 -2.9116 0.9309
-2.2860 -16.8755 -2.8055 0.9333
2.2807 -16.8368 -2.7990 0.9334
5.2504 -16.1590 -2.7990 0.9334
11.1545 -11.6667 -2.6591 0.9367
12.1554 -10.6198 -2.6591 0.9367
-4.0176 0.0000 -0.7552 0.9838
-6.1619 -0.5547 -1.1629 0.9751
-5.7490 -1.0434 -1.0982 0.9765
-3.9278 -1.8915 -0.8194 0.9824
-3.5095 -3.0661 -0.8759 0.9812
-3.3679 -5.1023 -1.1491 0.9754
-4.5619 -8.4774 -1.8095 0.9616
-6.1449 -14.3767 -2.9387 0.9383
-2.7245 -8.3852 -1.6572 0.9648
-3.3656 -14.7456 -2.8429 0.9403
1.9867 -14.6666 -2.7819 0.9415
10.6537 -9.3078 -2.6591 0.9440
-4.0142 0.0000 -0.8485 0.9837
-6.1553 -0.5541 -1.3064 0.9750
-4.4800 -1.2365 -0.9824 0.9812
-4.2197 -1.5837 -0.9527 0.9817
-3.8633 -2.3082 -0.9513 0.9818
-4.5185 -3.2829 -1.1806 0.9774
-3.5098 -3.0664 -0.9852 0.9811
-2.8943 -3.0272 -0.8853 0.9830
-2.8127 -3.5269 -0.9536 0.9817
-3.3647 -5.0974 -1.2911 0.9753
-5.4174 -12.6746 -2.9136 0.9452
-2.9787 -13.0503 -2.8295 0.9467
-0.5936 -13.2175 -2.7967 0.9473
0.5909 -13.1581 -2.7842 0.9476
1.7651 -13.0308 -2.7796 0.9477
4.0496 -12.4634 -2.7701 0.9478
5.1415 -12.0292 -2.7652 0.9479
6.1882 -11.4996 -2.7604 0.9480
7.1646 -10.8539 -2.7491 0.9482
8.7292 -9.1300 -2.6701 0.9497
9.4924 -8.2932 -2.6644 0.9498
-4.0108 0.0000 -0.9426 0.9837
-6.1487 -0.5535 -1.4509 0.9750
-5.7381 -1.0415 -1.3706 0.9763
-4.2175 -1.5828 -1.0587 0.9817
-4.5144 -3.2799 -1.3114 0.9773
-3.5101 -3.0667 -1.0954 0.9810
-2.8946 -3.0275 -0.9844 0.9829
-2.8129 -3.5272 -1.0603 0.9816
-5.9088 -10.9804 -2.9306 0.9501
-3.7555 -11.5584 -2.8563 0.9513
-0.5339 -11.8875 -2.7966 0.9523
0.5336 -11.8805 -2.7950 0.9523
1.5865 -11.7120 -2.7777 0.9526
2.6260 -11.5052 -2.7735 0.9527
3.6410 -11.2060 -2.7692 0.9527
4.6236 -10.8174 -2.7648 0.9528
5.5658 -10.3430 -2.7605 0.9529
6.4603 -9.7870 -2.7561 0.9530
7.9220 -8.2858 -2.6942 0.9540
8.5648 -7.4829 -2.6730 0.9543
-5.7326 -1.0405 -1.5085 0.9762
-4.2153 -1.5820 -1.1657 0.9816
-3.9149 -1.8853 -1.1251 0.9822
-2.8948 -3.0277 -1.0846 0.9828
-3.3581 -5.0875 -1.5783 0.9751
-4.3677 -10.2188 -2.8774 0.9551
-1.4506 -10.7089 -2.7980 0.9563
1.4472 -10.6837 -2.7915 0.9564
3.3041 -10.1691 -2.7685 0.9568
5.8651 -8.8853 -2.7566 0.9570
6.6286 -8.3120 -2.7527 0.9570
7.3036 -7.6390 -2.7364 0.9573
-6.1353 -0.5523 -1.7439 0.9747
-4.2130 -1.5812 -1.2739 0.9815
-3.8581 -2.3051 -1.2723 0.9815
-3.5107 -3.0672 -1.3197 0.9808
-4.8480 -9.0091 -2.8962 0.9584
-2.2030 -9.6521 -2.8027 0.9597
-1.3266 -9.7937 -2.7978 0.9597
-0.4432 -9.8684 -2.7965 0.9598
0.4430 -9.8637 -2.7951 0.9598
4.6209 -8.5871 -2.7606 0.9603
5.3650 -8.1277 -2.7570 0.9603
6.0641 -7.6042 -2.7534 0.9604
-6.1285 -0.5517 -1.8926 0.9746
-3.8563 -2.3040 -1.3817 0.9814
-4.5017 -3.2707 -1.7115 0.9770
-2.8953 -3.0282 -1.2886 0.9826
-2.8135 -3.5280 -1.3879 0.9813
-3.3515 -5.0774 -1.8712 0.9749
-3.6466 -8.5316 -2.8538 0.9619
-2.8384 -8.7358 -2.8252 0.9623
-2.0250 -8.8720 -2.7990 0.9626
0.4077 -9.0786 -2.7952 0.9627
2.8040 -8.6299 -2.7910 0.9627
3.5408 -8.2842 -2.7710 0.9630
4.2531 -7.9037 -2.7606 0.9631
6.1804 -6.4642 -2.7508 0.9633
6.7273 -5.8774 -2.7476 0.9633
-3.9968 0.0000 -1.3286 0.9833
-6.1216 -0.5510 -2.0431 0.9744
-4.4578 -1.2304 -1.5372 0.9807
-3.8546 -2.3030 -1.4925 0.9813
-4.4974 -3.2676 -1.8479 0.9768
-3.3481 -5.0723 -2.0202 0.9747
-3.3623 -7.8665 -2.8437 0.9646
-2.6192 -8.0612 -2.8175 0.9649
2.5954 -7.9879 -2.7919 0.9652
3.9624 -7.3634 -2.7795 0.9654
5.1667 -6.4788 -2.7545 0.9657
5.7204 -5.9831 -2.7515 0.9657
6.2271 -5.4404 -2.7486 0.9657
-6.1146 -0.5504 -2.1955 0.9743
-5.7100 -1.0363 -2.0753 0.9756
-4.4533 -1.2291 -1.6521 0.9806
-4.2061 -1.5786 -1.6066 0.9811
-4.4930 -3.2644 -1.9860 0.9767
-2.8957 -3.0287 -1.4985 0.9824
-3.7882 -7.0396 -2.8588 0.9666
-2.4288 -7.4752 -2.8107 0.9672
-1.0506 -7.7562 -2.7990 0.9673
-0.3512 -7.8192 -2.7990 0.9673
0.3507 -7.8088 -2.7953 0.9673
1.0488 -7.7429 -2.7942 0.9674
1.7380 -7.6149 -2.7932 0.9674
2.4128 -7.4257 -2.7921 0.9674
3.6973 -6.8707 -2.7902 0.9674
4.2944 -6.5057 -2.7876 0.9674
5.3539 -5.5997 -2.7705 0.9676
5.8226 -5.0870 -2.7649 0.9677
-3.9895 0.0000 -1.5288 0.9831
-6.1076 -0.5498 -2.3500 0.9741
-4.4886 -3.2612 -2.1262 0.9765
-3.5120 -3.0683 -1.7872 0.9802
-2.8960 -3.0290 -1.6059 0.9822
-2.8141 -3.5288 -1.7297 0.9809
-3.3412 -5.0618 -2.3242 0.9744
-2.2617 -6.9609 -2.8048 0.9691
-0.9804 -7.2379 -2.7990 0.9692
-0.3277 -7.2966 -2.7990 0.9692
0.3277 -7.2966 -2.7990 0.9692
1.6220 -7.1064 -2.7934 0.9693
2.2517 -6.9301 -2.7924 0.9693
4.0104 -6.0754 -2.7897 0.9693
4.5375 -5.6899 -2.7889 0.9693
5.4746 -4.7830 -2.7858 0.9693
-3.9858 0.0000 -1.6313 0.9829
-3.8879 -1.8723 -1.7661 0.9815
-3.8491 -2.2997 -1.8351 0.9808
-3.5123 -3.0687 -1.9089 0.9800
-2.7086 -6.3371 -2.8206 0.9707
-1.5218 -6.6675 -2.7990 0.9709
-0.9180 -6.7771 -2.7990 0.9709
-0.3068 -6.8321 -2.7990 0.9709
0.9180 -6.7771 -2.7990 0.9709
3.2314 -6.0049 -2.7909 0.9710
3.7555 -5.6894 -2.7901 0.9710
4.2493 -5.3284 -2.7893 0.9710
4.7087 -4.9248 -2.7886 0.9710
-3.9820 0.0000 -1.7354 0.9828
-5.6921 -1.0331 -2.5213 0.9751
-4.4391 -1.2252 -2.0070 0.9801
-3.8831 -1.8700 -1.8784 0.9814
-3.0812 -5.7258 -2.8338 0.9720
-2.5382 -5.9385 -2.8146 0.9722
-1.9846 -6.1081 -2.7990 0.9724
-1.4291 -6.2615 -2.7990 0.9724
-0.2881 -6.4160 -2.7990 0.9724
0.8621 -6.3643 -2.7990 0.9724
1.4291 -6.2614 -2.7990 0.9724
1.9843 -6.1071 -2.7985 0.9724
2.5215 -5.8994 -2.7961 0.9724
3.0368 -5.6432 -2.7929 0.9724
3.9917 -5.0054 -2.7902 0.9725
4.4253 -4.6285 -2.7908 0.9724
4.8257 -4.2161 -2.7927 0.9724
-6.0857 -0.5478 -2.8283 0.9734
-5.6860 -1.0320 -2.6750 0.9748
-4.1963 -1.5749 -2.0747 0.9804
-3.8783 -1.8677 -1.9926 0.9812
-3.8452 -2.2974 -2.0734 0.9805
-4.4749 -3.2512 -2.5603 0.9759
-3.5130 -3.0693 -2.1593 0.9796
-2.8968 -3.0298 -1.9403 0.9817
-3.3304 -5.0454 -2.7984 0.9737
-2.8942 -5.3784 -2.8272 0.9734
-2.3852 -5.5805 -2.8092 0.9736
-1.8686 -5.7510 -2.7990 0.9737
-1.3456 -5.8953 -2.7990 0.9737
0.2713 -6.0408 -2.7990 0.9737
0.8117 -5.9922 -2.7990 0.9737
1.3456 -5.8953 -2.7990 0.9737
2.3766 -5.5603 -2.7990 0.9737
3.3302 -5.0451 -2.7982 0.9737
3.7685 -4.7259 -2.7979 0.9737
4.1772 -4.3691 -2.7980 0.9737
-3.9742 0.0000 -1.9494 0.9824
-5.9655 -0.5369 -2.9380 0.9737
-4.4292 -1.2225 -2.2539 0.9797
-4.1938 -1.5739 -2.1973 0.9802
-3.8432 -2.2962 -2.1960 0.9803
-3.5134 -3.0696 -2.2885 0.9794
-2.8970 -3.0300 -2.0563 0.9815
-3.1867 -4.8277 -2.8375 0.9746
-2.7254 -5.0646 -2.8212 0.9747
-1.7633 -5.4269 -2.7990 0.9749
-1.2697 -5.5631 -2.7990 0.9749
-0.7660 -5.6545 -2.7990 0.9749
0.7660 -5.6545 -2.7990 0.9749
1.2698 -5.5631 -2.7990 0.9749
1.7633 -5.4269 -2.7990 0.9749
2.7040 -5.0248 -2.7990 0.9749
3.5577 -4.4613 -2.7990 0.9749
3.9433 -4.1244 -2.7990 0.9749
4.2972 -3.7543 -2.7990 0.9749
-3.9702 0.0000 -2.0596 0.9823
-5.6163 -0.5055 -2.9254 0.9749
-3.8684 -1.8629 -2.2275 0.9808
-4.4653 -3.2443 -2.8634 0.9754
-2.8973 -3.0303 -2.1750 0.9813
-1.6673 -5.1313 -2.7990 0.9760
-1.2006 -5.2601 -2.7990 0.9760
-0.2421 -5.3900 -2.7990 0.9760
0.2421 -5.3900 -2.7990 0.9760
0.7243 -5.3466 -2.7990 0.9760
1.6672 -5.1313 -2.7990 0.9760
2.1205 -4.9612 -2.7990 0.9760
2.9723 -4.5029 -2.7990 0.9760
4.0631 -3.5499 -2.7990 0.9760
-3.9661 0.0000 -2.1722 0.9821
-5.2990 -0.4769 -2.9140 0.9760
-4.1885 -1.5720 -2.4503 0.9798
-3.8392 -2.2938 -2.4494 0.9798
-3.5141 -3.0702 -2.5558 0.9789
-2.8976 -3.0306 -2.2965 0.9811
-2.8156 -3.5306 -2.4733 0.9796
-2.8418 -4.3051 -2.8253 0.9767
-2.4319 -4.5192 -2.8108 0.9769
-2.0085 -4.6992 -2.7990 0.9770
-1.5792 -4.8603 -2.7990 0.9770
-1.1372 -4.9823 -2.7990 0.9770
-0.2293 -5.1053 -2.7990 0.9770
0.6860 -5.0642 -2.7990 0.9770
1.1372 -4.9823 -2.7990 0.9770
1.5792 -4.8603 -2.7990 0.9770
2.0085 -4.6992 -2.7990 0.9770
2.8153 -4.2651 -2.7990 0.9770
3.5317 -3.6938 -2.7990 0.9770
-3.9619 0.0000 -2.2874 0.9819
-5.0088 -0.4508 -2.9035 0.9770
-4.4137 -1.2182 -2.6435 0.9791
-4.1858 -1.5709 -2.5813 0.9796
-3.8371 -2.2925 -2.5806 0.9796
-4.0188 -2.9199 -2.8680 0.9773
-2.8979 -3.0309 -2.4210 0.9808
-2.8158 -3.5309 -2.6075 0.9794
-2.6907 -4.0763 -2.8199 0.9777
-2.3033 -4.2802 -2.8063 0.9778
-1.4981 -4.6108 -2.7990 0.9779
-0.6508 -4.8042 -2.7990 0.9779
-0.2175 -4.8432 -2.7990 0.9779
0.6508 -4.8042 -2.7990 0.9779
1.4981 -4.6108 -2.7990 0.9779
2.6708 -4.0461 -2.7990 0.9779
3.0227 -3.7904 -2.7990 0.9779
3.6509 -3.1897 -2.7990 0.9779
