ply
format ascii 1.0
element vertex 308
property float32 x
property float32 y
property float32 z
property float32 I
end_header
8.8194 3.3100 1.4431 0.9626
8.8481 0.0000 1.1522 0.9649
8.8871 3.3354 1.2361 0.9624
14.6277 7.0442 1.7434 0.9368
14.6298 7.0452 1.3746 0.9369
11.5947 6.9275 1.1434 0.9472
14.6319 7.0462 1.0071 0.9370
11.5966 6.9287 0.8377 0.9473
16.4714 6.1819 0.6937 0.9320
11.5986 6.9298 0.5328 0.9474
16.4745 6.1830 0.2972 0.9320
14.8201 -2.6895 -0.0848 0.9415
13.3915 1.2052 -0.0757 0.9476
14.5319 6.9983 -0.0908 0.9375
11.6024 6.9321 -0.0761 0.9474
11.3034 -14.1740 -0.5105 0.9300
13.3403 3.6817 -0.3897 0.9461
14.5361 7.0003 -0.4543 0.9375
11.6043 6.9333 -0.3806 0.9473
8.6464 -0.7782 -0.4403 0.9658
5.9969 1.6550 -0.3155 0.9754
8.6464 3.2451 -0.4684 0.9637
14.5403 7.0024 -0.8185 0.9374
11.6062 6.9344 -0.6857 0.9473
13.4269 -1.2084 -0.9885 0.9474
16.4868 6.1877 -1.2912 0.9318
13.4646 -1.2118 -1.2979 0.9471
16.1785 0.0000 -1.5532 0.9371
16.9717 1.5275 -1.6360 0.9338
16.3973 2.9757 -1.6002 0.9352
16.4899 6.1888 -1.6909 0.9317
14.5488 7.0065 -1.5503 0.9372
11.6100 6.9367 -1.2984 0.9471
13.5028 -1.2153 -1.6104 0.9469
15.8557 0.0000 -1.8834 0.9381
16.4930 6.1900 -2.0926 0.9315
14.5531 7.0085 -1.9187 0.9370
11.6120 6.9379 -1.6068 0.9470
0.8726 -19.4307 -2.7559 0.9244
4.3281 -18.9626 -2.7559 0.9244
7.5800 -17.7343 -2.7327 0.9250
9.0818 -16.8768 -2.7155 0.9255
10.4953 -15.8996 -2.6994 0.9259
13.9036 -12.1472 -2.6159 0.9281
14.9365 -10.8520 -2.6159 0.9281
16.6342 -8.0106 -2.6159 0.9281
17.7972 -4.9117 -2.6159 0.9281
18.1658 -3.2966 -2.6159 0.9281
16.8042 1.5124 -2.3906 0.9341
16.3973 2.9757 -2.3613 0.9349
13.5705 3.7452 -1.9947 0.9447
16.4961 6.1912 -2.4965 0.9313
11.6139 6.9390 -1.9169 0.9468
-5.3752 -16.5432 -2.8656 0.9319
-3.7995 -16.6468 -2.8129 0.9331
0.7505 -16.7120 -2.7559 0.9344
3.7226 -16.3094 -2.7559 0.9344
5.1695 -15.9101 -2.7559 0.9344
6.5385 -15.2976 -2.7407 0.9348
7.6786 -14.2693 -2.6695 0.9364
8.7634 -13.2760 -2.6206 0.9375
9.9006 -12.4149 -2.6159 0.9377
11.9583 -10.4476 -2.6159 0.9377
12.8466 -9.3336 -2.6159 0.9377
13.6316 -8.1445 -2.6159 0.9377
14.3068 -6.8898 -2.6159 0.9377
15.3071 -4.2245 -2.6159 0.9377
13.3363 -1.2003 -2.2059 0.9472
13.3902 0.0000 -2.2059 0.9472
13.1750 2.3909 -2.2059 0.9472
15.1650 5.6915 -2.6684 0.9364
-2.7243 -8.3845 -1.6571 0.9648
-3.3124 -14.5124 -2.7979 0.9412
0.6548 -14.5816 -2.7435 0.9423
1.9557 -14.4375 -2.7385 0.9424
4.4849 -13.8030 -2.7279 0.9426
5.6929 -13.3191 -2.7226 0.9428
6.8503 -12.7299 -2.7172 0.9429
7.7978 -11.8132 -2.6605 0.9440
8.7089 -10.9206 -2.6254 0.9447
11.6887 -1.0520 -2.2059 0.9534
11.7359 0.0000 -2.2059 0.9534
11.5473 2.0955 -2.2059 0.9534
11.3130 3.1222 -2.2059 0.9534
10.9876 4.1237 -2.2059 0.9534
11.6179 6.9414 -2.5438 0.9464
-2.7231 -8.3810 -1.8627 0.9646
-2.9315 -12.8438 -2.7848 0.9476
-1.7498 -12.9172 -2.7554 0.9481
0.5817 -12.9526 -2.7407 0.9484
7.0693 -10.7095 -2.7125 0.9489
7.8381 -9.8287 -2.6573 0.9499
8.5924 -8.9869 -2.6282 0.9504
9.3436 -8.1633 -2.6227 0.9505
10.6238 -6.3474 -2.6159 0.9507
11.1500 -5.3696 -2.6159 0.9507
10.2680 -1.8634 -2.2059 0.9582
10.3937 -0.9354 -2.2059 0.9582
10.3937 0.9354 -2.2059 0.9582
10.2680 1.8634 -2.2059 0.9582
10.0596 2.7763 -2.2059 0.9582
-3.6962 -11.3756 -2.8111 0.9520
-2.6267 -11.5081 -2.7742 0.9527
-0.5256 -11.7041 -2.7535 0.9530
0.5253 -11.6973 -2.7519 0.9530
3.5845 -11.0307 -2.7260 0.9535
4.5514 -10.6485 -2.7217 0.9535
6.3595 -9.6341 -2.7131 0.9537
8.4306 -7.3657 -2.6311 0.9550
10.0286 -4.8295 -2.6160 0.9553
9.3481 -0.8413 -2.2059 0.9622
9.3859 0.0000 -2.2059 0.9622
9.0476 2.4970 -2.2059 0.9622
8.7874 3.2979 -2.2059 0.9622
8.4564 4.0724 -2.2059 0.9622
9.8910 5.9096 -2.7079 0.9538
-3.3404 -10.2806 -2.7988 0.9563
-1.4282 -10.5437 -2.7549 0.9570
1.4260 -10.5270 -2.7505 0.9571
2.3454 -10.2760 -2.7291 0.9574
5.7735 -8.7465 -2.7135 0.9576
7.7441 -6.7658 -2.6625 0.9584
8.2316 -5.9806 -2.6344 0.9588
8.7219 -5.2111 -2.6306 0.9589
9.1692 -4.4157 -2.6350 0.9588
9.9391 -2.7430 -2.6696 0.9583
8.5197 0.0000 -2.2059 0.9654
8.4854 0.7637 -2.2059 0.9654
8.3828 1.5213 -2.2059 0.9654
8.2126 2.2666 -2.2059 0.9654
7.9764 2.9936 -2.2059 0.9654
7.9198 3.8140 -2.2760 0.9643
-3.0448 -9.3711 -2.7894 0.9599
-1.3062 -9.6426 -2.7547 0.9604
-0.4363 -9.7162 -2.7534 0.9604
2.1611 -9.4685 -2.7494 0.9604
4.5488 -8.4530 -2.7175 0.9609
5.2812 -8.0007 -2.7139 0.9609
6.6079 -6.9114 -2.7069 0.9610
7.1842 -6.2766 -2.7007 0.9611
7.6293 -5.5430 -2.6697 0.9616
8.0218 -4.7928 -2.6454 0.9619
8.8163 -3.3088 -2.6658 0.9616
7.9198 -1.4372 -2.2787 0.9671
7.9198 2.9723 -2.3947 0.9654
0.4014 -8.9386 -2.7521 0.9632
1.2005 -8.8627 -2.7509 0.9633
2.7613 -8.4986 -2.7485 0.9633
3.4929 -8.1716 -2.7334 0.9635
4.1867 -7.7802 -2.7175 0.9637
6.6222 -5.7857 -2.7047 0.9639
7.1064 -5.1631 -2.7018 0.9639
7.4772 -4.4674 -2.6791 0.9642
8.1436 -3.0564 -2.6754 0.9643
7.9198 -0.7128 -2.4458 0.9673
7.9198 1.4372 -2.4757 0.9669
7.9198 2.1857 -2.5270 0.9662
7.9198 2.9723 -2.6019 0.9652
-1.8449 -8.0829 -2.7559 0.9657
2.5554 -7.8647 -2.7488 0.9657
3.2488 -7.6010 -2.7478 0.9658
5.0933 -6.3868 -2.7154 0.9662
6.5785 -4.7796 -2.7030 0.9663
7.2687 -3.5004 -2.6817 0.9666
7.9198 0.0000 -2.6326 0.9672
7.9198 0.7128 -2.6432 0.9670
7.6860 2.8846 -2.7289 0.9660
7.4051 3.5661 -2.7321 0.9659
7.0655 4.2215 -2.7359 0.9659
-2.3904 -7.3569 -2.7663 0.9677
-1.0345 -7.6367 -2.7559 0.9678
0.3454 -7.6883 -2.7522 0.9678
1.0327 -7.6235 -2.7511 0.9678
2.3755 -7.3112 -2.7491 0.9679
3.0203 -7.0663 -2.7481 0.9679
3.6403 -6.7648 -2.7472 0.9679
4.2306 -6.4091 -2.7463 0.9679
4.7768 -5.9899 -2.7398 0.9680
5.2805 -5.5231 -2.7325 0.9681
7.0454 -2.6442 -2.6911 0.9685
7.6327 0.0000 -2.7295 0.9681
7.6029 0.6843 -2.7298 0.9681
7.5137 1.3635 -2.7308 0.9681
7.3657 2.0328 -2.7325 0.9681
-2.2259 -6.8508 -2.7604 0.9696
-1.6003 -7.0111 -2.7559 0.9697
-0.9653 -7.1264 -2.7559 0.9697
0.3226 -7.1842 -2.7559 0.9697
0.9646 -7.1207 -2.7537 0.9697
1.5970 -6.9968 -2.7503 0.9697
2.8187 -6.5948 -2.7484 0.9697
3.3974 -6.3135 -2.7475 0.9698
3.9485 -5.9817 -2.7467 0.9698
4.4675 -5.6021 -2.7459 0.9698
4.9504 -5.1777 -2.7452 0.9698
5.3932 -4.7119 -2.7445 0.9698
6.1454 -3.6717 -2.7433 0.9698
6.4545 -3.1083 -2.7454 0.9698
6.9815 -1.2670 -2.7191 0.9701
7.0970 -0.6387 -2.7307 0.9699
7.1372 0.0000 -2.7351 0.9699
7.0257 1.2750 -2.7364 0.9699
6.4487 3.1055 -2.7429 0.9698
6.1519 3.6756 -2.7462 0.9698
-2.0804 -6.4026 -2.7553 0.9713
-1.4984 -6.5648 -2.7559 0.9713
-0.3021 -6.7268 -2.7559 0.9713
0.3021 -6.7268 -2.7559 0.9713
0.9039 -6.6727 -2.7559 0.9713
1.4979 -6.5632 -2.7552 0.9713
2.0766 -6.3910 -2.7503 0.9714
5.4264 -3.9425 -2.7452 0.9714
5.7679 -3.4461 -2.7499 0.9714
6.6550 -0.5990 -2.7347 0.9715
6.6951 -0.0000 -2.7401 0.9715
6.5903 1.1960 -2.7413 0.9715
6.4600 1.7829 -2.7428 0.9715
6.2789 2.3565 -2.7448 0.9714
5.7693 3.4470 -2.7506 0.9714
-1.9541 -6.0140 -2.7559 0.9728
-1.4071 -6.1650 -2.7559 0.9728
-0.2837 -6.3172 -2.7559 0.9728
1.9541 -6.0140 -2.7559 0.9728
4.3609 -4.5611 -2.7502 0.9728
4.7548 -4.1542 -2.7517 0.9728
5.4269 -3.2424 -2.7551 0.9728
5.9203 -2.2219 -2.7559 0.9728
6.2976 0.0000 -2.7446 0.9729
5.4256 3.2417 -2.7545 0.9728
-1.8398 -5.6624 -2.7559 0.9741
-1.3248 -5.8045 -2.7559 0.9741
-0.7992 -5.8999 -2.7559 0.9741
-0.2671 -5.9478 -2.7559 0.9741
0.2671 -5.9478 -2.7559 0.9741
0.7992 -5.8999 -2.7559 0.9741
1.3248 -5.8045 -2.7559 0.9741
3.7113 -4.6539 -2.7553 0.9741
4.1136 -4.3025 -2.7554 0.9741
4.4832 -3.9168 -2.7557 0.9741
5.3642 -2.5832 -2.7559 0.9741
5.5741 -2.0920 -2.7559 0.9741
5.7392 -1.5839 -2.7559 0.9741
5.8981 -0.5308 -2.7412 0.9742
5.7290 1.5811 -2.7510 0.9741
-0.7542 -5.5674 -2.7559 0.9753
-0.2521 -5.6126 -2.7559 0.9753
0.7542 -5.5674 -2.7559 0.9753
1.7362 -5.3433 -2.7559 0.9753
2.2081 -5.1662 -2.7559 0.9753
2.6623 -4.9474 -2.7559 0.9753
3.5029 -4.3926 -2.7559 0.9753
3.8826 -4.0609 -2.7559 0.9753
5.0619 -2.4377 -2.7559 0.9753
5.2600 -1.9741 -2.7559 0.9753
5.6111 0.0000 -2.7524 0.9753
5.5890 0.5030 -2.7526 0.9753
5.5229 1.0023 -2.7534 0.9753
5.4133 1.4940 -2.7546 0.9753
4.8230 2.8816 -2.7559 0.9753
-1.6416 -5.0523 -2.7559 0.9763
-0.7131 -5.2642 -2.7559 0.9763
-0.2383 -5.3069 -2.7559 0.9763
1.1821 -5.1791 -2.7559 0.9763
1.6416 -5.0523 -2.7559 0.9763
2.0879 -4.8848 -2.7559 0.9763
4.2977 -3.1225 -2.7559 0.9763
4.7862 -2.3049 -2.7559 0.9763
4.9735 -1.8666 -2.7559 0.9763
5.2269 -0.9486 -2.7559 0.9763
5.2909 -0.4762 -2.7559 0.9763
5.3120 0.0000 -2.7558 0.9763
4.9735 1.8666 -2.7559 0.9763
4.5603 2.7247 -2.7559 0.9763
-1.5549 -4.7855 -2.7559 0.9773
-1.1197 -4.9056 -2.7559 0.9773
-0.6754 -4.9862 -2.7559 0.9773
-0.2257 -5.0267 -2.7559 0.9773
0.6754 -4.9862 -2.7559 0.9773
1.1196 -4.9056 -2.7559 0.9773
1.5549 -4.7855 -2.7559 0.9773
2.3844 -4.4309 -2.7559 0.9773
2.7720 -4.1993 -2.7559 0.9773
3.4772 -3.6369 -2.7559 0.9773
3.7893 -3.3106 -2.7559 0.9773
4.0708 -2.9576 -2.7559 0.9773
4.3195 -2.5808 -2.7559 0.9773
4.8504 -1.3386 -2.7559 0.9773
4.9509 -0.8984 -2.7559 0.9773
5.0115 -0.4510 -2.7559 0.9773
5.0115 0.4510 -2.7559 0.9773
4.9509 0.8985 -2.7559 0.9773
4.5334 2.1832 -2.7559 0.9773
4.3195 2.5808 -2.7559 0.9773
-1.0622 -4.6537 -2.7559 0.9782
-0.2142 -4.7685 -2.7559 0.9782
0.2142 -4.7686 -2.7559 0.9782
0.6407 -4.7301 -2.7559 0.9782
1.4750 -4.5397 -2.7559 0.9782
1.8760 -4.3892 -2.7559 0.9782
2.2619 -4.2034 -2.7559 0.9782
3.2987 -3.4502 -2.7559 0.9782
4.0977 -2.4483 -2.7559 0.9782
4.3006 -2.0711 -2.7559 0.9782
4.6013 -1.2699 -2.7559 0.9782
4.6967 -0.8523 -2.7559 0.9782
4.7734 -0.0000 -2.7559 0.9782
4.6967 0.8523 -2.7559 0.9782
4.0977 2.4483 -2.7559 0.9782
