ply
format ascii 1.0
element vertex 366
property float32 x
property float32 y
property float32 z
property float32 I
end_header
13.0673 0.0000 2.0018 0.9485
13.0673 1.1761 2.0099 0.9483
12.0996 3.3393 1.9229 0.9505
8.8295 3.3138 1.4447 0.9626
8.8239 9.2291 1.6627 0.9498
7.3339 9.1964 1.5317 0.9537
14.6279 7.0443 1.7434 0.9368
14.6300 7.0453 1.3746 0.9369
9.1871 8.0264 1.0327 0.9522
7.3368 9.2001 0.9961 0.9539
6.6854 10.1280 1.0273 0.9525
6.3518 11.8037 1.1347 0.9476
6.0381 18.5832 1.6541 0.9246
18.1676 6.8184 1.2033 0.9252
11.5969 6.9288 0.8377 0.9473
10.6028 7.7034 0.8127 0.9488
9.1885 8.0277 0.7566 0.9523
6.6865 10.1296 0.7526 0.9525
6.0453 14.1436 0.9538 0.9402
6.0381 18.5833 1.2117 0.9247
8.7434 1.5867 0.3504 0.9651
16.4716 6.1820 0.6937 0.9320
14.6341 7.0473 0.6405 0.9370
7.9823 8.3489 0.4555 0.9548
6.0455 14.1442 0.6065 0.9403
6.0381 18.5832 0.7705 0.9248
11.6007 6.9311 0.2283 0.9474
9.1913 8.0301 0.2062 0.9523
7.9836 8.3502 0.1951 0.9548
6.6886 10.1329 0.2051 0.9526
6.1448 11.4191 0.2190 0.9494
6.0458 14.1449 0.2598 0.9403
5.6922 17.5191 0.3112 0.9290
14.8201 -2.6895 -0.0848 0.9415
13.3059 3.6722 -0.0777 0.9463
14.5323 6.9985 -0.0908 0.9375
9.1927 8.0314 -0.0687 0.9523
7.9849 8.3516 -0.0651 0.9548
6.6897 10.1345 -0.0684 0.9526
6.1455 11.4204 -0.0730 0.9494
6.0461 14.1455 -0.0866 0.9403
5.6919 17.5181 -0.1037 0.9290
13.3562 -1.2021 -0.3776 0.9478
5.9874 1.6524 -0.1749 0.9755
16.4809 6.1854 -0.4957 0.9320
14.5365 7.0005 -0.4543 0.9375
11.6045 6.9334 -0.3806 0.9473
10.6084 7.7074 -0.3692 0.9489
7.9862 8.3529 -0.3254 0.9548
6.1462 11.4217 -0.3652 0.9494
6.0464 14.1462 -0.4332 0.9403
5.6916 17.5171 -0.5186 0.9289
-2.6171 11.4663 -0.3312 0.9540
8.6464 -0.7782 -0.4403 0.9658
8.6464 0.0000 -0.4385 0.9660
8.6464 0.7782 -0.4403 0.9658
8.6464 3.2451 -0.4684 0.9637
14.5407 7.0026 -0.8185 0.9374
9.1955 8.0338 -0.6193 0.9523
7.1196 8.9277 -0.5791 0.9553
6.0466 14.1468 -0.7802 0.9402
-2.6171 11.4663 -0.5965 0.9540
13.4308 -1.2088 -0.9888 0.9474
16.4870 6.1878 -1.2912 0.9318
9.1969 8.0351 -0.8955 0.9522
6.1477 11.4244 -0.9512 0.9493
6.0469 14.1475 -1.1281 0.9402
-2.6171 11.4663 -0.8624 0.9539
13.4686 -1.2122 -1.2983 0.9471
16.1610 0.0000 -1.5515 0.9371
16.9717 1.5275 -1.6360 0.9338
16.4901 6.1889 -1.6910 0.9317
11.6102 6.9368 -1.2984 0.9471
10.6126 7.7105 -1.2594 0.9487
7.9901 8.3570 -1.1100 0.9546
6.1484 11.4257 -1.2457 0.9492
5.6906 17.5142 -1.7680 0.9287
16.7755 1.5098 -2.0008 0.9344
16.3973 2.9757 -1.9796 0.9351
8.5704 2.3653 -1.0561 0.9648
10.6140 7.7115 -1.5584 0.9485
7.1225 8.9315 -1.3570 0.9550
6.6951 10.1426 -1.4436 0.9522
6.1491 11.4270 -1.5414 0.9491
6.0475 14.1488 -1.8278 0.9399
14.7519 -10.7179 -2.5836 0.9290
15.6532 -9.3524 -2.5836 0.9290
17.5772 -4.8510 -2.5836 0.9290
18.1609 -1.6345 -2.5836 0.9290
15.8303 0.0000 -2.2430 0.9380
16.3973 2.9757 -2.3613 0.9349
16.4964 6.1913 -2.4966 0.9313
10.6155 7.7126 -1.8592 0.9484
7.9927 8.3597 -1.6388 0.9543
7.1235 8.9327 -1.6188 0.9549
6.6961 10.1442 -1.7222 0.9521
6.1498 11.4284 -1.8388 0.9489
4.2773 18.7401 -2.7236 0.9253
2.5803 19.0481 -2.7236 0.9253
-0.8624 19.2027 -2.7236 0.9253
-2.5972 19.1735 -2.7415 0.9248
12.6878 -9.2182 -2.5836 0.9384
13.4631 -8.0438 -2.5836 0.9384
15.1178 -4.1723 -2.5836 0.9384
15.4639 -2.8063 -2.5891 0.9383
13.1408 -1.1827 -2.1736 0.9479
13.1939 0.0000 -2.1736 0.9479
14.4514 6.9594 -2.6424 0.9370
11.6161 6.9403 -2.2292 0.9466
6.6972 10.1459 -2.0027 0.9519
6.1505 11.4297 -2.1382 0.9487
5.1088 15.7234 -2.7236 0.9352
3.6788 16.1180 -2.7236 0.9352
2.2192 16.3829 -2.7236 0.9352
0.7417 16.5159 -2.7236 0.9352
-2.2227 16.4086 -2.7278 0.9351
-3.7608 16.4771 -2.7842 0.9338
11.7998 -7.0500 -2.5836 0.9456
12.8689 -4.8298 -2.5836 0.9456
13.3131 -3.6742 -2.5959 0.9453
13.6691 -2.4806 -2.6112 0.9450
11.5173 -1.0366 -2.1736 0.9540
11.5639 0.0000 -2.1736 0.9540
11.5173 1.0366 -2.1736 0.9540
11.1471 3.0764 -2.1736 0.9540
7.9954 8.3625 -2.1746 0.9540
7.1255 8.9352 -2.1481 0.9546
6.6983 10.1475 -2.2854 0.9517
5.6877 13.3070 -2.7201 0.9428
4.4777 13.7808 -2.7236 0.9427
3.2243 14.1267 -2.7236 0.9427
0.6501 14.4754 -2.7236 0.9427
9.8996 -7.1925 -2.5866 0.9512
11.0121 -5.3032 -2.5836 0.9513
11.4860 -4.3108 -2.5933 0.9511
11.9163 -3.2887 -2.6130 0.9507
10.2413 -0.9217 -2.1736 0.9588
10.2413 0.9217 -2.1736 0.9588
10.1174 1.8360 -2.1736 0.9588
9.9121 2.7356 -2.1736 0.9588
9.6270 3.6131 -2.1736 0.9588
10.8573 6.4869 -2.6734 0.9496
10.2557 7.4512 -2.6796 0.9495
9.2056 8.0426 -2.5839 0.9513
6.6995 10.1492 -2.5706 0.9515
6.0899 11.3168 -2.7165 0.9488
3.9816 12.2540 -2.7236 0.9487
2.8671 12.5616 -2.7236 0.9487
1.7296 12.7681 -2.7236 0.9487
0.5781 12.8717 -2.7236 0.9487
-1.7296 12.7681 -2.7236 0.9487
9.9072 -4.7711 -2.5844 0.9558
9.0996 -1.6513 -2.1736 0.9627
9.2110 -0.8290 -2.1736 0.9627
9.2483 0.0000 -2.1736 0.9627
9.2110 0.8290 -2.1736 0.9627
8.9150 2.4604 -2.1736 0.9627
8.6586 3.2496 -2.1736 0.9627
9.7742 5.8399 -2.6760 0.9543
6.3619 9.6379 -2.7141 0.9537
5.4880 10.1984 -2.7219 0.9535
4.5546 10.6559 -2.7236 0.9535
0.5199 11.5768 -2.7236 0.9535
-1.5556 11.4836 -2.7236 0.9535
-2.5957 11.3727 -2.7416 0.9532
8.6178 -5.1489 -2.5992 0.9594
9.4879 -3.5609 -2.6239 0.9590
9.8240 -2.7112 -2.6387 0.9588
8.3948 0.0000 -2.1736 0.9659
8.0922 2.2333 -2.1736 0.9659
7.9198 2.9723 -2.1902 0.9657
7.9198 3.8140 -2.2760 0.9643
8.8951 5.3146 -2.6829 0.9581
7.8389 6.8486 -2.6951 0.9579
4.1342 9.6725 -2.7236 0.9575
3.2506 10.0042 -2.7236 0.9575
2.3407 10.2553 -2.7236 0.9575
1.4120 10.4238 -2.7236 0.9575
-0.4719 10.5084 -2.7236 0.9575
-2.3484 10.2891 -2.7325 0.9573
7.5514 -5.4864 -2.6424 0.9619
7.9372 -4.7423 -2.6175 0.9623
8.7141 -3.2705 -2.6349 0.9620
9.0187 -2.4890 -2.6486 0.9619
7.9198 -0.7128 -2.2511 0.9675
7.9198 0.0000 -2.2420 0.9676
7.9198 1.4372 -2.2787 0.9671
7.9198 2.9723 -2.3947 0.9654
7.9198 3.8140 -2.4885 0.9641
8.1606 4.8758 -2.6912 0.9613
7.1882 6.2801 -2.7022 0.9611
6.6122 6.9158 -2.7087 0.9610
1.2914 9.5337 -2.7236 0.9608
-1.2914 9.5337 -2.7236 0.9608
-2.1419 9.3844 -2.7250 0.9608
7.0218 -5.1016 -2.6696 0.9643
7.4012 -4.4220 -2.6518 0.9646
7.7120 -3.7139 -2.6328 0.9648
8.0493 -3.0209 -2.6444 0.9647
7.9198 -1.4372 -2.4757 0.9669
7.9198 0.0000 -2.4360 0.9674
7.9198 1.4372 -2.4757 0.9669
7.9198 2.1857 -2.5270 0.9662
7.9198 2.9723 -2.6019 0.9652
5.5159 6.9167 -2.7211 0.9637
2.7363 8.4215 -2.7236 0.9636
1.1886 8.7747 -2.7236 0.9636
0.3973 8.8459 -2.7236 0.9636
-1.1886 8.7747 -2.7236 0.9636
6.5003 -4.7227 -2.6708 0.9667
6.8966 -4.1205 -2.6705 0.9667
7.4713 -2.8040 -2.6527 0.9669
7.7267 -2.1324 -2.6644 0.9668
7.9198 0.7128 -2.6432 0.9670
7.9198 1.4372 -2.6756 0.9666
6.9844 4.1730 -2.7045 0.9663
5.6538 5.9134 -2.7195 0.9661
5.1086 6.4059 -2.7236 0.9661
4.5138 6.8381 -2.7236 0.9661
3.2203 7.5341 -2.7236 0.9661
1.8232 7.9880 -2.7236 0.9661
1.0999 8.1193 -2.7236 0.9661
-1.0998 8.1193 -2.7236 0.9661
6.4730 -3.8674 -2.6965 0.9685
6.7749 -3.2626 -2.6891 0.9686
7.3811 -1.3395 -2.6826 0.9686
7.5450 0.0000 -2.6982 0.9685
7.4274 1.3479 -2.6995 0.9684
7.2812 2.0095 -2.7011 0.9684
6.8185 3.2836 -2.7064 0.9684
6.5052 3.8867 -2.7099 0.9683
6.1400 4.4610 -2.7140 0.9683
4.1957 6.3562 -2.7236 0.9682
3.6090 6.7067 -2.7236 0.9682
2.3535 7.2433 -2.7236 0.9682
-0.3417 7.6084 -2.7236 0.9682
5.7246 -4.1592 -2.7116 0.9701
6.0732 -3.6285 -2.7111 0.9701
6.3831 -3.0739 -2.7150 0.9701
6.5547 -2.4600 -2.6830 0.9705
6.7328 -1.8582 -2.6766 0.9705
7.0153 -0.6314 -2.6993 0.9703
7.0552 -0.0000 -2.7037 0.9702
7.0277 0.6325 -2.7040 0.9702
6.9451 1.2603 -2.7049 0.9702
6.3746 3.0699 -2.7114 0.9701
6.0812 3.6334 -2.7147 0.9701
5.7392 4.1698 -2.7186 0.9701
4.4312 5.5565 -2.7236 0.9700
3.9153 5.9314 -2.7236 0.9700
2.7933 6.5352 -2.7236 0.9700
1.5815 6.9289 -2.7236 0.9700
0.9540 7.0427 -2.7236 0.9700
0.3189 7.0999 -2.7236 0.9700
-0.3188 7.0999 -2.7236 0.9700
-0.9540 7.0428 -2.7236 0.9700
5.3663 -3.8989 -2.7148 0.9717
5.7029 -3.4074 -2.7189 0.9717
6.4720 -1.1745 -2.6921 0.9720
6.5779 -0.5920 -2.7030 0.9719
6.5922 0.5933 -2.7089 0.9718
6.5146 1.1822 -2.7098 0.9718
6.3858 1.7624 -2.7113 0.9718
5.9786 2.8792 -2.7159 0.9717
5.3818 3.9101 -2.7226 0.9717
5.0114 4.3783 -2.7236 0.9716
4.5988 4.8099 -2.7236 0.9716
0.2986 6.6479 -2.7236 0.9716
-0.8933 6.5944 -2.7236 0.9716
5.3639 -3.2048 -2.7232 0.9731
5.6304 -2.7115 -2.7236 0.9731
5.8508 -2.1958 -2.7236 0.9731
5.9975 -1.6552 -2.7115 0.9732
6.2009 0.5581 -2.7134 0.9732
6.0064 1.6577 -2.7156 0.9732
5.8377 2.1909 -2.7175 0.9732
5.0558 3.6733 -2.7236 0.9731
4.7062 4.1117 -2.7236 0.9731
4.3187 4.5170 -2.7236 0.9731
3.4428 5.2155 -2.7236 0.9731
2.9614 5.5031 -2.7236 0.9731
2.4562 5.7464 -2.7236 0.9731
1.9312 5.9435 -2.7236 0.9731
1.3906 6.0926 -2.7236 0.9731
5.5087 -2.0675 -2.7236 0.9744
5.6718 -1.5653 -2.7236 0.9744
5.7674 -1.0467 -2.7132 0.9745
5.8298 -0.5247 -2.7094 0.9745
5.8469 0.5262 -2.7174 0.9745
5.7778 1.0485 -2.7181 0.9744
5.5040 2.0657 -2.7212 0.9744
5.3012 2.5529 -2.7235 0.9744
5.0510 3.0178 -2.7236 0.9744
4.4310 3.8712 -2.7236 0.9744
4.0662 4.2528 -2.7236 0.9744
3.6685 4.6002 -2.7236 0.9744
3.2414 4.9105 -2.7236 0.9744
2.3125 5.4104 -2.7236 0.9744
1.8182 5.5959 -2.7236 0.9744
1.3093 5.7364 -2.7236 0.9744
0.7898 5.8306 -2.7236 0.9744
-1.3093 5.7364 -2.7236 0.9744
4.4919 -3.2636 -2.7236 0.9756
5.0025 -2.4091 -2.7236 0.9756
5.5205 -0.4969 -2.7189 0.9756
5.5467 0.0000 -2.7208 0.9756
5.1983 1.9509 -2.7236 0.9756
5.0025 2.4091 -2.7236 0.9756
4.7664 2.8478 -2.7236 0.9756
4.1813 3.6531 -2.7236 0.9756
3.0588 4.6338 -2.7236 0.9756
2.6311 4.8894 -2.7236 0.9756
1.2355 5.4132 -2.7236 0.9756
0.7453 5.5021 -2.7236 0.9756
-0.7453 5.5021 -2.7236 0.9756
4.2473 -3.0858 -2.7236 0.9766
5.0607 -1.3967 -2.7236 0.9766
5.1656 -0.9374 -2.7236 0.9766
5.2499 0.0000 -2.7236 0.9766
5.2288 0.4706 -2.7236 0.9766
5.1656 0.9374 -2.7236 0.9766
4.9152 1.8447 -2.7236 0.9766
4.7300 2.2779 -2.7236 0.9766
4.2473 3.0858 -2.7236 0.9766
2.8922 4.3815 -2.7236 0.9766
2.0633 4.8275 -2.7236 0.9766
1.6223 4.9930 -2.7236 0.9766
0.7047 5.2024 -2.7236 0.9766
-0.2355 5.2447 -2.7236 0.9766
-0.7047 5.2024 -2.7236 0.9766
4.0230 -2.9229 -2.7236 0.9776
4.8928 -0.8879 -2.7236 0.9776
4.8928 0.8879 -2.7236 0.9776
4.7935 1.3229 -2.7236 0.9776
4.4803 2.1576 -2.7236 0.9776
4.2688 2.5505 -2.7236 0.9776
4.0230 2.9229 -2.7236 0.9776
3.4364 3.5942 -2.7236 0.9776
3.1004 3.8878 -2.7236 0.9776
1.5367 4.7293 -2.7236 0.9776
0.2231 4.9677 -2.7236 0.9776
-0.2231 4.9677 -2.7236 0.9776
-0.6675 4.9277 -2.7236 0.9776
-1.1065 4.8480 -2.7236 0.9776
4.0496 -2.4195 -2.7236 0.9784
4.4165 -1.6576 -2.7236 0.9784
4.5473 -1.2550 -2.7236 0.9784
4.6415 -0.8423 -2.7236 0.9784
4.6984 -0.4229 -2.7236 0.9784
4.7173 -0.0000 -2.7236 0.9784
4.6983 0.4229 -2.7236 0.9784
4.5473 1.2550 -2.7236 0.9784
4.4165 1.6575 -2.7236 0.9784
4.2502 2.0468 -2.7236 0.9784
4.0496 2.4195 -2.7236 0.9784
3.8164 2.7728 -2.7236 0.9784
3.5525 3.1037 -2.7236 0.9784
3.2600 3.4097 -2.7236 0.9784
2.2354 4.1541 -2.7236 0.9784
1.4578 4.4865 -2.7236 0.9784
1.0497 4.5991 -2.7236 0.9784
0.6332 4.6746 -2.7236 0.9784
0.2116 4.7126 -2.7236 0.9784
-0.2116 4.7126 -2.7236 0.9784
-0.6332 4.6747 -2.7236 0.9784
-1.0497 4.5991 -2.7236 0.9784
