ply
format ascii 1.0
element vertex 1372
property float32 x
property float32 y
property float32 z
property float32 I
end_header
7.0664 -15.2278 2.9601 0.9341
7.0657 -15.2262 2.1858 0.9345
11.4502 16.2882 1.6854 0.9232
7.0649 -15.2246 1.4208 0.9348
11.9964 15.5442 1.6622 0.9242
12.7614 15.0943 1.2257 0.9238
7.0645 -15.2236 1.0407 0.9350
12.0353 15.5945 1.2215 0.9241
11.4575 16.2986 0.7856 0.9233
12.0353 15.5945 0.7767 0.9242
7.0630 -15.2203 0.2834 0.9351
12.0353 15.5945 0.3327 0.9242
18.1395 1.2143 -0.1024 0.9299
11.4575 16.2986 -0.1122 0.9234
-18.5922 5.9952 -0.1100 0.9248
7.0622 -15.2187 -0.0945 0.9351
17.9263 0.3995 -0.1010 0.9308
12.0353 15.5945 -0.1109 0.9242
12.8545 15.2044 -0.5606 0.9234
-18.3819 5.9274 -0.5438 0.9256
7.0615 -15.2171 -0.4724 0.9351
17.6476 -1.1814 -0.4980 0.9317
17.9263 0.3995 -0.5049 0.9308
-18.2393 6.7924 -0.5480 0.9251
-18.1151 5.8413 -0.9653 0.9266
7.0607 -15.2155 -0.8507 0.9350
17.6476 -1.1814 -0.8970 0.9316
-18.0448 6.7199 -0.9765 0.9258
17.7860 -0.3964 -1.3044 0.9311
11.4575 16.2986 -1.4608 0.9232
-9.3298 15.3590 -1.3176 0.9305
-14.4711 11.4277 -1.3520 0.9287
-15.3573 10.0463 -1.3456 0.9290
-17.8449 7.5669 -1.4212 0.9252
-17.9798 5.7977 -1.3852 0.9270
7.0600 -15.2139 -1.2298 0.9349
17.6476 -1.1814 -1.2969 0.9315
12.0353 15.5945 -1.4443 0.9240
-9.2155 16.8161 -1.4060 0.9260
-9.8758 14.7356 -1.3007 0.9313
-11.0124 13.6302 -1.2848 0.9321
-12.3086 12.7270 -1.2982 0.9315
-15.2158 10.9517 -1.3746 0.9276
-16.0983 9.5350 -1.3719 0.9277
-17.8263 6.6386 -1.3948 0.9265
10.4850 -13.5858 -1.6476 0.9334
17.7860 -0.3963 -1.7080 0.9310
-8.6623 17.6273 -1.8856 0.9241
-8.9498 14.7333 -1.6550 0.9331
-9.7587 13.2446 -1.5794 0.9360
-10.9512 12.3827 -1.5870 0.9357
-16.8539 8.9935 -1.8340 0.9261
-17.8522 5.7566 -1.8008 0.9274
-5.8345 -15.1490 -1.5585 0.9368
7.0592 -15.2123 -1.6100 0.9348
10.4649 -14.8866 -1.7470 0.9295
10.7015 -12.6578 -1.5913 0.9356
10.5246 -8.6988 -1.3109 0.9466
17.6476 -1.1813 -1.6981 0.9314
17.9263 0.3995 -1.7214 0.9305
12.0353 15.5945 -1.8912 0.9239
-5.5058 16.4450 -1.6649 0.9327
-8.8125 16.0808 -1.7605 0.9290
-9.0833 13.5532 -1.5664 0.9365
-10.6029 13.1234 -1.6197 0.9345
-11.1370 11.5156 -1.5380 0.9377
-14.4697 10.4146 -1.7116 0.9309
-17.6087 8.4109 -1.8735 0.9246
-17.4879 6.5125 -1.7916 0.9278
-5.6534 -12.9298 -1.6763 0.9447
-5.6236 -16.7968 -2.1041 0.9311
10.4619 -16.3884 -2.3096 0.9247
10.4675 -13.5632 -2.0351 0.9333
10.4720 -11.3222 -1.8320 0.9398
10.5261 -7.9381 -1.5661 0.9483
10.5356 -3.1400 -1.3059 0.9567
17.7860 -0.3963 -2.1133 0.9308
-8.5980 14.1542 -1.9672 0.9355
-9.4158 12.7793 -1.8855 0.9381
-13.0773 10.3271 -1.9794 0.9351
-14.1653 9.2665 -2.0107 0.9341
-17.7987 7.5473 -2.2965 0.9251
-17.6283 5.6844 -2.2002 0.9281
10.4699 -12.3838 -1.9263 0.9368
10.5116 -8.6880 -1.6199 0.9465
10.6038 -2.6522 -1.2984 0.9569
13.2878 -2.0894 -1.5978 0.9473
17.6476 -1.1814 -2.1010 0.9312
17.9271 0.3995 -2.1300 0.9303
-12.4679 10.7814 -1.9579 0.9358
-17.6576 8.4343 -2.3245 0.9242
-17.3480 6.4604 -2.1990 0.9281
-5.6220 -10.2589 -1.6575 0.9538
-5.6157 -12.8435 -1.9861 0.9449
-5.4472 -16.2699 -2.4310 0.9330
-2.4762 -16.9780 -2.4310 0.9330
-0.9957 -17.8574 -2.5341 0.9303
0.5976 -17.8752 -2.5341 0.9303
2.1862 -17.7510 -2.5341 0.9303
3.7575 -17.4860 -2.5341 0.9303
5.2989 -17.0822 -2.5341 0.9303
7.9078 -15.2253 -2.4309 0.9330
10.4675 -13.5632 -2.4275 0.9331
10.4788 -7.9024 -1.8596 0.9484
10.4815 -6.5280 -1.7496 0.9513
10.5590 -5.3357 -1.6763 0.9533
10.5356 -3.1400 -1.5577 0.9566
17.3167 -0.3859 -2.4542 0.9324
17.1107 2.6905 -2.4542 0.9324
16.8033 4.2028 -2.4542 0.9324
14.2801 9.8028 -2.4542 0.9324
13.3509 11.0348 -2.4542 0.9324
12.3158 12.1794 -2.4542 0.9324
11.1829 13.2272 -2.4542 0.9324
9.8666 14.0354 -2.4309 0.9330
4.5327 17.3013 -2.5341 0.9303
2.9748 17.6360 -2.5341 0.9303
1.3933 17.8308 -2.5341 0.9303
-3.2300 16.8508 -2.4310 0.9330
-4.7170 16.4965 -2.4310 0.9330
-7.9157 16.1079 -2.5430 0.9301
-10.1342 11.4589 -2.1675 0.9401
-11.1770 10.5711 -2.1798 0.9397
-12.6482 9.9882 -2.2835 0.9370
-13.7235 8.9775 -2.3236 0.9359
-17.4921 7.4173 -2.6921 0.9261
-5.9721 -9.8314 -1.6299 0.9546
-4.7170 -16.4964 -2.4310 0.9330
-0.1992 -17.8841 -2.5341 0.9303
1.3933 -17.8308 -2.5341 0.9303
2.9748 -17.6360 -2.5341 0.9303
6.0546 -16.8292 -2.5341 0.9303
7.2217 -15.5625 -2.4309 0.9330
8.5782 -14.8579 -2.4309 0.9330
10.4699 -12.3838 -2.2977 0.9366
10.4773 -8.6597 -1.9260 0.9466
10.4802 -7.1943 -1.8011 0.9499
10.5346 -3.6580 -1.5801 0.9559
10.5366 -2.6354 -1.5389 0.9571
17.2136 1.9256 -2.4542 0.9324
16.9739 3.4501 -2.4542 0.9324
15.4593 7.8119 -2.4542 0.9324
14.7026 9.1569 -2.4542 0.9324
13.8293 10.4291 -2.4542 0.9324
12.8461 11.6186 -2.4542 0.9324
11.7610 12.7159 -2.4542 0.9324
7.9078 15.2253 -2.4309 0.9330
6.5213 15.8687 -2.4309 0.9330
5.2990 17.0822 -2.5341 0.9303
3.7575 17.4860 -2.5341 0.9303
2.1863 17.7511 -2.5341 0.9303
0.5977 17.8752 -2.5341 0.9303
-2.4762 16.9780 -2.4310 0.9330
-5.4472 16.2700 -2.4310 0.9330
-7.7017 17.6143 -2.7239 0.9253
-5.4998 10.0358 -1.6215 0.9548
-8.4826 12.6569 -2.1589 0.9403
-10.4396 10.7945 -2.1277 0.9411
-12.0426 10.4137 -2.2558 0.9377
-13.1480 9.4634 -2.2953 0.9367
-16.8466 8.0470 -2.6453 0.9273
-17.2511 6.4244 -2.6083 0.9283
-5.9616 -5.1552 -1.2984 0.9686
-5.6493 -5.8413 -1.3387 0.9676
-5.6649 -8.4526 -1.6763 0.9596
-5.6157 -12.8436 -2.3092 0.9448
-0.8564 -15.3589 -2.5341 0.9395
0.5140 -15.3741 -2.5341 0.9395
1.8803 -15.2673 -2.5341 0.9395
3.2318 -15.0394 -2.5341 0.9395
6.8014 -13.0950 -2.4309 0.9419
10.0194 -10.8329 -2.4309 0.9419
10.4815 -6.5280 -2.0342 0.9512
14.8642 0.9950 -2.4542 0.9414
14.7166 2.3141 -2.4542 0.9414
14.4523 3.6148 -2.4542 0.9414
14.0732 4.8867 -2.4542 0.9414
12.9837 7.3045 -2.4542 0.9414
12.2821 8.4312 -2.4542 0.9414
11.4829 9.4909 -2.4542 0.9414
8.4861 12.0716 -2.4309 0.9419
7.3780 12.7790 -2.4309 0.9419
6.4630 13.9274 -2.5294 0.9397
5.2075 14.4745 -2.5341 0.9395
3.8985 14.8805 -2.5341 0.9395
1.1984 15.3360 -2.5341 0.9395
-0.1714 15.3818 -2.5341 0.9395
-4.0570 14.1883 -2.4310 0.9419
-5.3037 13.7709 -2.4310 0.9419
-7.5850 15.4350 -2.8332 0.9327
-7.9556 13.0967 -2.5244 0.9398
-8.8675 12.0351 -2.4627 0.9412
-9.8182 11.1016 -2.4415 0.9417
-10.8305 10.2434 -2.4558 0.9414
-12.2439 9.6689 -2.5701 0.9387
-13.2102 8.6417 -2.6005 0.9380
-14.8128 7.9044 -2.7660 0.9342
-17.2708 7.3235 -3.0904 0.9268
-5.6129 -11.4220 -2.0966 0.9497
-5.3038 -13.7709 -2.4310 0.9419
-4.0570 -14.1883 -2.4310 0.9419
-2.7781 -14.4931 -2.4310 0.9419
1.1984 -15.3360 -2.5341 0.9395
2.5586 -15.1684 -2.5341 0.9395
3.8985 -14.8805 -2.5341 0.9395
5.2075 -14.4745 -2.5341 0.9395
6.4630 -13.9274 -2.5294 0.9397
9.5269 -11.2684 -2.4309 0.9419
10.4802 -7.1943 -2.0941 0.9498
10.4851 -4.7244 -1.8945 0.9544
10.4872 -3.6416 -1.8289 0.9560
10.4893 -2.6236 -1.7812 0.9571
14.7166 -2.3141 -2.4542 0.9414
14.8938 0.3319 -2.4542 0.9414
14.8051 1.6562 -2.4542 0.9414
13.8415 5.5088 -2.4542 0.9414
11.8943 8.9699 -2.4542 0.9414
10.0194 10.8328 -2.4309 0.9419
9.0154 11.6816 -2.4309 0.9419
7.9399 12.4377 -2.4309 0.9419
6.8014 13.0950 -2.4309 0.9419
5.8471 14.2281 -2.5341 0.9395
4.5575 14.6921 -2.5341 0.9395
3.2318 15.0394 -2.5341 0.9395
-3.4210 14.3550 -2.4310 0.9419
-4.6850 13.9935 -2.4310 0.9419
-5.5001 8.2067 -1.6275 0.9607
-10.1199 10.4639 -2.3981 0.9427
-12.5433 9.0281 -2.5460 0.9393
-5.8650 -5.0716 -1.4574 0.9689
-5.6047 -6.9370 -1.6763 0.9644
-0.7506 -13.4613 -2.5341 0.9466
1.6480 -13.3812 -2.5341 0.9466
3.9945 -12.8769 -2.5341 0.9466
5.1247 -12.4703 -2.5341 0.9466
6.2143 -11.9647 -2.5341 0.9466
9.5917 -8.6752 -2.4309 0.9487
10.3258 -7.7871 -2.4309 0.9487
10.4840 -5.2978 -2.2079 0.9533
10.4862 -4.1734 -2.1214 0.9551
10.4902 -2.1322 -2.0121 0.9574
13.0537 -0.2909 -2.4542 0.9482
12.8985 2.0282 -2.4542 0.9482
12.3345 4.2830 -2.4542 0.9482
10.7647 7.3896 -2.4542 0.9482
9.1958 9.0939 -2.4309 0.9487
8.3499 9.8763 -2.4309 0.9487
7.4377 10.5803 -2.4309 0.9487
3.4169 13.0421 -2.5341 0.9466
2.2425 13.2945 -2.5341 0.9466
1.0503 13.4413 -2.5341 0.9466
-2.4349 12.7025 -2.4310 0.9487
-3.5558 12.4354 -2.4310 0.9487
-4.6485 12.0696 -2.4310 0.9487
-7.1898 14.6309 -3.0641 0.9358
-8.6178 11.6962 -2.7307 0.9426
-9.5192 10.7635 -2.7008 0.9432
-11.7367 9.2683 -2.8110 0.9409
-12.4970 8.1752 -2.8069 0.9410
-15.4781 6.5633 -3.1600 0.9339
-5.6483 -5.3421 -1.4613 0.9689
-5.7700 -6.5242 -1.6371 0.9652
-3.5558 -12.4354 -2.4310 0.9487
-1.3495 -13.4146 -2.5341 0.9466
2.2425 -13.2945 -2.5341 0.9466
3.4169 -13.0421 -2.5341 0.9466
4.5641 -12.6862 -2.5341 0.9466
6.4750 -11.2150 -2.4341 0.9487
10.4802 -7.1943 -2.3893 0.9496
10.4828 -5.8975 -2.2608 0.9522
10.4872 -3.6416 -2.0866 0.9558
12.8985 -2.0282 -2.4542 0.9482
12.9760 1.4516 -2.4542 0.9482
12.7953 2.6007 -2.4542 0.9482
12.1315 4.8282 -2.4542 0.9482
11.6536 5.8888 -2.4542 0.9482
9.5917 8.6752 -2.4309 0.9487
7.9016 10.2384 -2.4309 0.9487
3.9945 12.8769 -2.5341 0.9466
0.4505 13.4747 -2.5341 0.9466
-0.7506 13.4613 -2.5341 0.9466
-4.1062 12.2647 -2.4310 0.9487
-5.1815 11.8505 -2.4310 0.9487
-5.5184 10.0698 -2.1583 0.9543
-8.0112 11.9535 -2.7047 0.9431
-9.0502 11.2015 -2.7068 0.9431
-9.8170 10.1507 -2.6542 0.9441
-11.2705 9.7460 -2.8006 0.9412
-11.9879 8.6284 -2.7762 0.9417
-13.3485 7.9064 -2.9161 0.9388
-5.6017 -5.7922 -1.7033 0.9676
-5.6040 -6.9362 -1.8849 0.9642
-5.5271 -10.0857 -2.4310 0.9541
-3.6513 -10.9058 -2.4310 0.9541
-2.6661 -11.1875 -2.4310 0.9541
-1.6598 -11.3804 -2.4310 0.9541
-0.6674 -11.9699 -2.5341 0.9522
0.4006 -11.9819 -2.5341 0.9522
1.4655 -11.8986 -2.5341 0.9522
3.5519 -11.4503 -2.5341 0.9522
4.5570 -11.0887 -2.5341 0.9522
5.5258 -10.6391 -2.5341 0.9522
7.0262 -9.1041 -2.4309 0.9541
7.8086 -8.4426 -2.4309 0.9541
9.1818 -6.9243 -2.4309 0.9541
10.4862 -4.1734 -2.3857 0.9549
11.5384 -1.2908 -2.4542 0.9536
11.6075 -0.2587 -2.4542 0.9536
11.4694 1.8035 -2.4542 0.9536
10.9679 3.8085 -2.4542 0.9536
10.5854 4.7696 -2.4542 0.9536
8.1770 8.0864 -2.4309 0.9541
6.6137 9.4080 -2.4309 0.9541
5.9943 10.3824 -2.5341 0.9522
5.0464 10.8747 -2.5341 0.9522
4.0585 11.2807 -2.5341 0.9522
3.0383 11.5971 -2.5341 0.9522
-1.2000 11.9283 -2.5341 0.9522
-4.1335 10.7324 -2.4310 0.9541
-5.0723 10.3219 -2.4310 0.9541
-5.5072 9.0660 -2.2422 0.9576
-9.1111 10.3020 -2.9071 0.9453
-5.5006 5.2025 -1.6004 0.9695
-11.0789 8.7489 -2.9840 0.9439
-11.8516 7.7530 -2.9936 0.9437
-12.9795 6.9261 -3.1098 0.9416
-15.6681 5.0523 -3.4799 0.9349
-5.6250 -5.3201 -1.6366 0.9688
-5.6028 -6.3352 -1.7877 0.9660
-5.0723 -10.3219 -2.4310 0.9541
-4.1335 -10.7324 -2.4310 0.9541
-3.1619 -11.0577 -2.4310 0.9541
-1.2000 -11.9283 -2.5341 0.9522
0.9340 -11.9521 -2.5341 0.9522
1.9940 -11.8215 -2.5341 0.9522
4.0585 -11.2807 -2.5341 0.9522
7.4248 -8.7821 -2.4309 0.9541
10.4851 -4.7244 -2.4309 0.9541
10.4872 -3.6416 -2.3466 0.9556
11.6075 0.2587 -2.4542 0.9536
11.5384 1.2908 -2.4542 0.9536
11.3777 2.3126 -2.4542 0.9536
11.1267 3.3161 -2.4542 0.9536
9.1818 6.9243 -2.4309 0.9541
6.4508 10.1050 -2.5341 0.9522
5.5258 10.6391 -2.5341 0.9522
4.5570 11.0887 -2.5341 0.9522
3.5519 11.4503 -2.5341 0.9522
2.5187 11.7210 -2.5341 0.9522
1.4655 11.8986 -2.5341 0.9522
-1.6598 11.3804 -2.4310 0.9541
-2.6661 11.1876 -2.4310 0.9541
-3.6513 10.9059 -2.4310 0.9541
-4.6075 10.5376 -2.4310 0.9541
-5.5271 10.0857 -2.4310 0.9541
-7.7920 11.6265 -2.9585 0.9444
-5.5076 6.8168 -1.8525 0.9648
-10.6423 9.2027 -2.9740 0.9441
-11.4754 8.2595 -2.9887 0.9438
-12.5361 7.4251 -3.0798 0.9422
-13.4202 6.4103 -3.1438 0.9410
-14.4972 5.3988 -3.2700 0.9387
-5.5999 -4.8424 -1.7399 0.9700
-5.6017 -5.7922 -1.8938 0.9674
-4.9711 -9.0711 -2.4310 0.9584
-3.2840 -9.8088 -2.4310 0.9584
-2.3979 -10.0621 -2.4310 0.9584
0.3603 -10.7765 -2.5341 0.9567
3.1946 -10.2984 -2.5341 0.9567
4.9699 -9.5688 -2.5341 0.9567
6.4630 -8.3743 -2.4861 0.9575
7.0231 -7.5933 -2.4309 0.9584
7.6710 -6.9380 -2.4309 0.9584
8.2581 -6.2277 -2.4309 0.9584
8.7797 -5.4680 -2.4309 0.9584
9.6100 -3.8247 -2.4309 0.9584
9.9123 -2.9542 -2.4309 0.9584
10.1359 -2.0602 -2.4309 0.9584
10.2791 -1.1499 -2.4309 0.9584
10.0341 2.5097 -2.4309 0.9584
9.7709 3.3928 -2.4309 0.9584
8.5274 5.8537 -2.4309 0.9584
7.9725 6.5894 -2.4309 0.9584
7.3544 7.2729 -2.4309 0.9584
6.6778 7.8986 -2.4309 0.9584
6.2010 8.8210 -2.5341 0.9567
5.3913 9.3379 -2.5341 0.9567
4.5387 9.7807 -2.5341 0.9567
2.7327 10.4305 -2.5341 0.9567
0.8400 10.7497 -2.5341 0.9567
-1.9473 10.1589 -2.4310 0.9584
-3.7177 9.6527 -2.4310 0.9584
-4.5620 9.2835 -2.4310 0.9584
-11.0899 7.2547 -3.1145 0.9470
-11.8512 6.3240 -3.1570 0.9463
-14.0513 4.5310 -3.4698 0.9411
-5.9687 -3.9046 -1.6763 0.9711
-5.6028 -6.3352 -1.9877 0.9658
-5.6054 -7.6076 -2.2209 0.9619
-2.8438 -9.9453 -2.4310 0.9584
-1.9473 -10.1589 -2.4310 0.9584
0.8400 -10.7497 -2.5341 0.9567
1.7935 -10.6323 -2.5341 0.9567
6.6778 -7.8986 -2.4309 0.9584
9.0145 -5.0715 -2.4309 0.9584
6.8276 -3.0764 -1.7600 0.9697
10.0341 -2.5097 -2.4309 0.9584
10.3201 -0.6908 -2.4309 0.9584
10.3406 0.2304 -2.4309 0.9584
10.2791 1.1499 -2.4309 0.9584
9.9123 2.9542 -2.4309 0.9584
9.2315 4.6649 -2.4309 0.9584
8.7797 5.4680 -2.4309 0.9584
8.2581 6.2278 -2.4309 0.9584
7.6710 6.9380 -2.4309 0.9584
4.9699 9.5688 -2.5341 0.9567
1.3180 10.7016 -2.5341 0.9567
-4.1440 9.4775 -2.4310 0.9584
-4.9711 9.0711 -2.4310 0.9584
-5.5069 8.2168 -2.3247 0.9602
-9.0828 9.3915 -3.0706 0.9477
-5.5009 3.9593 -1.5929 0.9725
-11.4581 6.7866 -3.1298 0.9468
-13.3259 4.9626 -3.3420 0.9432
-5.8419 -2.7904 -1.6763 0.9736
-5.5968 -3.3150 -1.6842 0.9735
-5.5999 -4.8424 -1.9168 0.9699
-5.6017 -5.7922 -2.0863 0.9673
-3.7615 -8.6029 -2.4310 0.9619
-2.9809 -8.9035 -2.4310 0.9619
-0.5449 -9.7722 -2.5341 0.9604
0.3270 -9.7820 -2.5341 0.9604
1.1964 -9.7140 -2.5341 0.9604
2.0562 -9.5690 -2.5341 0.9604
2.8998 -9.3480 -2.5341 0.9604
3.7203 -9.0528 -2.5341 0.9604
4.5113 -8.6857 -2.5341 0.9604
5.2664 -8.2497 -2.5341 0.9604
6.4668 -6.9919 -2.4659 0.9614
6.9631 -6.2978 -2.4309 0.9619
7.4960 -5.6530 -2.4309 0.9619
8.7232 -3.4717 -2.4309 0.9619
9.2005 -1.8701 -2.4309 0.9619
9.3863 -0.2092 -2.4309 0.9619
9.3677 0.6271 -2.4309 0.9619
8.5599 3.8569 -2.4309 0.9619
8.1826 4.6035 -2.4309 0.9619
7.2367 5.9813 -2.4309 0.9619
6.6765 6.6025 -2.4312 0.9619
5.6287 8.0069 -2.5341 0.9604
4.8937 8.4761 -2.5341 0.9604
4.1199 8.8781 -2.5341 0.9604
-0.1090 9.7868 -2.5341 0.9604
-1.7738 9.2540 -2.4397 0.9618
-3.3746 8.7619 -2.4310 0.9619
-4.1410 8.4268 -2.4310 0.9619
-5.5695 7.5590 -2.4310 0.9619
-9.4540 7.4657 -3.1190 0.9514
-10.2793 6.7245 -3.1804 0.9505
-5.5011 2.9354 -1.6144 0.9746
-12.9619 4.1797 -3.5262 0.9453
-15.3764 3.4838 -4.0821 0.9369
-5.7118 -3.0479 -1.6763 0.9736
-5.5990 -4.4215 -1.8472 0.9710
-5.6008 -5.2972 -1.9960 0.9686
-4.8746 -8.0247 -2.4310 0.9619
-4.1410 -8.4268 -2.4310 0.9619
-3.3746 -8.7619 -2.4310 0.9619
-0.9797 -9.7383 -2.5341 0.9604
-0.1090 -9.7868 -2.5341 0.9604
0.7625 -9.7577 -2.5341 0.9604
2.4805 -9.4679 -2.5341 0.9604
4.8937 -8.4762 -2.5341 0.9604
5.6287 -8.0070 -2.5341 0.9604
7.2367 -5.9813 -2.4309 0.9619
7.7404 -5.3135 -2.4309 0.9619
8.1826 -4.6035 -2.4309 0.9619
9.2747 -1.4584 -2.4309 0.9619
9.3863 0.2092 -2.4309 0.9619
9.2005 1.8701 -2.4309 0.9619
8.9975 2.6816 -2.4309 0.9619
8.3795 4.2344 -2.4309 0.9619
7.9694 4.9634 -2.4309 0.9619
6.4668 6.9918 -2.4659 0.9614
5.9798 7.7483 -2.5341 0.9604
2.8998 9.3480 -2.5341 0.9604
1.1964 9.7140 -2.5341 0.9604
0.3271 9.7820 -2.5341 0.9604
-0.5449 9.7722 -2.5341 0.9604
-7.4770 9.2544 -3.0805 0.9520
-8.3103 8.5928 -3.0951 0.9518
-9.0756 7.8479 -3.1065 0.9516
-12.3512 4.5996 -3.4125 0.9470
-13.6102 3.7282 -3.6538 0.9434
-5.5075 -0.9923 -1.5842 0.9770
-5.5944 -2.0834 -1.6900 0.9755
-5.5968 -3.3150 -1.8415 0.9733
-5.5999 -4.8424 -2.0958 0.9697
-5.6017 -5.7922 -2.2811 0.9671
-5.3968 -6.6797 -2.4310 0.9649
-2.7264 -8.1432 -2.4310 0.9649
-0.4984 -8.9377 -2.5341 0.9635
1.8807 -8.7518 -2.5341 0.9635
3.4026 -8.2797 -2.5341 0.9635
4.8167 -7.5453 -2.5341 0.9635
5.4692 -7.0866 -2.5341 0.9635
6.0782 -6.5717 -2.5341 0.9635
6.8559 -5.1703 -2.4309 0.9649
7.9782 -3.1753 -2.4309 0.9649
8.2292 -2.4526 -2.4309 0.9649
8.4827 1.3338 -2.4309 0.9649
8.3303 2.0836 -2.4309 0.9649
8.1118 2.8167 -2.4309 0.9649
7.8289 3.5275 -2.4309 0.9649
7.4838 4.2103 -2.4309 0.9649
7.0794 4.8597 -2.4309 0.9649
5.1480 7.3232 -2.5341 0.9635
3.7680 8.1199 -2.5341 0.9635
2.2687 8.6594 -2.5341 0.9635
0.6974 8.9244 -2.5341 0.9635
-0.0997 8.9511 -2.5341 0.9635
-0.8960 8.9067 -2.5341 0.9635
-1.6166 8.4339 -2.4310 0.9649
-2.3609 8.2565 -2.4310 0.9649
-3.0864 8.0137 -2.4310 0.9649
-3.7874 7.7071 -2.4310 0.9649
-4.4584 7.3395 -2.4310 0.9649
-5.0939 6.9135 -2.4310 0.9649
-8.0097 7.5755 -3.1210 0.9552
-10.2347 5.4614 -3.2841 0.9529
-11.0784 4.6977 -3.4065 0.9512
-5.5962 -2.9862 -1.7957 0.9740
-5.6008 -5.2972 -2.1824 0.9685
-4.4584 -7.3395 -2.4310 0.9649
-1.6166 -8.4339 -2.4310 0.9649
-0.8960 -8.9067 -2.5341 0.9635
-0.0997 -8.9511 -2.5341 0.9635
2.2687 -8.6594 -2.5341 0.9635
4.4758 -7.7523 -2.5341 0.9635
5.1480 -7.3232 -2.5341 0.9635
6.7821 -3.0559 -2.1059 0.9695
8.3303 -2.0836 -2.4309 0.9649
8.4827 -1.3338 -2.4309 0.9649
8.5677 -0.5735 -2.4309 0.9649
8.5848 0.1913 -2.4309 0.9649
8.5337 0.9546 -2.4309 0.9649
8.4148 1.7104 -2.4309 0.9649
7.9782 3.1753 -2.4309 0.9649
6.8559 5.1703 -2.4309 0.9649
4.8167 7.5452 -2.5341 0.9635
4.1260 7.9440 -2.5341 0.9635
1.0942 8.8845 -2.5341 0.9635
0.2991 8.9466 -2.5341 0.9635
-0.4984 8.9377 -2.5341 0.9635
-1.2919 8.8579 -2.5341 0.9635
-2.7263 8.1432 -2.4310 0.9649
-3.4403 7.8682 -2.4310 0.9649
-4.1270 7.5308 -2.4310 0.9649
-4.7809 7.1336 -2.4310 0.9649
-8.4314 7.2909 -3.1555 0.9547
-11.5290 4.2935 -3.4828 0.9501
-5.5013 1.5069 -1.6148 0.9766
-18.9703 0.0000 -5.8349 0.9237
-5.5944 -2.0834 -1.8362 0.9753
-5.5956 -2.6728 -1.9073 0.9744
-5.5968 -3.3150 -2.0008 0.9731
-5.5999 -4.8424 -2.2771 0.9695
-3.7984 -6.9312 -2.4310 0.9675
-2.5093 -7.4949 -2.4310 0.9675
-1.8323 -7.6885 -2.4310 0.9675
-0.4587 -8.2262 -2.5341 0.9661
0.2753 -8.2344 -2.5341 0.9661
3.1317 -7.6206 -2.5341 0.9661
3.7976 -7.3116 -2.5341 0.9661
5.0338 -6.5224 -2.5341 0.9661
7.7449 -1.5742 -2.4309 0.9675
7.8543 -0.8786 -2.4309 0.9675
7.8857 0.5279 -2.4309 0.9675
7.8074 1.2276 -2.4309 0.9675
7.6671 1.9177 -2.4309 0.9675
6.3506 5.2489 -2.5341 0.9661
2.7891 7.7525 -2.5341 0.9661
2.0881 7.9700 -2.5341 0.9661
-0.0918 8.2385 -2.5341 0.9661
-0.8247 8.1976 -2.5341 0.9661
-3.4859 7.0936 -2.4310 0.9675
-8.9722 5.8693 -3.2977 0.9561
-10.4454 4.4292 -3.4897 0.9536
-5.5014 1.2464 -1.7350 0.9767
-5.6915 -1.8353 -1.8393 0.9753
-5.5950 -2.3725 -1.8692 0.9749
-5.2361 -5.9206 -2.4310 0.9675
-2.1729 -7.5993 -2.4310 0.9675
-1.5510 -8.0917 -2.5341 0.9661
-0.8247 -8.1976 -2.5341 0.9661
0.6418 -8.2139 -2.5341 0.9661
1.3704 -8.1242 -2.5341 0.9661
2.0880 -7.9700 -2.5341 0.9661
3.4681 -7.4735 -2.5341 0.9661
5.3193 -6.2917 -2.5341 0.9661
5.8582 -5.7933 -2.5341 0.9661
6.3506 -5.2489 -2.5341 0.9661
7.4660 -2.5925 -2.4309 0.9675
7.6671 -1.9177 -2.4309 0.9675
7.8074 -1.2277 -2.4309 0.9675
7.8857 -0.5279 -2.4309 0.9675
7.8543 0.8786 -2.4309 0.9675
7.7449 1.5742 -2.4309 0.9675
7.0539 3.5645 -2.4309 0.9675
6.7086 4.1781 -2.4309 0.9675
6.1105 5.5266 -2.5341 0.9661
5.0338 6.5224 -2.5341 0.9661
4.4333 6.9446 -2.5341 0.9661
3.7976 7.3116 -2.5341 0.9661
3.1317 7.6206 -2.5341 0.9661
1.7309 8.0551 -2.5341 0.9661
1.0071 8.1772 -2.5341 0.9661
0.2753 8.2344 -2.5341 0.9661
-0.4587 8.2262 -2.5341 0.9661
-1.8323 7.6885 -2.4310 0.9675
-2.5093 7.4949 -2.4310 0.9675
-3.1664 7.2418 -2.4310 0.9675
-3.7984 6.9313 -2.4310 0.9675
-4.4003 6.5657 -2.4310 0.9675
-4.9672 6.1480 -2.4310 0.9675
-7.9203 6.8489 -3.2206 0.9571
-8.6477 6.2242 -3.2772 0.9564
-9.2929 5.5042 -3.3220 0.9558
-10.8459 4.0391 -3.5598 0.9527
-11.8645 3.2500 -3.7837 0.9498
-5.5086 0.9924 -1.7216 0.9768
-18.5968 0.0000 -6.1817 0.9246
-18.5409 -1.6569 -6.1877 0.9245
-5.5956 -2.6728 -2.0613 0.9742
-5.0843 -5.2571 -2.4310 0.9696
-4.0716 -6.0753 -2.4310 0.9696
-1.6954 -7.1143 -2.4310 0.9696
-0.4244 -7.6118 -2.5341 0.9684
0.2547 -7.6194 -2.5341 0.9684
0.9319 -7.5665 -2.5341 0.9684
1.6017 -7.4535 -2.5341 0.9684
2.8978 -7.0514 -2.5341 0.9684
3.5139 -6.7655 -2.5341 0.9684
5.1765 -5.5968 -2.5341 0.9684
5.6541 -5.1138 -2.5341 0.9684
6.0868 -4.5903 -2.5341 0.9684
6.5270 -3.2982 -2.4309 0.9696
7.0084 -2.0887 -2.4309 0.9696
7.3112 -0.1629 -2.4309 0.9696
7.2967 0.4884 -2.4309 0.9696
7.0945 1.7744 -2.4309 0.9696
6.9084 2.3988 -2.4309 0.9696
6.6758 3.0079 -2.4339 0.9696
6.4667 3.6381 -2.4664 0.9692
6.2852 4.3146 -2.5341 0.9684
5.4207 5.3606 -2.5341 0.9684
4.9220 5.8218 -2.5341 0.9684
4.3843 6.2368 -2.5341 0.9684
3.8118 6.6023 -2.5341 0.9684
3.2090 6.9153 -2.5341 0.9684
1.2680 7.5174 -2.5341 0.9684
0.5939 7.6005 -2.5341 0.9684
-0.0849 7.6231 -2.5341 0.9684
-0.7631 7.5854 -2.5341 0.9684
-1.4352 7.4873 -2.5341 0.9684
-2.6285 6.8248 -2.4310 0.9696
-3.2255 6.5638 -2.4310 0.9696
-4.3382 5.8879 -2.4310 0.9696
-4.8451 5.4784 -2.4310 0.9696
-5.3134 5.0254 -2.4310 0.9696
-8.4493 5.5273 -3.3562 0.9583
-9.1692 4.8928 -3.4547 0.9571
-9.8772 4.1883 -3.5662 0.9558
-16.0619 2.1601 -5.3871 0.9340
-5.5232 0.2463 -1.8378 0.9770
-5.5090 -1.2482 -1.8777 0.9765
-5.5950 -2.3725 -2.0201 0.9747
-5.5962 -2.9862 -2.1085 0.9736
-5.5975 -3.6617 -2.2234 0.9722
-5.5990 -4.4215 -2.3715 0.9704
-5.3134 -5.0254 -2.4310 0.9696
-4.3382 -5.8879 -2.4310 0.9696
-3.7970 -6.2506 -2.4310 0.9696
-3.2255 -6.5638 -2.4310 0.9696
-1.4352 -7.4873 -2.5341 0.9684
1.9321 -7.3747 -2.5341 0.9684
2.5808 -7.1735 -2.5341 0.9684
3.2090 -6.9153 -2.5341 0.9684
3.8118 -6.6023 -2.5341 0.9684
5.8763 -4.8569 -2.5341 0.9684
6.2852 -4.3146 -2.5341 0.9684
6.6758 -3.0079 -2.4339 0.9696
7.2242 -1.1360 -2.4309 0.9696
7.2967 -0.4885 -2.4309 0.9696
7.3112 0.1629 -2.4309 0.9696
7.2677 0.8130 -2.4309 0.9696
7.1665 1.4566 -2.4309 0.9696
6.5270 3.2982 -2.4309 0.9696
5.6541 5.1138 -2.5341 0.9684
4.6578 6.0353 -2.5341 0.9684
2.8978 7.0514 -2.5341 0.9684
2.2587 7.2813 -2.5341 0.9684
0.2547 7.6194 -2.5341 0.9684
-0.4244 7.6118 -2.5341 0.9684
-1.1002 7.5438 -2.5341 0.9684
-1.6954 7.1143 -2.4310 0.9696
-2.9299 6.7009 -2.4310 0.9696
-4.0716 6.0753 -2.4310 0.9696
-5.5320 4.7837 -2.4310 0.9696
-10.2407 3.8137 -3.6324 0.9550
-18.5329 1.6561 -6.1850 0.9246
-5.5968 -3.3150 -2.3262 0.9727
-5.5175 -3.9713 -2.4310 0.9715
-2.7235 -6.2287 -2.4310 0.9715
-2.1583 -6.4464 -2.4310 0.9715
-0.3945 -7.0754 -2.5341 0.9703
0.2368 -7.0824 -2.5341 0.9703
1.4888 -6.9282 -2.5341 0.9703
2.0995 -6.7682 -2.5341 0.9703
3.2663 -6.2887 -2.5341 0.9703
3.8131 -5.9730 -2.5341 0.9703
4.8117 -5.2023 -2.5341 0.9703
5.2556 -4.7534 -2.5341 0.9703
5.6578 -4.2668 -2.5341 0.9703
6.3247 -3.1960 -2.5341 0.9703
6.7555 -0.7557 -2.4309 0.9715
6.4710 2.2470 -2.4496 0.9713
6.4630 2.9121 -2.5350 0.9703
6.1761 3.4746 -2.5341 0.9703
4.5752 5.4115 -2.5341 0.9703
4.0753 5.7972 -2.5341 0.9703
2.9829 6.4280 -2.5341 0.9703
2.3989 6.6680 -2.5341 0.9703
-1.3341 6.9597 -2.5341 0.9703
-1.8690 6.5361 -2.4310 0.9715
-2.4433 6.3438 -2.4310 0.9715
-2.9982 6.1012 -2.4310 0.9715
-4.0325 5.4729 -2.4310 0.9715
-4.9390 4.6712 -2.4310 0.9715
-10.1152 3.2617 -3.8007 0.9559
-13.2148 1.7772 -4.7682 0.9449
-18.4379 0.8222 -6.6001 0.9246
-18.5410 -0.8268 -6.6370 0.9242
-18.6257 -2.5050 -6.7207 0.9233
-5.5094 -1.2483 -2.0202 0.9763
-5.5950 -2.3725 -2.1732 0.9745
-5.5962 -2.9862 -2.2683 0.9734
-5.5975 -3.6617 -2.3920 0.9720
-5.3351 -4.2131 -2.4310 0.9715
-4.5036 -5.0923 -2.4310 0.9715
-4.0325 -5.4729 -2.4310 0.9715
-2.9982 -6.1012 -2.4310 0.9715
-0.7093 -7.0508 -2.5341 0.9703
-0.0789 -7.0859 -2.5341 0.9703
1.1787 -6.9877 -2.5341 0.9703
1.7959 -6.8550 -2.5341 0.9703
4.5752 -5.4115 -2.5341 0.9703
5.8423 -4.0105 -2.5341 0.9703
6.4630 -2.9121 -2.5350 0.9703
6.7151 -1.0559 -2.4309 0.9715
6.7825 -0.4540 -2.4309 0.9715
6.7555 0.7557 -2.4309 0.9715
6.4630 2.5722 -2.4875 0.9709
6.3247 3.1960 -2.5341 0.9703
5.6578 4.2668 -2.5341 0.9703
5.2556 4.7534 -2.5341 0.9703
4.8117 5.2023 -2.5341 0.9703
4.3296 5.6100 -2.5341 0.9703
3.2663 6.2887 -2.5341 0.9703
-2.1583 6.4464 -2.4310 0.9715
-2.7235 6.2287 -2.4310 0.9715
-3.7847 5.6471 -2.4310 0.9715
-4.7260 4.8866 -2.4310 0.9715
-5.1422 4.4466 -2.4310 0.9715
-5.5175 3.9713 -2.4310 0.9715
-9.0350 4.3157 -3.5807 0.9584
-10.5902 2.9010 -3.9266 0.9544
-11.8411 2.1333 -4.3026 0.9502
-5.5944 -2.0834 -2.2877 0.9748
-5.5956 -2.6728 -2.3764 0.9738
-4.7985 -4.1494 -2.4310 0.9732
-3.9868 -4.9345 -2.4310 0.9732
-3.5318 -5.2697 -2.4310 0.9732
-3.0487 -5.5632 -2.4310 0.9732
-0.9544 -6.5436 -2.5341 0.9721
0.2210 -6.6091 -2.5341 0.9721
0.8083 -6.5632 -2.5341 0.9721
1.3893 -6.4652 -2.5341 0.9721
2.5136 -6.1164 -2.5341 0.9721
3.5582 -5.5739 -2.5341 0.9721
4.9044 -4.4358 -2.5341 0.9721
5.6132 -3.4959 -2.5341 0.9721
5.9020 -2.9824 -2.5341 0.9721
6.4630 -1.3137 -2.5274 0.9721
6.4638 -0.1440 -2.4777 0.9727
6.4630 0.4327 -2.4823 0.9726
6.2469 2.1692 -2.5341 0.9721
6.0290 2.7166 -2.5341 0.9721
5.7633 3.2424 -2.5341 0.9721
5.4519 3.7425 -2.5341 0.9721
5.0971 4.2129 -2.5341 0.9721
4.7019 4.6498 -2.5341 0.9721
2.2386 6.2223 -2.5341 0.9721
-1.2449 6.4946 -2.5341 0.9721
-2.2800 5.9199 -2.4310 0.9732
-3.2935 5.4218 -2.4310 0.9732
-4.2026 4.7520 -2.4310 0.9732
-5.5968 2.9865 -2.4310 0.9732
-18.4043 0.8207 -7.0599 0.9241
-5.6915 -1.8353 -2.2917 0.9747
-5.5950 -2.3725 -2.3289 0.9743
-4.6089 -4.3591 -2.4310 0.9732
-4.2026 -4.7520 -2.4310 0.9732
-3.7630 -5.1072 -2.4310 0.9732
-2.2800 -5.9199 -2.4310 0.9732
-1.7441 -6.0993 -2.4310 0.9732
-0.0737 -6.6124 -2.5341 0.9721
0.5152 -6.5927 -2.5341 0.9721
2.2386 -6.2223 -2.5341 0.9721
2.7835 -5.9984 -2.5341 0.9721
3.8030 -5.4098 -2.5341 0.9721
4.7019 -4.6498 -2.5341 0.9721
5.4519 -3.7425 -2.5341 0.9721
5.7633 -3.2424 -2.5341 0.9721
6.0290 -2.7166 -2.5341 0.9721
6.4630 -0.4326 -2.4823 0.9726
6.4630 1.3137 -2.5274 0.9721
6.3373 1.8887 -2.5341 0.9721
6.1441 2.4453 -2.5341 0.9721
5.6132 3.4959 -2.5341 0.9721
5.2797 3.9816 -2.5341 0.9721
4.4901 4.8547 -2.5341 0.9721
4.0402 5.2350 -2.5341 0.9721
3.5582 5.5738 -2.5341 0.9721
2.5136 6.1164 -2.5341 0.9721
0.2210 6.6091 -2.5341 0.9721
-0.3682 6.6025 -2.5341 0.9721
-0.9544 6.5436 -2.5341 0.9721
-1.5330 6.4326 -2.5341 0.9721
-2.0140 6.0156 -2.4310 0.9732
-3.0487 5.5632 -2.4310 0.9732
-4.7985 4.1494 -2.4310 0.9732
-5.1488 3.7059 -2.4310 0.9732
-8.5851 4.1008 -3.6460 0.9601
-17.9675 0.0000 -7.3536 0.9253
-1.6200 -0.2919 -0.6737 0.9929
-5.3598 -2.5602 -2.4310 0.9747
-5.1107 -3.0271 -2.4310 0.9747
-4.8210 -3.4699 -2.4310 0.9747
-3.7329 -4.6203 -2.4310 0.9747
-2.3796 -5.4424 -2.4310 0.9747
-1.4354 -6.0231 -2.5341 0.9736
-0.8936 -6.1270 -2.5341 0.9736
-0.3447 -6.1822 -2.5341 0.9736
0.2069 -6.1883 -2.5341 0.9736
1.3008 -6.0536 -2.5341 0.9736
1.8345 -5.9138 -2.5341 0.9736
2.3535 -5.7270 -2.5341 0.9736
3.3317 -5.2190 -2.5341 0.9736
3.7830 -4.9018 -2.5341 0.9736
4.2042 -4.5456 -2.5341 0.9736
4.5921 -4.1534 -2.5341 0.9736
4.9436 -3.7281 -2.5341 0.9736
5.2558 -3.2733 -2.5341 0.9736
5.7529 -2.2896 -2.5341 0.9736
6.1902 -0.1379 -2.5341 0.9736
6.1779 0.4136 -2.5341 0.9736
6.0067 1.5024 -2.5341 0.9736
5.6452 2.5436 -2.5341 0.9736
5.3964 3.0360 -2.5341 0.9736
5.1048 3.5042 -2.5341 0.9736
4.7726 3.9446 -2.5341 0.9736
4.4026 4.3538 -2.5341 0.9736
3.0959 5.3622 -2.5341 0.9736
2.0961 5.8262 -2.5341 0.9736
1.0299 6.1055 -2.5341 0.9736
-1.6330 5.7110 -2.4310 0.9747
-2.1348 5.5430 -2.4310 0.9747
-2.6197 5.3310 -2.4310 0.9747
-3.0838 5.0767 -2.4310 0.9747
-4.9708 3.2517 -2.4310 0.9747
-5.2405 2.7964 -2.4310 0.9747
-1.6301 0.2192 -0.6732 0.9929
-18.2715 0.8147 -7.4855 0.9240
-1.6301 -0.2192 -0.6732 0.9929
-1.6146 -0.3658 -0.6776 0.9929
-1.5889 -0.5124 -0.6833 0.9928
-5.4686 -2.3189 -2.4310 0.9747
-5.2405 -2.7964 -2.4310 0.9747
-4.9708 -3.2517 -2.4310 0.9747
-3.0838 -5.0766 -2.4310 0.9747
-2.1348 -5.5430 -2.4310 0.9747
-1.6330 -5.7110 -2.4310 0.9747
-1.1656 -6.0811 -2.5341 0.9736
-0.0690 -6.1914 -2.5341 0.9736
0.4824 -6.1730 -2.5341 0.9736
1.5692 -5.9896 -2.5341 0.9736
2.0961 -5.8262 -2.5341 0.9736
2.6063 -5.6165 -2.5341 0.9736
3.0959 -5.3622 -2.5341 0.9736
4.4026 -4.3538 -2.5341 0.9736
5.1048 -3.5042 -2.5341 0.9736
5.8492 -2.0311 -2.5341 0.9736
6.1166 -0.9618 -2.5341 0.9736
6.1902 0.1379 -2.5341 0.9736
5.9338 1.7685 -2.5341 0.9736
5.7529 2.2896 -2.5341 0.9736
4.9436 3.7281 -2.5341 0.9736
4.5921 4.1534 -2.5341 0.9736
4.2043 4.5456 -2.5341 0.9736
3.7830 4.9017 -2.5341 0.9736
2.3535 5.7270 -2.5341 0.9736
0.7569 6.1454 -2.5341 0.9736
0.2069 6.1883 -2.5341 0.9736
-1.8858 5.6326 -2.4310 0.9747
-2.3796 5.4424 -2.4310 0.9747
-2.8546 5.2090 -2.4310 0.9747
-3.3069 4.9342 -2.4310 0.9747
-3.7329 4.6203 -2.4310 0.9747
-4.8210 3.4699 -2.4310 0.9747
-5.5664 2.0730 -2.4310 0.9747
-1.6390 0.1465 -0.6735 0.9929
-1.5015 -0.2705 -0.6649 0.9934
-5.0334 -2.4043 -2.4310 0.9760
-4.5274 -3.2586 -2.4310 0.9760
-4.2194 -3.6486 -2.4310 0.9760
-3.8779 -4.0097 -2.4310 0.9760
-3.1055 -4.6337 -2.4310 0.9760
-2.6808 -4.8918 -2.4310 0.9760
-1.3480 -5.6563 -2.5341 0.9749
-0.8392 -5.7538 -2.5341 0.9749
-0.3237 -5.8057 -2.5341 0.9749
0.1943 -5.8114 -2.5341 0.9749
3.1288 -4.9012 -2.5341 0.9749
3.5526 -4.6032 -2.5341 0.9749
3.9482 -4.2687 -2.5341 0.9749
4.3125 -3.9004 -2.5341 0.9749
5.1897 -2.6225 -2.5341 0.9749
5.6982 -1.1582 -2.5341 0.9749
5.7786 -0.6464 -2.5341 0.9749
5.8132 -0.1296 -2.5341 0.9749
5.8017 0.3884 -2.5341 0.9749
5.6409 1.4109 -2.5341 0.9749
5.3014 2.3887 -2.5341 0.9749
5.0677 2.8511 -2.5341 0.9749
4.1344 4.0886 -2.5341 0.9749
3.7541 4.4404 -2.5341 0.9749
3.3440 4.7569 -2.5341 0.9749
2.9073 5.0357 -2.5341 0.9749
1.9684 5.4714 -2.5341 0.9749
-0.0648 5.8143 -2.5341 0.9749
-0.5820 5.7855 -2.5341 0.9749
-2.4602 5.0063 -2.4310 0.9760
-2.8960 4.7675 -2.4310 0.9760
-3.3088 4.4908 -2.4310 0.9760
-3.6954 4.1785 -2.4310 0.9760
-4.6680 3.0537 -2.4310 0.9760
-4.9213 2.6261 -2.4310 0.9760
-5.1355 2.1777 -2.4310 0.9760
-1.4861 0.4792 -0.6805 0.9932
-1.5029 0.3405 -0.6716 0.9933
-1.5259 -0.0680 -0.6657 0.9934
-1.5133 -0.2035 -0.6654 0.9934
-1.5029 -0.3405 -0.6716 0.9933
-1.4861 -0.4792 -0.6805 0.9932
-5.1355 -2.1777 -2.4310 0.9760
-4.9213 -2.6261 -2.4310 0.9760
-4.6680 -3.0537 -2.4310 0.9760
-4.3777 -3.4571 -2.4310 0.9760
-4.0527 -3.8330 -2.4310 0.9760
-3.6954 -4.1785 -2.4310 0.9760
-2.4602 -5.0063 -2.4310 0.9760
-1.5829 -5.5359 -2.5093 0.9752
-0.5820 -5.7855 -2.5341 0.9749
0.4530 -5.7970 -2.5341 0.9749
1.4736 -5.6248 -2.5341 0.9749
1.9684 -5.4714 -2.5341 0.9749
3.3440 -4.7569 -2.5341 0.9749
3.7541 -4.4404 -2.5341 0.9749
5.0677 -2.8511 -2.5341 0.9749
5.3014 -2.3887 -2.5341 0.9749
5.4930 -1.9074 -2.5341 0.9749
5.6409 -1.4109 -2.5341 0.9749
5.8017 -0.3884 -2.5341 0.9749
5.5725 1.6608 -2.5341 0.9749
5.4025 2.1502 -2.5341 0.9749
5.1897 2.6225 -2.5341 0.9749
4.3125 3.9004 -2.5341 0.9749
3.9482 4.2687 -2.5341 0.9749
0.7108 5.7711 -2.5341 0.9749
-0.3237 5.8057 -2.5341 0.9749
-0.8392 5.7538 -2.5341 0.9749
-1.3480 5.6563 -2.5341 0.9749
-2.2347 5.1109 -2.4310 0.9760
-2.6808 4.8918 -2.4310 0.9760
-3.1055 4.6337 -2.4310 0.9760
-3.5056 4.3389 -2.4310 0.9760
-3.8779 4.0097 -2.4310 0.9760
-4.5274 3.2586 -2.4310 0.9760
-4.7994 2.8427 -2.4310 0.9760
-1.5215 0.1360 -0.6657 0.9934
-4.7391 -2.2637 -2.4310 0.9771
-4.2626 -3.0680 -2.4310 0.9771
-3.9726 -3.4353 -2.4310 0.9771
-2.9239 -4.3628 -2.4310 0.9771
-2.1040 -4.8121 -2.4310 0.9771
-1.2691 -5.3255 -2.5341 0.9762
-0.7901 -5.4173 -2.5341 0.9762
0.6692 -5.4336 -2.5341 0.9762
2.0810 -5.0637 -2.5341 0.9762
2.5234 -4.8584 -2.5341 0.9762
2.9458 -4.6146 -2.5341 0.9762
4.8862 -2.4691 -2.5341 0.9762
5.0866 -2.0244 -2.5341 0.9762
5.2466 -1.5637 -2.5341 0.9762
5.1717 1.7958 -2.5341 0.9762
4.5135 3.0984 -2.5341 0.9762
3.8927 3.8496 -2.5341 0.9762
3.5346 4.1807 -2.5341 0.9762
1.8533 5.1514 -2.5341 0.9762
1.3875 5.2959 -2.5341 0.9762
-0.0610 5.4743 -2.5341 0.9762
-2.3163 4.7136 -2.4310 0.9771
-2.7267 4.4887 -2.4310 0.9771
-2.2466 3.0492 -1.7532 0.9834
-3.4793 3.9341 -2.4310 0.9771
-3.8157 3.6088 -2.4310 0.9771
-4.3951 2.8751 -2.4310 0.9771
-1.3890 0.4479 -0.6755 0.9936
-1.4212 0.0634 -0.6585 0.9937
-1.4099 -0.1896 -0.6585 0.9937
-1.3890 -0.4479 -0.6755 0.9936
-3.8157 -3.6088 -2.4310 0.9771
-3.4793 -3.9341 -2.4310 0.9771
-2.3163 -4.7136 -2.4310 0.9771
-1.8876 -4.9010 -2.4310 0.9771
-1.5051 -5.2637 -2.5341 0.9762
-1.0306 -5.3768 -2.5341 0.9762
-0.5480 -5.4472 -2.5341 0.9762
-0.0610 -5.4743 -2.5341 0.9762
0.4265 -5.4580 -2.5341 0.9762
1.3875 -5.2959 -2.5341 0.9762
2.7373 -4.7412 -2.5341 0.9762
3.1485 -4.4787 -2.5341 0.9762
4.2199 -3.4878 -2.5341 0.9762
4.5135 -3.0984 -2.5341 0.9762
5.1717 -1.7958 -2.5341 0.9762
5.3111 -1.3284 -2.5341 0.9762
5.4624 -0.3657 -2.5341 0.9762
5.4733 0.1220 -2.5341 0.9762
5.2466 1.5637 -2.5341 0.9762
4.8862 2.4691 -2.5341 0.9762
4.6471 2.8942 -2.5341 0.9762
4.0603 3.6723 -2.5341 0.9762
3.7173 4.0191 -2.5341 0.9762
3.3448 4.3340 -2.5341 0.9762
2.9458 4.6145 -2.5341 0.9762
2.0810 5.0637 -2.5341 0.9762
1.1502 5.3525 -2.5341 0.9762
0.1829 5.4716 -2.5341 0.9762
-0.3048 5.4662 -2.5341 0.9762
-1.2691 5.3255 -2.5341 0.9762
-1.6674 4.9802 -2.4310 0.9771
-2.1040 4.8121 -2.4310 0.9771
-2.1086 3.1462 -1.7532 0.9834
-3.3006 4.0852 -2.4310 0.9771
-3.9726 3.4353 -2.4310 0.9771
-4.2626 3.0680 -2.4310 0.9771
-4.7391 2.2637 -2.4310 0.9771
-1.3946 0.3820 -0.6693 0.9936
-1.4172 0.1266 -0.6586 0.9937
-1.3367 0.0000 -0.6557 0.9941
-1.3061 -0.3578 -0.6642 0.9940
-1.2931 -0.4815 -0.6768 0.9939
-4.2642 -2.5257 -2.4310 0.9782
-3.4454 -3.5625 -2.4310 0.9782
-3.1146 -3.8550 -2.4310 0.9782
-2.3818 -4.3462 -2.4310 0.9782
-1.5890 -4.7460 -2.4550 0.9779
-1.1976 -5.0254 -2.5341 0.9772
-0.2876 -5.1582 -2.5341 0.9772
1.0854 -5.0509 -2.5341 0.9772
1.9637 -4.7784 -2.5341 0.9772
2.3812 -4.5847 -2.5341 0.9772
2.7798 -4.3545 -2.5341 0.9772
3.1564 -4.0898 -2.5341 0.9772
3.5079 -3.7927 -2.5341 0.9772
3.8315 -3.4654 -2.5341 0.9772
4.1247 -3.1106 -2.5341 0.9772
4.3852 -2.7312 -2.5341 0.9772
4.6109 -2.3300 -2.5341 0.9772
5.1342 -0.5743 -2.5341 0.9772
5.1649 -0.1151 -2.5341 0.9772
5.1547 0.3451 -2.5341 0.9772
5.1035 0.8025 -2.5341 0.9772
4.5026 2.5331 -2.5341 0.9772
3.6733 3.6326 -2.5341 0.9772
2.1746 4.6862 -2.5341 0.9772
1.7489 4.8612 -2.5341 0.9772
1.3093 4.9975 -2.5341 0.9772
-0.0576 5.1659 -2.5341 0.9772
-0.5171 5.1403 -2.5341 0.9772
-1.4203 4.9671 -2.5341 0.9772
-1.7812 4.6249 -2.4310 0.9782
-2.1858 4.4480 -2.4310 0.9782
-2.1826 2.9622 -1.8048 0.9837
-3.6007 3.4055 -2.4310 0.9782
-4.1474 2.7131 -2.4310 0.9782
-4.5628 1.9348 -2.4310 0.9782
-1.3003 0.4193 -0.6702 0.9939
-1.3355 0.0596 -0.6558 0.9941
-1.3003 -0.4193 -0.6702 0.9939
-4.1474 -2.7131 -2.4310 0.9782
-3.8895 -3.0715 -2.4310 0.9782
-3.6007 -3.4055 -2.4310 0.9782
-3.2833 -3.7125 -2.4310 0.9782
-2.5730 -4.2358 -2.4310 0.9782
-2.1858 -4.4480 -2.4310 0.9782
-1.7812 -4.6249 -2.4310 0.9782
-1.4203 -4.9671 -2.5341 0.9772
-0.0576 -5.1659 -2.5341 0.9772
0.8593 -5.0942 -2.5341 0.9772
1.7489 -4.8612 -2.5341 0.9772
2.1746 -4.6862 -2.5341 0.9772
3.3354 -3.9452 -2.5341 0.9772
4.2592 -2.9238 -2.5341 0.9772
4.5025 -2.5331 -2.5341 0.9772
4.8803 -1.6946 -2.5341 0.9772
5.0118 -1.2535 -2.5341 0.9772
5.1547 -0.3451 -2.5341 0.9772
5.1649 0.1151 -2.5341 0.9772
4.8000 1.9104 -2.5341 0.9772
4.6109 2.3300 -2.5341 0.9772
4.3852 2.7311 -2.5341 0.9772
4.1248 3.1106 -2.5341 0.9772
3.5079 3.7927 -2.5341 0.9772
2.7798 4.3546 -2.5341 0.9772
1.9637 4.7784 -2.5341 0.9772
1.0854 5.0509 -2.5341 0.9772
0.1726 5.1633 -2.5341 0.9772
-0.7456 5.1121 -2.5341 0.9772
-1.9855 4.5409 -2.4310 0.9782
-2.3818 4.3462 -2.4310 0.9782
-2.0424 3.0475 -1.7995 0.9838
-3.1146 3.8550 -2.4310 0.9782
-3.7488 3.2417 -2.4310 0.9782
-4.2642 2.5257 -2.4310 0.9782
-1.2931 0.4815 -0.6768 0.9939
-1.3317 0.1190 -0.6558 0.9941
-1.2624 0.0000 -0.6549 0.9943
-1.2162 -0.4529 -0.6733 0.9942
-4.2285 -2.0198 -2.4310 0.9791
-4.0319 -2.3881 -2.4310 0.9791
-3.8034 -2.7375 -2.4310 0.9791
-3.5446 -3.0651 -2.4310 0.9791
-2.9450 -3.6451 -2.4310 0.9791
-2.2520 -4.1095 -2.4310 0.9791
-1.8773 -4.2936 -2.4310 0.9791
-1.1324 -4.7517 -2.5341 0.9782
0.1632 -4.8821 -2.5341 0.9782
1.0263 -4.7758 -2.5341 0.9782
1.4473 -4.6655 -2.5341 0.9782
1.8568 -4.5182 -2.5341 0.9782
2.6284 -4.1174 -2.5341 0.9782
2.9845 -3.8671 -2.5341 0.9782
3.3168 -3.5861 -2.5341 0.9782
4.1464 -2.5824 -2.5341 0.9782
4.5386 -1.8063 -2.5341 0.9782
4.7869 -0.9730 -2.5341 0.9782
4.8545 -0.5431 -2.5341 0.9782
4.8836 -0.1088 -2.5341 0.9782
4.4536 2.0067 -2.5341 0.9782
3.7652 3.1120 -2.5341 0.9782
3.4733 3.4348 -2.5341 0.9782
2.8092 3.9962 -2.5341 0.9782
2.0562 4.4310 -2.5341 0.9782
1.6536 4.5964 -2.5341 0.9782
0.8125 4.8168 -2.5341 0.9782
0.3805 4.8700 -2.5341 0.9782
-1.3429 4.6966 -2.5341 0.9782
-2.0667 4.2057 -2.4310 0.9791
-2.4329 4.0051 -2.4310 0.9791
-2.1794 2.9579 -1.9060 0.9836
-3.6776 2.9042 -2.4310 0.9791
-3.9215 2.5654 -2.4310 0.9791
-1.2222 0.3941 -0.6662 0.9942
-1.2514 0.1683 -0.6551 0.9943
-1.2613 0.0562 -0.6550 0.9943
-1.2613 -0.0562 -0.6550 0.9943
-1.2514 -0.1683 -0.6551 0.9943
-1.2222 -0.3941 -0.6662 0.9942
-4.3143 -1.8294 -2.4310 0.9791
-3.9215 -2.5654 -2.4310 0.9791
-3.6776 -2.9042 -2.4310 0.9791
-3.4046 -3.2200 -2.4310 0.9791
-2.7797 -3.7726 -2.4310 0.9791
-2.0668 -4.2057 -2.4310 0.9791
-1.6842 -4.3730 -2.4310 0.9791
-0.0544 -4.8845 -2.5341 0.9782
0.8125 -4.8168 -2.5341 0.9782
1.6536 -4.5964 -2.5341 0.9782
2.0562 -4.4310 -2.5341 0.9782
2.4424 -4.2304 -2.5341 0.9782
4.2573 -2.3951 -2.5341 0.9782
4.4536 -2.0067 -2.5341 0.9782
4.6145 -1.6023 -2.5341 0.9782
4.7388 -1.1853 -2.5341 0.9782
4.8545 0.5430 -2.5341 0.9782
4.7869 0.9730 -2.5341 0.9782
4.6813 1.3952 -2.5341 0.9782
4.5386 1.8063 -2.5341 0.9782
4.3598 2.2031 -2.5341 0.9782
3.6228 3.2767 -2.5341 0.9782
3.3168 3.5861 -2.5341 0.9782
2.2515 4.3350 -2.5341 0.9782
1.4473 4.6655 -2.5341 0.9782
1.0263 4.7758 -2.5341 0.9782
0.5971 4.8482 -2.5341 0.9782
0.1632 4.8821 -2.5341 0.9782
-0.2720 4.8772 -2.5341 0.9782
-1.5508 4.6321 -2.5341 0.9782
-2.2520 4.1095 -2.4310 0.9791
-2.0382 3.0412 -1.8993 0.9836
-3.5446 3.0652 -2.4310 0.9791
-3.8034 2.7375 -2.4310 0.9791
-1.1944 0.0000 -0.6542 0.9946
-1.1577 -0.3171 -0.6575 0.9945
-3.8190 -2.2620 -2.4310 0.9800
-3.3574 -2.9033 -2.4310 0.9800
-2.0404 -3.0445 -2.0074 0.9834
-1.0726 -4.5008 -2.5341 0.9791
0.1546 -4.6243 -2.5341 0.9791
0.5656 -4.5921 -2.5341 0.9791
1.3708 -4.4191 -2.5341 0.9791
1.7587 -4.2796 -2.5341 0.9791
2.4896 -3.8999 -2.5341 0.9791
4.1295 -2.0868 -2.5341 0.9791
4.2989 -1.7109 -2.5341 0.9791
4.4341 -1.3215 -2.5341 0.9791
4.5341 -0.9216 -2.5341 0.9791
4.5707 0.7187 -2.5341 0.9791
4.4886 1.1227 -2.5341 0.9791
4.3708 1.5177 -2.5341 0.9791
4.0325 2.2686 -2.5341 0.9791
3.8146 2.6186 -2.5341 0.9791
3.5664 2.9477 -2.5341 0.9791
1.9476 4.1970 -2.5341 0.9791
1.1726 4.4758 -2.5341 0.9791
-0.4631 4.6036 -2.5341 0.9791
-0.8710 4.5441 -2.5341 0.9791
-1.5953 4.1420 -2.4310 0.9800
-1.9576 3.9836 -2.4310 0.9800
-2.3044 3.7936 -2.4310 0.9800
-3.7144 2.4299 -2.4310 0.9800
-1.1411 0.4838 -0.6788 0.9944
-1.1933 0.0532 -0.6542 0.9946
-1.1933 -0.0532 -0.6542 0.9946
-1.1840 -0.1592 -0.6543 0.9946
-1.1515 -0.3713 -0.6626 0.9945
-1.1411 -0.4838 -0.6788 0.9944
-3.9160 -2.0896 -2.4310 0.9800
-3.4834 -2.7508 -2.4310 0.9800
-2.9405 -3.3249 -2.4310 0.9800
-1.5953 -4.1420 -2.4310 0.9800
-1.2720 -4.4486 -2.5341 0.9791
-0.0515 -4.6266 -2.5341 0.9791
0.3604 -4.6128 -2.5341 0.9791
1.1726 -4.4758 -2.5341 0.9791
1.5663 -4.3537 -2.5341 0.9791
2.3134 -4.0070 -2.5341 0.9791
2.9872 -3.5333 -2.5341 0.9791
3.2898 -3.2534 -2.5341 0.9791
3.5664 -2.9477 -2.5341 0.9791
4.0325 -2.2686 -2.5341 0.9791
4.3708 -1.5177 -2.5341 0.9791
4.4886 -1.1227 -2.5341 0.9791
4.5982 0.5144 -2.5341 0.9791
4.2989 1.7109 -2.5341 0.9791
4.1295 2.0868 -2.5341 0.9791
3.1417 3.3967 -2.5341 0.9791
2.4896 3.8999 -2.5341 0.9791
2.1326 4.1060 -2.5341 0.9791
1.7587 4.2796 -2.5341 0.9791
0.9721 4.5236 -2.5341 0.9791
0.5656 4.5921 -2.5341 0.9791
-0.6677 4.5784 -2.5341 0.9791
-1.0726 4.5008 -2.5341 0.9791
-1.4689 4.3875 -2.5341 0.9791
-2.1331 3.8924 -2.4310 0.9800
-3.6025 2.5929 -2.4310 0.9800
-3.8190 2.2620 -2.4310 0.9800
-1.1464 0.4269 -0.6700 0.9944
-1.1319 0.0000 -0.6535 0.9948
-1.1276 -0.1008 -0.6536 0.9948
-1.0827 -0.4032 -0.6671 0.9947
-3.6229 -2.1459 -2.4310 0.9807
-3.4175 -2.4598 -2.4310 0.9807
-2.6462 -3.2753 -2.4310 0.9807
-2.0236 -3.6926 -2.4310 0.9807
-0.2444 -4.3825 -2.5341 0.9799
0.1467 -4.3868 -2.5341 0.9799
0.9221 -4.2913 -2.5341 0.9799
1.6684 -4.0598 -2.5341 0.9799
2.0231 -3.8952 -2.5341 0.9799
2.3618 -3.6997 -2.5341 0.9799
2.6817 -3.4748 -2.5341 0.9799
2.9803 -3.2223 -2.5341 0.9799
3.7257 -2.3204 -2.5341 0.9799
4.0781 -1.6231 -2.5341 0.9799
4.3013 -0.8743 -2.5341 0.9799
4.3620 -0.4880 -2.5341 0.9799
4.0018 1.8031 -2.5341 0.9799
3.8254 2.1521 -2.5341 0.9799
3.6187 2.4841 -2.5341 0.9799
3.3832 2.7963 -2.5341 0.9799
2.8338 3.3519 -2.5341 0.9799
2.5242 3.5908 -2.5341 0.9799
1.1124 4.2460 -2.5341 0.9799
0.7301 4.3281 -2.5341 0.9799
-0.0489 4.3890 -2.5341 0.9799
-0.8263 4.3108 -2.5341 0.9799
-1.2067 4.2201 -2.5341 0.9799
-1.8571 3.7791 -2.4310 0.9807
-2.1861 3.5988 -2.4310 0.9807
-2.1729 2.9490 -2.1149 0.9832
-2.7895 3.1541 -2.4310 0.9807
-3.0592 2.8934 -2.4310 0.9807
-1.0769 0.4566 -0.6753 0.9946
-1.0870 0.3505 -0.6594 0.9947
-1.1220 0.1509 -0.6536 0.9948
-1.1309 0.0504 -0.6536 0.9948
-1.1309 -0.0504 -0.6536 0.9948
-1.0870 -0.3505 -0.6594 0.9947
-3.7149 -1.9823 -2.4310 0.9807
-2.4977 -3.3899 -2.4310 0.9807
-1.8571 -3.7790 -2.4310 0.9807
-0.4393 -4.3672 -2.5341 0.9799
-0.0489 -4.3890 -2.5341 0.9799
1.1124 -4.2460 -2.5341 0.9799
1.8476 -3.9814 -2.5341 0.9799
2.5242 -3.5908 -2.5341 0.9799
2.8338 -3.3519 -2.5341 0.9799
3.6187 -2.4841 -2.5341 0.9799
3.8254 -2.1521 -2.5341 0.9799
4.1464 -1.4398 -2.5341 0.9799
4.2581 -1.0650 -2.5341 0.9799
4.3360 -0.6818 -2.5341 0.9799
4.3795 -0.2932 -2.5341 0.9799
4.3882 0.0978 -2.5341 0.9799
4.3013 0.8743 -2.5341 0.9799
4.2064 1.2536 -2.5341 0.9799
4.0781 1.6230 -2.5341 0.9799
3.9175 1.9796 -2.5341 0.9799
3.7258 2.3204 -2.5341 0.9799
3.5044 2.6428 -2.5341 0.9799
3.2553 2.9443 -2.5341 0.9799
2.6817 3.4748 -2.5341 0.9799
2.3618 3.6997 -2.5341 0.9799
2.0231 3.8952 -2.5341 0.9799
1.6684 4.0598 -2.5341 0.9799
0.5365 4.3563 -2.5341 0.9799
0.1467 4.3868 -2.5341 0.9799
-1.3935 4.1622 -2.5341 0.9799
-2.0236 3.6926 -2.4310 0.9807
-2.0295 3.0282 -2.1046 0.9833
-2.6462 3.2753 -2.4310 0.9807
-2.9272 3.0268 -2.4310 0.9807
-3.1850 2.7542 -2.4310 0.9807
-3.4175 2.4598 -2.4310 0.9807
-3.6229 2.1458 -2.4310 0.9807
-1.0934 0.2995 -0.6545 0.9948
-1.1141 0.2007 -0.6536 0.9948
