ply
format ascii 1.0
element vertex 1392
property float32 x
property float32 y
property float32 z
property float32 I
end_header
12.0285 15.5858 3.4715 0.9231
7.0660 -15.2269 2.5716 0.9343
12.0285 15.5858 3.0160 0.9234
7.0656 -15.2261 2.1858 0.9345
12.0285 15.5858 2.1141 0.9239
11.4502 16.2882 1.6854 0.9232
7.0644 -15.2234 1.0407 0.9350
11.4575 16.2986 0.7856 0.9233
7.0637 -15.2218 0.6617 0.9350
11.4575 16.2986 0.3365 0.9234
-18.7710 6.0529 0.3331 0.9241
7.0629 -15.2202 0.2834 0.9351
17.6476 -1.1814 0.2988 0.9317
-18.6278 6.9370 0.3358 0.9236
17.7860 -0.3963 -0.1002 0.9313
18.1395 1.2143 -0.1024 0.9299
11.4575 16.2986 -0.1122 0.9234
-18.5773 5.9904 -0.1099 0.9249
17.9263 0.3995 -0.1010 0.9308
12.0353 15.5945 -0.1109 0.9242
12.8979 15.2557 -0.5625 0.9232
11.4575 16.2986 -0.5610 0.9234
-18.3576 5.9195 -0.5431 0.9257
7.0614 -15.2170 -0.4724 0.9351
17.6476 -1.1814 -0.4980 0.9317
17.9263 0.3995 -0.5049 0.9308
12.0353 15.5945 -0.5547 0.9242
-18.2243 6.7868 -0.5476 0.9251
11.4575 16.2986 -1.0104 0.9233
17.9263 0.3995 -0.9093 0.9307
12.0353 15.5945 -0.9990 0.9241
-18.0280 6.7137 -0.9756 0.9258
10.5291 -13.6429 -1.2636 0.9332
11.4575 16.2986 -1.4608 0.9232
-9.2960 15.3033 -1.3129 0.9307
-10.2317 13.8865 -1.2647 0.9332
-11.3836 12.8716 -1.2599 0.9334
-12.5920 11.9094 -1.2708 0.9328
-14.3955 11.3680 -1.3449 0.9291
-17.9747 5.7961 -1.3848 0.9271
7.0599 -15.2137 -1.2298 0.9349
17.6476 -1.1814 -1.2969 0.9315
17.9263 0.3995 -1.3147 0.9306
-9.1818 16.7546 -1.4009 0.9262
-9.6918 14.4611 -1.2764 0.9326
-10.9752 13.5841 -1.2805 0.9324
-16.0393 9.5001 -1.3669 0.9280
-17.6691 8.4397 -1.4358 0.9245
-17.8014 6.6293 -1.3928 0.9266
10.4619 -16.3884 -1.8666 0.9248
10.4675 -13.5632 -1.6448 0.9335
-8.6306 17.5628 -1.8787 0.9244
-8.9173 14.6799 -1.6490 0.9333
-16.7922 8.9606 -1.8273 0.9264
-18.0244 7.6430 -1.8796 0.9243
-5.8345 -15.1490 -1.5585 0.9368
7.0519 -15.1964 -1.6084 0.9349
10.4649 -14.8866 -1.7470 0.9295
17.6476 -1.1813 -1.6981 0.9314
17.9263 0.3995 -1.7214 0.9305
-9.0492 13.5023 -1.5605 0.9368
-12.8796 11.1374 -1.6347 0.9339
-17.5994 8.4064 -1.8725 0.9246
-5.6157 -12.8436 -1.6651 0.9451
10.4720 -11.3222 -1.8320 0.9398
-8.2429 16.7738 -2.2201 0.9275
-8.5668 14.1029 -1.9601 0.9357
-17.7678 7.5342 -2.2925 0.9252
-17.6035 5.6764 -2.1971 0.9282
10.4699 -12.3838 -1.9263 0.9368
10.4922 -8.6721 -1.6169 0.9466
10.5346 -3.6580 -1.3247 0.9561
12.0353 15.5945 -2.3399 0.9237
-8.4097 15.3458 -2.0787 0.9319
-10.1866 12.6081 -1.9254 0.9368
-10.7437 11.1089 -1.8358 0.9396
-12.4273 10.7463 -1.9516 0.9360
-13.7323 9.8839 -2.0098 0.9341
-14.7267 8.7227 -2.0332 0.9334
-17.3412 6.4579 -2.1981 0.9282
-5.6157 -12.8435 -1.9861 0.9449
-5.3692 -16.0371 -2.3963 0.9340
-3.9205 -16.4513 -2.3963 0.9340
-0.9820 -17.6122 -2.4993 0.9312
0.5894 -17.6297 -2.4993 0.9312
3.7059 -17.2459 -2.4993 0.9312
6.4716 -15.7478 -2.4124 0.9335
7.7946 -15.0074 -2.3961 0.9340
9.0994 -14.2540 -2.3961 0.9340
10.4720 -11.3222 -2.1852 0.9396
10.4788 -7.9024 -1.8596 0.9484
10.6557 -4.2409 -1.6250 0.9547
10.5356 -3.1400 -1.5577 0.9566
16.9695 -1.8983 -2.4194 0.9333
17.0372 1.1405 -2.4194 0.9333
16.8681 2.6524 -2.4194 0.9333
16.5651 4.1432 -2.4194 0.9333
16.1306 5.6012 -2.4194 0.9333
14.8819 8.3724 -2.4194 0.9333
14.0776 9.6638 -2.4194 0.9333
12.1412 12.0067 -2.4194 0.9333
9.7254 13.8345 -2.3961 0.9340
8.4554 14.6453 -2.3961 0.9340
7.1184 15.3397 -2.3961 0.9340
4.4705 17.0637 -2.4993 0.9312
2.9340 17.3938 -2.4993 0.9312
-4.6495 16.2603 -2.3963 0.9340
-7.8867 16.0489 -2.5337 0.9303
-10.1020 11.4225 -2.1606 0.9403
-11.1419 10.5379 -2.1729 0.9399
-12.6091 9.9573 -2.2765 0.9372
-13.6839 8.9516 -2.3169 0.9361
-15.3811 8.2076 -2.4702 0.9320
-17.4528 5.6278 -2.5983 0.9286
-5.6129 -11.4220 -1.8032 0.9499
-4.6495 -16.2603 -2.3963 0.9340
-3.1838 -16.6096 -2.3963 0.9340
-0.1965 -17.6385 -2.4993 0.9312
2.9340 -17.3939 -2.4993 0.9312
4.4705 -17.0637 -2.4993 0.9312
7.1184 -15.3397 -2.3961 0.9340
8.4554 -14.6452 -2.3961 0.9340
9.7254 -13.8345 -2.3961 0.9340
10.4802 -7.1943 -1.8011 0.9499
10.5623 -4.7592 -1.6415 0.9543
10.5255 -3.6548 -1.5787 0.9560
10.5366 -2.6354 -1.5389 0.9571
17.0372 -1.1405 -2.4194 0.9333
17.0711 0.3804 -2.4194 0.9333
16.9695 1.8983 -2.4194 0.9333
16.3641 4.8770 -2.4194 0.9333
15.2401 7.7012 -2.4194 0.9333
14.4942 9.0271 -2.4194 0.9333
13.6332 10.2813 -2.4194 0.9333
12.6640 11.4539 -2.4194 0.9333
7.7946 15.0074 -2.3961 0.9340
6.4716 15.7478 -2.4124 0.9335
5.2262 16.8476 -2.4993 0.9312
3.7059 17.2459 -2.4993 0.9312
2.1562 17.5073 -2.4993 0.9312
-2.4407 16.7350 -2.3963 0.9340
-8.0664 14.7194 -2.3782 0.9344
-8.4580 12.6202 -2.1526 0.9405
-9.8308 12.1677 -2.2164 0.9388
-10.4065 10.7602 -2.1210 0.9413
-12.0034 10.3798 -2.2485 0.9379
-14.1895 8.4045 -2.3367 0.9355
-5.8650 -5.0716 -1.2773 0.9691
-5.6069 -8.3660 -1.6591 0.9600
-5.6106 -10.2380 -1.9233 0.9538
-3.3720 -14.1495 -2.3963 0.9427
-2.0992 -14.3935 -2.3963 0.9427
-0.8446 -15.1480 -2.4993 0.9403
3.1874 -14.8329 -2.4993 0.9403
4.4949 -14.4903 -2.4993 0.9403
5.7668 -14.0328 -2.4993 0.9403
6.7040 -12.9076 -2.3961 0.9427
7.8263 -12.2596 -2.3961 0.9427
10.4757 -9.4747 -2.3269 0.9443
10.4788 -7.9024 -2.1621 0.9482
10.4815 -6.5280 -2.0342 0.9512
10.4840 -5.2978 -1.9351 0.9535
10.4862 -4.1734 -1.8593 0.9553
10.4883 -3.1259 -1.8029 0.9566
10.4902 -2.1322 -1.7635 0.9575
14.5952 -1.6327 -2.4194 0.9422
14.6826 -0.3272 -2.4194 0.9422
14.6534 0.9809 -2.4194 0.9422
14.2473 3.5635 -2.4194 0.9422
13.3898 6.0331 -2.4194 0.9422
12.7997 7.2010 -2.4194 0.9422
12.1079 8.3116 -2.4194 0.9422
9.3905 11.1071 -2.3961 0.9427
7.2724 12.5961 -2.3961 0.9427
2.5235 14.9602 -2.4993 0.9403
-0.1690 15.1705 -2.4993 0.9403
-1.5186 15.0953 -2.4993 0.9403
-7.9258 13.0476 -2.5150 0.9400
-8.8417 12.0001 -2.4556 0.9414
-9.7870 11.0663 -2.4337 0.9419
-12.2060 9.6390 -2.5622 0.9389
-17.1010 7.2515 -3.0600 0.9275
-5.9105 -8.0218 -1.6415 0.9604
-5.6129 -11.4220 -2.0966 0.9497
-5.2278 -13.5738 -2.3963 0.9427
-3.9990 -13.9852 -2.3963 0.9427
-2.7383 -14.2856 -2.3963 0.9427
-0.1690 -15.1706 -2.4993 0.9403
1.1819 -15.1254 -2.4993 0.9403
2.5235 -14.9602 -2.4993 0.9403
5.1360 -14.2757 -2.4993 0.9403
9.3905 -11.1071 -2.3961 0.9427
10.3418 -10.2272 -2.3961 0.9427
10.4802 -7.1943 -2.0941 0.9498
10.4828 -5.8975 -1.9815 0.9524
10.4851 -4.7244 -1.8945 0.9544
10.4872 -3.6416 -1.8289 0.9560
10.4893 -2.6236 -1.7812 0.9571
14.5080 -2.2813 -2.4194 0.9422
14.6826 0.3272 -2.4194 0.9422
14.3919 2.9253 -2.4194 0.9422
13.6453 5.4307 -2.4194 0.9422
13.1077 6.6236 -2.4194 0.9422
11.7257 8.8427 -2.4194 0.9422
10.8921 9.8513 -2.4194 0.9422
8.8864 11.5144 -2.3961 0.9427
7.8263 12.2596 -2.3961 0.9427
6.7040 12.9076 -2.3961 0.9427
4.4950 14.4904 -2.4993 0.9403
3.1874 14.8329 -2.4993 0.9403
1.8545 15.0577 -2.4993 0.9403
0.5070 15.1630 -2.4993 0.9403
-5.5207 12.6261 -2.2702 0.9457
-7.7481 14.1385 -2.6560 0.9367
-9.4874 11.7427 -2.4870 0.9406
-10.0877 10.4306 -2.3905 0.9429
-17.0045 6.3325 -2.9893 0.9291
-5.6493 -5.8413 -1.5274 0.9675
-5.6069 -8.3660 -1.8930 0.9598
-5.1074 -11.6809 -2.3963 0.9494
-4.0475 -12.0891 -2.3963 0.9494
-2.9554 -12.4014 -2.3963 0.9494
-1.8399 -12.6152 -2.3963 0.9494
-0.7403 -13.2765 -2.4993 0.9473
1.6254 -13.1974 -2.4993 0.9473
2.7936 -13.0004 -2.4993 0.9473
6.8594 -10.7450 -2.3961 0.9494
8.6558 -9.3586 -2.3961 0.9494
9.4544 -8.5511 -2.3961 0.9494
10.1780 -7.6756 -2.3961 0.9494
10.4815 -6.5280 -2.3210 0.9510
10.4840 -5.2978 -2.2079 0.9533
10.4862 -4.1734 -2.1214 0.9551
10.4883 -3.1259 -2.0571 0.9564
10.4902 -2.1322 -2.0121 0.9574
12.7920 -1.4310 -2.4194 0.9490
12.7156 1.9994 -2.4194 0.9490
12.1596 4.2223 -2.4194 0.9490
11.2183 6.3113 -2.4194 0.9490
10.6121 7.2848 -2.4194 0.9490
9.8260 8.1214 -2.3961 0.9494
4.5015 12.5120 -2.4993 0.9473
3.3700 12.8630 -2.4993 0.9473
2.2117 13.1119 -2.4993 0.9473
-1.3310 13.2304 -2.4993 0.9473
-2.4000 12.5207 -2.3963 0.9494
-3.5049 12.2574 -2.3963 0.9494
-7.1082 14.4647 -3.0293 0.9365
-7.6332 12.5659 -2.7635 0.9419
-5.5005 6.2195 -1.5606 0.9668
-10.4696 9.9021 -2.7086 0.9430
-11.6839 9.2267 -2.7983 0.9412
-12.4292 8.1309 -2.7917 0.9413
-17.1630 5.5344 -3.3895 0.9292
-5.6298 -6.3657 -1.5973 0.9660
-5.6086 -9.2330 -2.0305 0.9570
-5.6129 -11.4220 -2.3921 0.9495
-4.5820 -11.8968 -2.3963 0.9494
-3.5049 -12.2574 -2.3963 0.9494
-2.4000 -12.5207 -2.3963 0.9494
-1.3310 -13.2304 -2.4993 0.9473
3.3700 -12.8630 -2.4993 0.9473
4.5015 -12.5120 -2.4993 0.9473
9.0641 -8.9637 -2.3961 0.9494
9.8260 -8.1214 -2.3961 0.9494
10.4802 -7.1943 -2.3893 0.9496
10.4828 -5.8975 -2.2608 0.9522
10.4893 -2.6236 -2.0323 0.9569
12.7156 -1.9995 -2.4194 0.9490
12.8431 -0.8597 -2.4194 0.9490
12.8686 0.2868 -2.4194 0.9490
12.6139 2.5639 -2.4194 0.9490
11.4883 5.8053 -2.4194 0.9490
10.9260 6.8048 -2.4194 0.9490
10.1780 7.6756 -2.3961 0.9494
7.7885 10.0919 -2.3961 0.9494
6.8594 10.7450 -2.3961 0.9494
5.0544 12.2991 -2.4993 0.9473
3.9396 12.7001 -2.4993 0.9473
-0.7403 13.2765 -2.4993 0.9473
-7.4543 13.6024 -2.9155 0.9388
-8.9901 11.1271 -2.6888 0.9434
-11.9340 8.5896 -2.7638 0.9419
-13.2762 7.8635 -2.9003 0.9391
-15.9532 5.9410 -3.1998 0.9331
-5.6637 -4.8976 -1.5827 0.9699
-5.6017 -5.7922 -1.7033 0.9676
-5.6069 -8.3660 -2.1288 0.9597
-5.4480 -9.9413 -2.3963 0.9547
-3.5990 -10.7498 -2.3963 0.9547
-2.6280 -11.0274 -2.3963 0.9547
1.4453 -11.7353 -2.4993 0.9528
2.4841 -11.5600 -2.4993 0.9528
4.4944 -10.9364 -2.4993 0.9528
5.4499 -10.4930 -2.4993 0.9528
6.3623 -9.9663 -2.4993 0.9528
6.9256 -8.9738 -2.3961 0.9547
8.4070 -7.6037 -2.3961 0.9547
9.6219 -5.9926 -2.3961 0.9547
10.1171 -5.1124 -2.3961 0.9547
10.4862 -4.1734 -2.3857 0.9549
10.4883 -3.1258 -2.3134 0.9562
11.3748 -1.2725 -2.4194 0.9543
11.4202 0.7645 -2.4194 0.9543
11.3068 1.7779 -2.4194 0.9543
11.1037 2.7772 -2.4194 0.9543
10.3348 4.6566 -2.3961 0.9547
9.8793 5.5580 -2.3961 0.9547
9.3454 6.4153 -2.3961 0.9547
8.0599 7.9706 -2.3961 0.9547
6.5190 9.2734 -2.3961 0.9547
1.9667 11.6592 -2.4993 0.9528
0.9211 11.7880 -2.4993 0.9528
-0.1317 11.8232 -2.4993 0.9528
-2.1341 11.1335 -2.3963 0.9547
-3.1166 10.8994 -2.3963 0.9547
-7.3592 12.1149 -2.9963 0.9437
-10.1593 9.6086 -2.9558 0.9444
-10.9799 8.6707 -2.9574 0.9444
-11.7874 7.7110 -2.9774 0.9440
-12.8553 6.8598 -3.0800 0.9422
-13.7168 5.8164 -3.1494 0.9409
-5.6070 -5.3030 -1.6313 0.9689
-5.6054 -7.6076 -1.9975 0.9621
-5.6086 -9.2330 -2.2835 0.9568
-4.9997 -10.1741 -2.3963 0.9547
-1.1835 -11.7646 -2.4993 0.9528
4.9771 -10.7254 -2.4993 0.9528
6.5190 -9.2734 -2.3961 0.9547
7.3185 -8.6563 -2.3961 0.9547
8.7373 -7.2216 -2.3961 0.9547
9.8793 -5.5580 -2.3961 0.9547
10.3348 -4.6566 -2.3961 0.9547
11.4429 0.2550 -2.4194 0.9543
11.3748 1.2725 -2.4194 0.9543
11.2164 2.2798 -2.4194 0.9543
10.6344 4.2324 -2.4194 0.9543
10.1171 5.1124 -2.3961 0.9547
9.6219 5.9926 -2.3961 0.9547
8.4070 7.6037 -2.3961 0.9547
7.6969 8.3217 -2.3961 0.9547
6.3623 9.9663 -2.4993 0.9528
2.4841 11.5600 -2.4993 0.9528
1.4453 11.7353 -2.4993 0.9528
0.3951 11.8173 -2.4993 0.9528
-0.6583 11.8056 -2.4993 0.9528
-2.6280 11.0274 -2.3963 0.9547
-3.5990 10.7498 -2.3963 0.9547
-7.7356 11.5423 -2.9371 0.9448
-8.4464 10.4542 -2.8409 0.9465
-10.5498 9.1228 -2.9482 0.9446
-11.4239 8.2224 -2.9752 0.9441
-13.2919 6.3490 -3.1137 0.9416
-14.3757 5.3536 -3.2426 0.9392
-5.5999 -4.8424 -1.7399 0.9700
-5.6040 -6.9362 -2.0957 0.9640
-5.6069 -8.3660 -2.3669 0.9595
-4.8999 -8.9412 -2.3963 0.9590
-4.0847 -9.3419 -2.3963 0.9590
-3.2370 -9.6683 -2.3963 0.9590
-2.3636 -9.9181 -2.3963 0.9590
-0.5921 -10.6179 -2.4993 0.9572
1.2999 -10.5547 -2.4993 0.9572
4.9017 -9.4374 -2.4993 0.9572
6.4630 -8.3743 -2.4861 0.9575
6.9225 -7.4846 -2.3961 0.9590
8.1399 -6.1386 -2.3961 0.9590
9.7704 -2.9119 -2.3961 0.9590
9.9908 -2.0307 -2.3961 0.9590
10.1319 -1.1334 -2.3961 0.9590
10.1926 -0.2271 -2.3961 0.9590
10.1724 0.6810 -2.3961 0.9590
9.6310 3.3443 -2.3961 0.9590
9.2951 4.1882 -2.3961 0.9590
8.8855 4.9989 -2.3961 0.9590
8.4053 5.7699 -2.3961 0.9590
7.2491 7.1688 -2.3961 0.9590
6.1158 8.6999 -2.4993 0.9572
5.3172 9.2097 -2.4993 0.9572
1.7688 10.4863 -2.4993 0.9572
-0.1185 10.6338 -2.4993 0.9572
-1.9194 10.0135 -2.3963 0.9590
-2.8031 9.8029 -2.3963 0.9590
-4.4967 9.1506 -2.3963 0.9590
-5.2934 8.7141 -2.3963 0.9590
-7.5373 10.2296 -2.9863 0.9491
-9.4026 8.8929 -3.0417 0.9482
-10.1131 7.9862 -3.0286 0.9484
-5.5230 3.6130 -1.5511 0.9732
-12.5925 5.3397 -3.2146 0.9453
-17.9013 4.0559 -4.3139 0.9274
-5.8448 -3.8235 -1.6415 0.9717
-5.5990 -4.4215 -1.6767 0.9711
-5.6008 -5.2972 -1.8118 0.9688
-5.6028 -6.3352 -1.9877 0.9658
-4.4968 -9.1506 -2.3963 0.9590
-1.9194 -10.0135 -2.3963 0.9590
-0.1185 -10.6338 -2.4993 0.9572
0.8285 -10.6021 -2.4993 0.9572
2.6951 -10.2873 -2.4993 0.9572
3.6001 -10.0065 -2.4993 0.9572
7.8584 -6.4951 -2.3961 0.9590
8.4053 -5.7699 -2.3961 0.9590
8.8855 -4.9989 -2.3961 0.9590
6.7929 -3.0607 -1.7511 0.9698
9.6310 -3.3443 -2.3961 0.9590
9.8905 -2.4738 -2.3961 0.9590
9.7704 2.9119 -2.3961 0.9590
8.6540 5.3897 -2.3961 0.9590
8.1399 6.1386 -2.3961 0.9590
7.5612 6.8387 -2.3961 0.9590
6.9226 7.4846 -2.3961 0.9590
6.4630 8.3743 -2.4861 0.9575
4.9017 9.4374 -2.4993 0.9572
3.1507 10.1570 -2.4993 0.9572
1.2999 10.5547 -2.4993 0.9572
-2.3636 9.9180 -2.3963 0.9590
-3.2370 9.6683 -2.3963 0.9590
-4.0847 9.3419 -2.3963 0.9590
-4.8999 8.9412 -2.3963 0.9590
-7.9603 9.8526 -2.9769 0.9493
-8.9887 9.2942 -3.0388 0.9483
-5.5009 3.9593 -1.5929 0.9725
-12.1206 5.7895 -3.1569 0.9463
-13.2169 4.9220 -3.3147 0.9437
-15.3967 4.2176 -3.7519 0.9365
-5.9411 -2.2125 -1.6415 0.9741
-5.7206 -2.7325 -1.6415 0.9741
-5.5968 -3.3150 -1.6842 0.9735
-5.5982 -4.0294 -1.7859 0.9719
-5.5999 -4.8424 -1.9168 0.9699
-5.6017 -5.7922 -2.0863 0.9673
-5.1524 -7.6880 -2.3963 0.9625
2.8600 -9.2196 -2.4993 0.9609
4.4493 -8.5665 -2.4993 0.9609
5.8977 -7.6419 -2.4993 0.9609
6.8634 -6.2076 -2.3961 0.9625
7.8553 -4.8923 -2.3961 0.9625
8.2596 -4.1738 -2.3961 0.9625
8.8687 -2.6432 -2.3961 0.9625
9.1969 -1.0288 -2.3961 0.9625
9.2336 0.6181 -2.3961 0.9625
8.9777 2.2455 -2.3961 0.9625
8.7422 3.0356 -2.3961 0.9625
8.4373 3.8017 -2.3961 0.9625
8.0655 4.5376 -2.3961 0.9625
7.1332 5.8957 -2.3961 0.9625
6.5801 6.5072 -2.3961 0.9625
6.2323 7.3715 -2.4993 0.9609
5.5514 7.8970 -2.4993 0.9609
4.8265 8.3598 -2.4993 0.9609
0.7520 9.6237 -2.4993 0.9609
-0.1075 9.6524 -2.4993 0.9609
-0.9662 9.6046 -2.4993 0.9609
-1.7423 9.0894 -2.3963 0.9625
-2.5444 8.8982 -2.3963 0.9625
-3.3263 8.6365 -2.3963 0.9625
-4.0818 8.3061 -2.3963 0.9625
-8.6102 8.1435 -3.0685 0.9522
-10.1901 6.6661 -3.1528 0.9509
-12.8559 4.1455 -3.4974 0.9457
-5.8367 -2.4750 -1.6415 0.9741
-5.5975 -3.6617 -1.7319 0.9727
-5.6008 -5.2972 -1.9960 0.9686
-5.4898 -7.4508 -2.3963 0.9625
-4.8049 -7.9099 -2.3963 0.9625
-3.3263 -8.6365 -2.3963 0.9625
-2.5444 -8.8983 -2.3963 0.9625
-1.7423 -9.0894 -2.3963 0.9625
-0.9662 -9.6045 -2.4993 0.9609
0.7520 -9.6237 -2.4993 0.9609
4.8265 -8.3598 -2.4993 0.9609
7.1331 -5.8957 -2.3961 0.9625
7.6296 -5.2374 -2.3961 0.9625
8.0655 -4.5376 -2.3961 0.9625
8.9777 -2.2455 -2.3961 0.9625
9.1419 -1.4375 -2.3961 0.9625
9.2336 -0.6181 -2.3961 0.9625
8.8688 2.6432 -2.3961 0.9625
8.2596 4.1737 -2.3961 0.9625
7.8553 4.8923 -2.3961 0.9625
6.8634 6.2076 -2.3961 0.9625
6.4630 6.9877 -2.4645 0.9614
5.1941 8.1364 -2.4993 0.9609
3.6692 8.9285 -2.4993 0.9609
2.8600 9.2196 -2.4993 0.9609
2.0280 9.4376 -2.4993 0.9609
1.1800 9.5807 -2.4993 0.9609
-0.5374 9.6381 -2.4993 0.9609
-1.3931 9.5520 -2.4993 0.9609
-2.9382 8.7761 -2.3963 0.9625
-3.7077 8.4797 -2.3963 0.9625
-5.1524 7.6880 -2.3963 0.9625
-5.5071 6.8163 -2.2689 0.9644
-8.9815 7.7666 -3.0743 0.9521
-9.7847 7.0426 -3.1214 0.9514
-5.5016 -0.0000 -1.5575 0.9774
-5.5017 -0.4917 -1.5637 0.9773
-5.5944 -2.0834 -1.6900 0.9755
-5.5968 -3.3150 -1.8415 0.9733
-5.5999 -4.8424 -2.0958 0.9697
-5.3196 -6.5841 -2.3963 0.9654
-4.7124 -7.0314 -2.3963 0.9654
-4.0679 -7.4230 -2.3963 0.9654
-3.3911 -7.7556 -2.3963 0.9654
-1.2742 -8.7363 -2.4993 0.9640
-0.4915 -8.8150 -2.4993 0.9640
1.0792 -8.7625 -2.4993 0.9640
1.8548 -8.6317 -2.4993 0.9640
2.6157 -8.4323 -2.4993 0.9640
4.0694 -7.8349 -2.4993 0.9640
4.7506 -7.4416 -2.4993 0.9640
5.3941 -6.9893 -2.4993 0.9640
5.9947 -6.4814 -2.4993 0.9640
6.7577 -5.0963 -2.3961 0.9654
7.1845 -4.4746 -2.3961 0.9654
7.5543 -3.8173 -2.3961 0.9654
7.8640 -3.1298 -2.3961 0.9654
8.2944 -1.6859 -2.3961 0.9654
8.4115 -0.9410 -2.3961 0.9654
8.4619 -0.1886 -2.3961 0.9654
8.4451 0.5653 -2.3961 0.9654
8.2110 2.0537 -2.3961 0.9654
7.9956 2.7764 -2.3961 0.9654
7.7168 3.4770 -2.3961 0.9654
6.9781 4.7902 -2.3961 0.9654
6.5240 5.3922 -2.3961 0.9654
6.2775 6.2079 -2.4993 0.9640
5.7001 6.7421 -2.4993 0.9640
3.7163 8.0084 -2.4993 0.9640
2.9888 8.3074 -2.4993 0.9640
-0.0984 8.8282 -2.4993 0.9640
-0.8837 8.7844 -2.4993 0.9640
-3.0422 7.8990 -2.3963 0.9654
-3.7332 7.5968 -2.3963 0.9654
-4.3945 7.2344 -2.3963 0.9654
-7.9407 7.5103 -3.0941 0.9556
-8.7764 6.9306 -3.1658 0.9546
-10.9991 4.6640 -3.3821 0.9515
-5.5014 1.2464 -1.5969 0.9768
-5.5016 0.2453 -1.5590 0.9774
-5.5016 -0.2454 -1.5590 0.9774
-5.5017 -0.7399 -1.5715 0.9772
-5.6915 -1.8353 -1.6929 0.9754
-5.5962 -2.9862 -1.7957 0.9740
-5.5975 -3.6617 -1.8936 0.9726
-5.6008 -5.2972 -2.1824 0.9685
-5.6028 -6.3352 -2.3942 0.9655
-1.5943 -8.3171 -2.3974 0.9654
-0.8837 -8.7844 -2.4993 0.9640
0.6878 -8.8019 -2.4993 0.9640
1.4685 -8.7057 -2.4993 0.9640
2.9888 -8.3074 -2.4993 0.9640
5.0774 -7.2226 -2.4993 0.9640
5.7001 -6.7421 -2.4993 0.9640
6.2775 -6.2079 -2.4993 0.9640
6.9780 -4.7902 -2.3961 0.9654
7.3767 -4.1501 -2.3961 0.9654
8.3612 -1.3147 -2.3961 0.9654
8.4619 0.1886 -2.3961 0.9654
8.1114 2.4175 -2.3961 0.9654
7.8640 3.1298 -2.3961 0.9654
7.5543 3.8173 -2.3961 0.9654
6.7577 5.0963 -2.3961 0.9654
5.9947 6.4814 -2.4993 0.9640
5.3941 6.9893 -2.4993 0.9640
1.0792 8.7625 -2.4993 0.9640
-0.4915 8.8150 -2.4993 0.9640
-1.9623 8.2339 -2.3963 0.9654
-2.6873 8.0266 -2.3963 0.9654
-3.3911 7.7556 -2.3963 0.9654
-4.0679 7.4230 -2.3963 0.9654
-5.5079 4.7629 -2.0614 0.9702
-11.4392 4.2600 -3.4556 0.9505
-12.5341 3.4334 -3.6790 0.9474
-5.5014 0.9911 -1.5825 0.9770
-5.5088 -0.0000 -1.6944 0.9772
-18.9031 -1.6892 -5.8374 0.9236
-5.5956 -2.6728 -1.9073 0.9744
-5.5968 -3.3150 -2.0008 0.9731
-5.5982 -4.0294 -2.1215 0.9715
-4.8961 -6.0600 -2.3963 0.9679
-4.3373 -6.4717 -2.3963 0.9679
-3.1211 -7.1382 -2.3963 0.9679
-2.4734 -7.3876 -2.3963 0.9679
-1.1727 -8.0408 -2.4993 0.9666
0.9933 -8.0649 -2.4993 0.9666
1.7072 -7.9445 -2.4993 0.9666
2.4075 -7.7610 -2.4993 0.9666
3.0887 -7.5160 -2.4993 0.9666
3.7454 -7.2112 -2.4993 0.9666
7.2380 -2.8807 -2.3961 0.9679
7.4657 -2.2250 -2.3961 0.9679
7.7419 -0.8661 -2.3961 0.9679
7.6956 1.2101 -2.3961 0.9679
7.5574 1.8902 -2.3961 0.9679
7.3591 2.5554 -2.3961 0.9679
6.7895 3.8197 -2.3961 0.9679
6.4711 4.4422 -2.4142 0.9677
6.2634 5.1768 -2.4993 0.9666
5.2463 6.2053 -2.4993 0.9666
4.0629 7.0372 -2.4993 0.9666
3.4205 7.3709 -2.4993 0.9666
1.3516 8.0127 -2.4993 0.9666
0.6330 8.1012 -2.4993 0.9666
-0.8134 8.0851 -2.4993 0.9666
-1.5297 7.9806 -2.4993 0.9666
-2.1418 7.4905 -2.3963 0.9679
-3.4360 6.9921 -2.3963 0.9679
-4.0447 6.6585 -2.3963 0.9679
-4.6213 6.2721 -2.3963 0.9679
-5.5014 1.2464 -1.7350 0.9767
-5.5962 -2.9862 -1.9510 0.9738
-5.6008 -5.2972 -2.3711 0.9683
-5.1612 -5.8358 -2.3963 0.9679
-4.6213 -6.2721 -2.3963 0.9679
-4.0447 -6.6585 -2.3963 0.9679
-1.5298 -7.9806 -2.4993 0.9666
-0.8134 -8.0851 -2.4993 0.9666
-0.0905 -8.1254 -2.4993 0.9666
0.6330 -8.1012 -2.4993 0.9666
2.0594 -7.8606 -2.4993 0.9666
2.7508 -7.6461 -2.4993 0.9666
3.4205 -7.3709 -2.4993 0.9666
4.0629 -7.0372 -2.4993 0.9666
4.6732 -6.6477 -2.4993 0.9666
5.2463 -6.2053 -2.4993 0.9666
5.7778 -5.7137 -2.4993 0.9666
6.4711 -4.4422 -2.4142 0.9677
6.7895 -3.8197 -2.3961 0.9679
6.7821 -3.0559 -2.2880 0.9693
7.5574 -1.8902 -2.3961 0.9679
7.6956 -1.2101 -2.3961 0.9679
7.7419 0.8661 -2.3961 0.9679
7.6341 1.5517 -2.3961 0.9679
7.4657 2.2250 -2.3961 0.9679
6.9529 3.5135 -2.3961 0.9679
6.6126 4.1183 -2.3961 0.9679
6.4630 4.8740 -2.4898 0.9667
5.5175 5.9655 -2.4993 0.9666
4.9646 6.4329 -2.4993 0.9666
3.7454 7.2112 -2.4993 0.9666
3.0887 7.5159 -2.4993 0.9666
-1.1727 8.0408 -2.4993 0.9666
-1.8060 7.5785 -2.3963 0.9679
-3.1211 7.1382 -2.3963 0.9679
-3.7441 6.8321 -2.3963 0.9679
-8.5777 6.1738 -3.2506 0.9567
-11.7823 3.2275 -3.7575 0.9502
-14.1250 2.5447 -4.4145 0.9417
-18.7728 1.6776 -5.7971 0.9242
-18.5668 0.0000 -6.1717 0.9247
-5.5944 -2.0834 -1.9844 0.9752
-5.5956 -2.6728 -2.0613 0.9742
-5.5982 -4.0294 -2.2928 0.9713
-4.5304 -5.6074 -2.3963 0.9701
-4.0133 -5.9883 -2.3963 0.9701
-3.4644 -6.3218 -2.3963 0.9701
-2.2887 -6.8359 -2.3963 0.9701
-1.0851 -7.4402 -2.4993 0.9688
-0.4186 -7.5073 -2.4993 0.9688
0.9191 -7.4626 -2.4993 0.9688
1.5797 -7.3512 -2.4993 0.9688
4.0458 -6.3377 -2.4993 0.9688
4.5938 -5.9524 -2.4993 0.9688
5.5764 -5.0436 -2.4993 0.9688
6.6974 -2.6655 -2.3961 0.9701
6.9081 -2.0588 -2.3961 0.9701
7.1636 -0.8014 -2.3961 0.9701
7.2065 -0.1606 -2.3961 0.9701
7.1922 0.4815 -2.3961 0.9701
7.1208 1.1197 -2.3961 0.9701
6.8095 2.3645 -2.3961 0.9701
6.5720 2.9612 -2.3961 0.9701
6.4630 3.6360 -2.4650 0.9692
6.1989 4.2553 -2.4993 0.9688
5.7956 4.7902 -2.4993 0.9688
5.3462 5.2870 -2.4993 0.9688
4.8544 5.7419 -2.4993 0.9688
4.3241 6.1512 -2.4993 0.9688
3.1650 6.8204 -2.4993 0.9688
1.2506 7.4142 -2.4993 0.9688
0.5858 7.4961 -2.4993 0.9688
-0.0838 7.5185 -2.4993 0.9688
-0.7526 7.4812 -2.4993 0.9688
-3.1794 6.4698 -2.3963 0.9701
-3.7426 6.1612 -2.3963 0.9701
-4.2761 5.8036 -2.3963 0.9701
-4.7757 5.4000 -2.3963 0.9701
-7.7600 6.1280 -3.2868 0.9592
-10.5662 3.4072 -3.6904 0.9543
-5.5014 1.2464 -1.8750 0.9765
-18.5156 0.8256 -6.1608 0.9248
-18.8451 -0.8404 -6.2705 0.9236
-5.6915 -1.8353 -1.9878 0.9751
-5.5950 -2.3725 -2.0201 0.9747
-5.5962 -2.9862 -2.1085 0.9736
-5.5990 -4.4215 -2.3715 0.9704
-5.2374 -4.9535 -2.3963 0.9701
-4.7757 -5.4000 -2.3963 0.9701
-3.7426 -6.1612 -2.3963 0.9701
-2.5909 -6.7271 -2.3963 0.9701
-1.4155 -7.3845 -2.4993 0.9688
-0.7526 -7.4812 -2.4993 0.9688
0.5858 -7.4961 -2.4993 0.9688
1.2506 -7.4142 -2.4993 0.9688
1.9056 -7.2735 -2.4993 0.9688
4.8544 -5.7419 -2.4993 0.9688
5.3462 -5.2870 -2.4993 0.9688
6.5720 -2.9612 -2.3961 0.9701
6.8095 -2.3645 -2.3961 0.9701
6.9929 -1.7491 -2.3961 0.9701
7.1208 -1.1197 -2.3961 0.9701
7.1922 -0.4815 -2.3961 0.9701
7.1636 0.8014 -2.3961 0.9701
6.9081 2.0588 -2.3961 0.9701
6.6974 2.6655 -2.3961 0.9701
6.4721 3.2705 -2.4104 0.9699
5.1054 5.5199 -2.4993 0.9688
2.8580 6.9546 -2.4993 0.9688
2.2277 7.1814 -2.4993 0.9688
0.9191 7.4626 -2.4993 0.9688
-0.4186 7.5073 -2.4993 0.9688
-1.0851 7.4402 -2.4993 0.9688
-1.6711 7.0125 -2.3963 0.9701
-2.8880 6.6050 -2.3963 0.9701
-3.4644 6.3218 -2.3963 0.9701
-4.5304 5.6074 -2.3963 0.9701
-5.4528 4.7153 -2.3963 0.9701
-8.0804 5.8159 -3.3094 0.9589
-5.5084 2.0513 -1.9539 0.9755
-11.1044 3.0418 -3.8272 0.9526
-12.7516 2.2973 -4.3070 0.9468
-18.4631 -1.6499 -6.6289 0.9243
-5.5956 -2.6728 -2.2176 0.9740
-5.4386 -3.9144 -2.3963 0.9719
-3.2203 -5.8762 -2.3963 0.9719
-1.5837 -6.6454 -2.4430 0.9714
-1.0087 -6.9159 -2.4993 0.9707
-0.3891 -6.9782 -2.4993 0.9707
0.8543 -6.9367 -2.4993 0.9707
2.6566 -6.4645 -2.4993 0.9707
3.2214 -6.2024 -2.4993 0.9707
3.7607 -5.8910 -2.4993 0.9707
4.7456 -5.1309 -2.4993 0.9707
5.1835 -4.6882 -2.4993 0.9707
5.9326 -3.6948 -2.4993 0.9707
6.4630 -2.5722 -2.4875 0.9709
6.4710 -1.9286 -2.4147 0.9717
6.5661 -1.3346 -2.3961 0.9719
6.6750 -0.7467 -2.4019 0.9719
6.6987 -0.1493 -2.3961 0.9719
6.6854 0.4475 -2.3961 0.9719
6.5001 1.6258 -2.3961 0.9719
6.4630 2.2442 -2.4466 0.9714
4.9695 4.9144 -2.4993 0.9707
4.0194 5.7177 -2.4993 0.9707
2.9419 6.3397 -2.4993 0.9707
1.7713 6.7609 -2.4993 0.9707
-0.0779 6.9886 -2.4993 0.9707
-0.6996 6.9540 -2.4993 0.9707
-1.8422 6.4426 -2.3963 0.9719
-2.9553 6.0139 -2.3963 0.9719
-3.4788 5.7270 -2.3963 0.9719
-7.9745 5.2167 -3.4077 0.9603
-10.0511 3.2411 -3.7766 0.9561
-5.5014 1.2464 -2.0172 0.9763
-13.0740 1.7583 -4.7175 0.9455
-18.6344 -2.5062 -6.7238 0.9232
-5.6915 -1.8353 -2.1385 0.9749
-5.5950 -2.3725 -2.1732 0.9745
-5.5975 -3.6617 -2.3920 0.9720
-5.2588 -4.1528 -2.3963 0.9719
-4.8683 -4.6044 -2.3963 0.9719
-4.4391 -5.0194 -2.3963 0.9719
-2.9553 -6.0139 -2.3963 0.9719
-2.4083 -6.2530 -2.3963 0.9719
-1.3157 -6.8641 -2.4993 0.9707
-0.6996 -6.9540 -2.4993 0.9707
-0.0779 -6.9886 -2.4993 0.9707
0.5445 -6.9678 -2.4993 0.9707
1.7713 -6.7609 -2.4993 0.9707
2.3660 -6.5764 -2.4993 0.9707
4.0194 -5.7177 -2.4993 0.9707
4.5123 -5.3372 -2.4993 0.9707
6.0913 -3.4269 -2.4993 0.9707
6.4630 -2.2442 -2.4466 0.9714
6.5001 -1.6258 -2.3961 0.9719
6.6190 -1.0408 -2.3961 0.9719
6.6854 -0.4475 -2.3961 0.9719
6.5661 1.3346 -2.3961 0.9719
6.2379 3.1521 -2.4993 0.9707
5.9326 3.6948 -2.4993 0.9707
5.5802 4.2082 -2.4993 0.9707
5.1835 4.6882 -2.4993 0.9707
3.7607 5.8910 -2.4993 0.9707
2.0707 6.6753 -2.4993 0.9707
1.4683 6.8331 -2.4993 0.9707
0.2335 6.9852 -2.4993 0.9707
-0.3891 6.9782 -2.4993 0.9707
-2.1274 6.3541 -2.3963 0.9719
-3.2203 5.8762 -2.3963 0.9719
-3.7305 5.5663 -2.3963 0.9719
-4.2111 5.2122 -2.3963 0.9719
-8.9708 4.2850 -3.5552 0.9586
-10.5231 2.8826 -3.9018 0.9547
-5.5956 -2.6728 -2.3764 0.9738
-2.5051 -5.7293 -2.3963 0.9736
-1.9852 -5.9295 -2.3963 0.9736
-0.3631 -6.5119 -2.4993 0.9724
0.7972 -6.4731 -2.4993 0.9724
1.9323 -6.2291 -2.4993 0.9724
3.9847 -5.1632 -2.4993 0.9724
5.8210 -2.9415 -2.4993 0.9724
6.4630 -0.7230 -2.4922 0.9725
6.4630 -0.1440 -2.4773 0.9727
5.9462 2.6793 -2.4993 0.9724
5.6842 3.1979 -2.4993 0.9724
5.0271 4.1550 -2.4993 0.9724
4.2108 4.9805 -2.4993 0.9724
3.7508 5.3355 -2.4993 0.9724
3.2610 5.6482 -2.4993 0.9724
2.7453 5.9160 -2.4993 0.9724
0.5081 6.5022 -2.4993 0.9724
-0.0727 6.5216 -2.4993 0.9724
-0.6528 6.4892 -2.4993 0.9724
-2.7578 5.6120 -2.3963 0.9736
-3.7091 5.0341 -2.3963 0.9736
-4.1425 4.6840 -2.3963 0.9736
-4.5429 4.2967 -2.3963 0.9736
-5.2328 3.4231 -2.3963 0.9736
-5.5167 2.9438 -2.3963 0.9736
-5.5080 2.3356 -2.2927 0.9747
-9.5766 3.0880 -3.8560 0.9578
-5.5014 1.2464 -2.1617 0.9761
-5.5950 -2.3725 -2.3289 0.9743
-5.5167 -2.9438 -2.3963 0.9736
-4.9073 -3.8753 -2.3963 0.9736
-4.5429 -4.2967 -2.3963 0.9736
-4.1425 -4.6840 -2.3963 0.9736
-3.7091 -5.0341 -2.3963 0.9736
-3.2464 -5.3442 -2.3963 0.9736
-2.2474 -5.8352 -2.3963 0.9736
-0.6528 -6.4892 -2.4993 0.9724
0.5081 -6.5022 -2.4993 0.9724
1.0848 -6.4311 -2.4993 0.9724
2.7453 -5.9160 -2.4993 0.9724
3.2610 -5.6482 -2.4993 0.9724
3.7508 -5.3355 -2.4993 0.9724
4.2108 -4.9805 -2.4993 0.9724
5.0271 -4.1550 -2.4993 0.9724
5.6842 -3.1979 -2.4993 0.9724
6.4630 -0.4326 -2.4823 0.9726
6.4630 0.1440 -2.4773 0.9727
6.3913 1.2991 -2.4993 0.9724
6.2503 1.8628 -2.4993 0.9724
6.0597 2.4117 -2.4993 0.9724
5.5361 3.4479 -2.4993 0.9724
4.4285 4.7880 -2.4993 0.9724
3.9847 5.1632 -2.4993 0.9724
1.3702 6.3764 -2.4993 0.9724
0.7972 6.4731 -2.4993 0.9724
-0.3631 6.5119 -2.4993 0.9724
-0.9412 6.4537 -2.4993 0.9724
-2.5051 5.7293 -2.3963 0.9736
-3.0051 5.4835 -2.3963 0.9736
-4.7298 4.0900 -2.3963 0.9736
-5.3801 3.1866 -2.3963 0.9736
-8.5241 4.0716 -3.6201 0.9603
-9.1460 3.4060 -3.7401 0.9591
-1.6390 -0.1465 -0.6735 0.9929
-1.6035 -0.4392 -0.6804 0.9928
-5.2831 -2.5235 -2.3963 0.9750
-4.7520 -3.4203 -2.3963 0.9750
-4.4287 -3.8296 -2.3963 0.9750
-4.0703 -4.2086 -2.3963 0.9750
-3.2596 -4.8636 -2.3963 0.9750
-1.8588 -5.5520 -2.3963 0.9750
-1.4157 -5.9404 -2.4993 0.9740
-0.8813 -6.0428 -2.4993 0.9740
1.8093 -5.8326 -2.4993 0.9740
3.2859 -5.1473 -2.4993 0.9740
3.7310 -4.8345 -2.4993 0.9740
4.5291 -4.0963 -2.4993 0.9740
4.8757 -3.6770 -2.4993 0.9740
6.0689 -0.6789 -2.4993 0.9740
6.1052 -0.1361 -2.4993 0.9740
6.0326 0.9486 -2.4993 0.9740
5.7689 2.0032 -2.4993 0.9740
5.0347 3.4561 -2.4993 0.9740
3.0534 5.2886 -2.4993 0.9740
0.4757 6.0882 -2.4993 0.9740
-0.6113 6.0761 -2.4993 0.9740
-1.1496 5.9976 -2.4993 0.9740
-1.6096 5.6293 -2.3963 0.9750
-2.1043 5.4637 -2.3963 0.9750
-3.0397 5.0040 -2.3963 0.9750
-5.1655 2.7564 -2.3963 0.9750
-1.5889 0.5124 -0.6833 0.9928
-1.6301 0.2192 -0.6732 0.9929
-1.6146 -0.3658 -0.6776 0.9929
-5.1655 -2.7564 -2.3963 0.9750
-4.8996 -3.2052 -2.3963 0.9750
-4.5949 -3.6286 -2.3963 0.9750
-1.6096 -5.6293 -2.3963 0.9750
-1.1496 -5.9976 -2.4993 0.9740
-0.0680 -6.1064 -2.4993 0.9740
0.4757 -6.0882 -2.4993 0.9740
2.0673 -5.7462 -2.4993 0.9740
3.0534 -5.2886 -2.4993 0.9740
4.7071 -3.8905 -2.4993 0.9740
5.0347 -3.4561 -2.4993 0.9740
5.3223 -2.9943 -2.4993 0.9740
5.5677 -2.5087 -2.4993 0.9740
5.7689 -2.0032 -2.4993 0.9740
5.9243 -1.4818 -2.4993 0.9740
6.0326 -0.9486 -2.4993 0.9740
6.0689 0.6789 -2.4993 0.9740
5.9844 1.2164 -2.4993 0.9740
5.6739 2.2582 -2.4993 0.9740
4.8757 3.6770 -2.4993 0.9740
4.1465 4.4832 -2.4993 0.9740
3.2859 5.1473 -2.4993 0.9740
1.8093 5.8326 -2.4993 0.9740
0.2041 6.1033 -2.4993 0.9740
-3.6795 4.5542 -2.3963 0.9750
-4.0703 4.2086 -2.3963 0.9750
-5.0375 2.9837 -2.3963 0.9750
-5.2831 2.5236 -2.3963 0.9750
-1.6035 0.4392 -0.6804 0.9928
-1.6390 0.1465 -0.6735 0.9929
-1.5266 0.0000 -0.6653 0.9934
-1.5215 -0.1360 -0.6657 0.9934
-1.5015 -0.2705 -0.6649 0.9934
-1.5001 -0.4109 -0.6779 0.9932
-5.1526 -1.9188 -2.3963 0.9763
-4.4626 -3.2120 -2.3963 0.9763
-4.1590 -3.5964 -2.3963 0.9763
-2.6424 -4.8217 -2.3963 0.9763
-2.2027 -5.0378 -2.3963 0.9763
-0.8277 -5.6748 -2.4993 0.9753
-0.3193 -5.7259 -2.4993 0.9753
0.1916 -5.7316 -2.4993 0.9753
2.1799 -5.3044 -2.4993 0.9753
3.0858 -4.8338 -2.4993 0.9753
3.5038 -4.5400 -2.4993 0.9753
3.8940 -4.2102 -2.4993 0.9753
4.2533 -3.8468 -2.4993 0.9753
4.5788 -3.4530 -2.4993 0.9753
4.8679 -3.0318 -2.4993 0.9753
5.1185 -2.5865 -2.4993 0.9753
5.3284 -2.1206 -2.4993 0.9753
5.4960 -1.6380 -2.4993 0.9753
5.6199 -1.1423 -2.4993 0.9753
5.6993 -0.6376 -2.4993 0.9753
5.7220 0.3830 -2.4993 0.9753
5.5635 1.3915 -2.4993 0.9753
4.7280 3.2456 -2.4993 0.9753
4.4204 3.6536 -2.4993 0.9753
3.2981 4.6916 -2.4993 0.9753
2.8674 4.9665 -2.4993 0.9753
2.4140 5.2020 -2.4993 0.9753
1.9414 5.3962 -2.4993 0.9753
1.4534 5.5476 -2.4993 0.9753
-0.0639 5.7345 -2.4993 0.9753
-0.5740 5.7060 -2.4993 0.9753
-1.5766 5.5139 -2.4993 0.9753
-1.9761 5.1309 -2.3963 0.9763
-3.2615 4.4265 -2.3963 0.9763
-3.6425 4.1187 -2.3963 0.9763
-3.9946 3.7781 -2.3963 0.9763
-4.6012 3.0100 -2.3963 0.9763
-5.0620 2.1465 -2.3963 0.9763
-1.4861 0.4792 -0.6805 0.9932
-1.5029 0.3405 -0.6716 0.9933
-1.5133 -0.2035 -0.6654 0.9934
-5.0620 -2.1465 -2.3963 0.9763
-4.8509 -2.5885 -2.3963 0.9763
-4.6012 -3.0100 -2.3963 0.9763
-4.3151 -3.4076 -2.3963 0.9763
-1.9761 -5.1309 -2.3963 0.9763
-1.5766 -5.5138 -2.4993 0.9753
-1.0796 -5.6323 -2.4993 0.9753
2.8674 -4.9665 -2.4993 0.9753
3.2981 -4.6916 -2.4993 0.9753
3.7026 -4.3794 -2.4993 0.9753
4.4204 -3.6536 -2.4993 0.9753
4.9982 -2.8119 -2.4993 0.9753
5.4175 -1.8812 -2.4993 0.9753
5.5635 -1.3915 -2.4993 0.9753
5.4960 1.6380 -2.4993 0.9753
5.3284 2.1206 -2.4993 0.9753
5.1185 2.5865 -2.4993 0.9753
4.8679 3.0318 -2.4993 0.9753
4.5788 3.4530 -2.4993 0.9753
4.2533 3.8468 -2.4993 0.9753
3.8940 4.2101 -2.4993 0.9753
2.6433 5.0893 -2.4993 0.9753
-0.8276 5.6748 -2.4993 0.9753
-1.3295 5.5786 -2.4993 0.9753
-1.7456 5.2138 -2.3963 0.9763
-2.6424 4.8217 -2.3963 0.9763
-3.4554 4.2768 -2.3963 0.9763
-4.4626 3.2120 -2.3963 0.9763
-4.7307 2.8020 -2.3963 0.9763
-4.9614 2.3698 -2.3963 0.9763
-1.5001 0.4109 -0.6779 0.9932
-1.4219 0.0000 -0.6582 0.9938
-1.4172 -0.1266 -0.6586 0.9937
-1.3993 -0.2521 -0.6581 0.9938
-1.3946 -0.3820 -0.6693 0.9936
-4.6712 -2.2313 -2.3963 0.9774
-4.2016 -3.0241 -2.3963 0.9774
-2.8821 -4.3003 -2.3963 0.9774
-2.0739 -4.7432 -2.3963 0.9774
-1.2517 -5.2524 -2.4993 0.9765
-0.7793 -5.3430 -2.4993 0.9765
-0.3006 -5.3911 -2.4993 0.9765
0.1804 -5.3965 -2.4993 0.9765
1.5997 -5.1571 -2.4993 0.9765
2.4888 -4.7917 -2.4993 0.9765
4.0045 -3.6219 -2.4993 0.9765
4.5833 -2.8545 -2.4993 0.9765
4.8191 -2.4352 -2.4993 0.9765
5.0168 -1.9966 -2.4993 0.9765
5.2913 -1.0755 -2.4993 0.9765
5.3981 -0.1203 -2.4993 0.9765
5.3874 0.3606 -2.4993 0.9765
5.2381 1.3102 -2.4993 0.9765
5.1007 1.7712 -2.4993 0.9765
4.4516 3.0558 -2.4993 0.9765
3.4861 4.1233 -2.4993 0.9765
2.2728 4.8978 -2.4993 0.9765
1.8279 5.0807 -2.4993 0.9765
0.8981 5.3243 -2.4993 0.9765
-0.0602 5.3991 -2.4993 0.9765
-0.5405 5.3724 -2.4993 0.9765
-1.0165 5.3029 -2.4993 0.9765
-1.4844 5.1914 -2.4993 0.9765
-1.8606 4.8309 -2.3963 0.9774
-2.2832 4.6461 -2.3963 0.9774
-3.4295 3.8778 -2.3963 0.9774
-4.5672 2.4371 -2.3963 0.9774
-1.4212 -0.0634 -0.6585 0.9937
-1.4099 -0.1896 -0.6585 0.9937
-1.3890 -0.4479 -0.6755 0.9936
-4.7660 -2.0209 -2.3963 0.9774
-4.3322 -2.8340 -2.3963 0.9774
-4.0627 -3.2083 -2.3963 0.9774
-3.0708 -4.1677 -2.3963 0.9774
-2.6876 -4.4244 -2.3963 0.9774
-2.2832 -4.6461 -2.3963 0.9774
-1.4844 -5.1914 -2.4993 0.9765
0.4206 -5.3831 -2.4993 0.9765
0.8981 -5.3243 -2.4993 0.9765
2.6997 -4.6761 -2.4993 0.9765
3.1052 -4.4172 -2.4993 0.9765
3.4861 -4.1233 -2.4993 0.9765
3.8392 -3.7967 -2.4993 0.9765
4.1619 -3.4399 -2.4993 0.9765
4.4516 -3.0558 -2.4993 0.9765
4.9228 -2.2181 -2.4993 0.9765
5.1007 -1.7712 -2.4993 0.9765
5.3981 0.1203 -2.4993 0.9765
5.3660 0.6003 -2.4993 0.9765
5.2913 1.0755 -2.4993 0.9765
5.1746 1.5422 -2.4993 0.9765
5.0168 1.9966 -2.4993 0.9765
4.8191 2.4352 -2.4993 0.9765
3.6663 3.9639 -2.4993 0.9765
2.9054 4.5512 -2.4993 0.9765
2.0524 4.9942 -2.4993 0.9765
1.5997 5.1571 -2.4993 0.9765
1.1344 5.2790 -2.4993 0.9765
0.6600 5.3590 -2.4993 0.9765
0.1804 5.3965 -2.4993 0.9765
-0.7792 5.3430 -2.4993 0.9765
-2.4879 4.5398 -2.3963 0.9774
-2.0667 3.0838 -1.7184 0.9838
-3.2534 4.0267 -2.3963 0.9774
-3.5989 3.7212 -2.3963 0.9774
-3.9158 3.3861 -2.3963 0.9774
-4.4541 2.6382 -2.3963 0.9774
-4.6712 2.2313 -2.3963 0.9774
-1.3946 0.3820 -0.6693 0.9936
-1.4172 0.1266 -0.6586 0.9937
-1.3367 0.0000 -0.6557 0.9941
-1.3159 -0.2371 -0.6559 0.9941
-1.3061 -0.3578 -0.6642 0.9940
-4.2031 -2.4895 -2.3963 0.9785
-3.9649 -2.8537 -2.3963 0.9785
-3.6951 -3.1953 -2.3963 0.9785
-3.3961 -3.5115 -2.3963 0.9785
-3.0701 -3.7999 -2.3963 0.9785
-2.0470 -3.0543 -1.8036 0.9838
-1.9571 -4.4759 -2.3963 0.9785
-1.5830 -4.7283 -2.4459 0.9780
1.0705 -4.9815 -2.4993 0.9776
2.3485 -4.5217 -2.4993 0.9776
2.7417 -4.2947 -2.4993 0.9776
3.1130 -4.0337 -2.4993 0.9776
3.4597 -3.7406 -2.4993 0.9776
3.7789 -3.4178 -2.4993 0.9776
4.0681 -3.0679 -2.4993 0.9776
4.5476 -2.2980 -2.4993 0.9776
4.7341 -1.8841 -2.4993 0.9776
4.9932 -1.0149 -2.4993 0.9776
5.0637 -0.5665 -2.4993 0.9776
5.0839 0.3403 -2.4993 0.9776
4.9430 1.2363 -2.4993 0.9776
4.6455 2.0931 -2.4993 0.9776
4.4407 2.4983 -2.4993 0.9776
4.2007 2.8836 -2.4993 0.9776
3.9274 3.2461 -2.4993 0.9776
3.2896 3.8910 -2.4993 0.9776
2.9303 4.1684 -2.4993 0.9776
2.5476 4.4126 -2.4993 0.9776
2.1448 4.6219 -2.4993 0.9776
1.2913 4.9289 -2.4993 0.9776
0.3969 5.0798 -2.4993 0.9776
-0.0568 5.0949 -2.4993 0.9776
-0.5100 5.0697 -2.4993 0.9776
-1.4008 4.8989 -2.4993 0.9776
-1.7709 4.5981 -2.4170 0.9783
-2.1545 4.3843 -2.3963 0.9785
-2.5362 4.1752 -2.3963 0.9785
-2.1815 2.9608 -1.8040 0.9837
-3.5491 3.3568 -2.3963 0.9785
-4.0881 2.6743 -2.3963 0.9785
-4.3099 2.2998 -2.3963 0.9785
-4.4975 1.9071 -2.3963 0.9785
-1.3003 0.4193 -0.6702 0.9939
-1.3355 0.0596 -0.6558 0.9941
-1.3003 -0.4193 -0.6702 0.9939
-4.3099 -2.2998 -2.3963 0.9785
-4.0881 -2.6743 -2.3963 0.9785
-3.2363 -3.6593 -2.3963 0.9785
-2.8977 -3.9329 -2.3963 0.9785
-1.7709 -4.5981 -2.4170 0.9783
-1.4008 -4.8989 -2.4993 0.9776
-0.5100 -5.0697 -2.4993 0.9776
0.3969 -5.0798 -2.4993 0.9776
4.2007 -2.8836 -2.4993 0.9776
4.4407 -2.4983 -2.4993 0.9776
4.6455 -2.0931 -2.4993 0.9776
4.9430 -1.2363 -2.4993 0.9776
5.0839 -0.3403 -2.4993 0.9776
5.0637 0.5664 -2.4993 0.9776
4.8830 1.4553 -2.4993 0.9776
4.5476 2.2980 -2.4993 0.9776
4.3250 2.6936 -2.4993 0.9776
2.7417 4.2947 -2.4993 0.9776
1.9368 4.7128 -2.4993 0.9776
1.5096 4.8665 -2.4993 0.9776
1.0705 4.9815 -2.4993 0.9776
0.6228 5.0570 -2.4993 0.9776
-1.9571 4.4759 -2.3963 0.9785
-2.3477 4.2840 -2.3963 0.9785
-3.0701 3.7999 -2.3963 0.9785
-3.3961 3.5115 -2.3963 0.9785
-3.6951 3.1953 -2.3963 0.9785
-3.9649 2.8537 -2.3963 0.9785
-4.2031 2.4895 -2.3963 0.9785
-4.4080 2.1055 -2.3963 0.9785
-1.3159 0.2371 -0.6559 0.9941
-1.2576 -0.1124 -0.6550 0.9943
-1.2426 -0.2239 -0.6550 0.9943
-1.2162 -0.4529 -0.6733 0.9942
-3.4939 -3.0213 -2.3963 0.9794
-2.9028 -3.5929 -2.3963 0.9794
-2.0470 -3.0543 -1.9075 0.9836
-2.2198 -4.0507 -2.3963 0.9794
-1.1168 -4.6865 -2.4993 0.9785
-0.6953 -4.7673 -2.4993 0.9785
-0.2682 -4.8103 -2.4993 0.9785
0.5889 -4.7816 -2.4993 0.9785
1.0122 -4.7102 -2.4993 0.9785
1.8313 -4.4561 -2.4993 0.9785
2.5923 -4.0608 -2.4993 0.9785
3.2713 -3.5369 -2.4993 0.9785
4.2999 -2.1729 -2.4993 0.9785
4.7879 -0.5356 -2.4993 0.9785
4.8165 -0.1073 -2.4993 0.9785
4.6738 1.1690 -2.4993 0.9785
4.5512 1.5804 -2.4993 0.9785
3.9719 2.7266 -2.4993 0.9785
3.7135 3.0693 -2.4993 0.9785
3.4256 3.3876 -2.4993 0.9785
2.7707 3.9413 -2.4993 0.9785
2.0279 4.3701 -2.4993 0.9785
1.6309 4.5333 -2.4993 0.9785
1.2210 4.6604 -2.4993 0.9785
0.3753 4.8031 -2.4993 0.9785
-0.0537 4.8174 -2.4993 0.9785
-0.4822 4.7936 -2.4993 0.9785
-0.9070 4.7316 -2.4993 0.9785
-2.3981 3.9477 -2.3963 0.9794
-3.6250 2.8626 -2.3963 0.9794
-3.8654 2.5286 -2.3963 0.9794
-4.0751 2.1746 -2.3963 0.9794
-1.2222 0.3941 -0.6662 0.9942
-1.2316 0.2790 -0.6551 0.9943
-1.2514 0.1683 -0.6551 0.9943
-1.2613 -0.0562 -0.6550 0.9943
-1.2514 -0.1683 -0.6551 0.9943
-1.2316 -0.2790 -0.6551 0.9943
-3.8654 -2.5286 -2.3963 0.9794
-3.6250 -2.8626 -2.3963 0.9794
-2.7399 -3.7186 -2.3963 0.9794
-2.0372 -4.1455 -2.3963 0.9794
-0.9070 -4.7316 -2.4993 0.9785
-0.4822 -4.7936 -2.4993 0.9785
0.3753 -4.8031 -2.4993 0.9785
0.8013 -4.7506 -2.4993 0.9785
2.0279 -4.3701 -2.4993 0.9785
2.7707 -3.9413 -2.4993 0.9785
3.9719 -2.7266 -2.4993 0.9785
4.1989 -2.3622 -2.4993 0.9785
4.3924 -1.9791 -2.4993 0.9785
4.7593 -0.7484 -2.4993 0.9785
4.8165 0.1073 -2.4993 0.9785
4.6170 1.3760 -2.4993 0.9785
4.2999 2.1729 -2.4993 0.9785
4.0895 2.5470 -2.4993 0.9785
3.8465 2.9008 -2.4993 0.9785
3.5731 3.2317 -2.4993 0.9785
3.2713 3.5369 -2.4993 0.9785
2.9435 3.8140 -2.4993 0.9785
1.8313 4.4561 -2.4993 0.9785
1.4274 4.6014 -2.4993 0.9785
1.0122 4.7102 -2.4993 0.9785
0.1610 4.8150 -2.4993 0.9785
-0.6953 4.7673 -2.4993 0.9785
-1.8505 4.2322 -2.3963 0.9794
-2.2198 4.0507 -2.3963 0.9794
-2.0368 3.0391 -1.8979 0.9836
-3.4939 3.0213 -2.3963 0.9794
-3.9742 2.3539 -2.3963 0.9794
-4.1680 1.9909 -2.3963 0.9794
-1.2162 0.4529 -0.6733 0.9942
-1.2283 0.3365 -0.6607 0.9943
-1.2426 0.2239 -0.6550 0.9943
-1.2576 0.1124 -0.6550 0.9943
-1.1944 0.0000 -0.6542 0.9946
-1.1899 -0.1063 -0.6543 0.9946
-1.1756 -0.2118 -0.6543 0.9946
-1.1577 -0.3171 -0.6575 0.9945
-1.1464 -0.4269 -0.6700 0.9944
-3.9478 -1.8857 -2.3963 0.9802
-2.0404 -3.0445 -2.0074 0.9834
-2.1026 -3.8367 -2.3963 0.9802
-1.4488 -4.3272 -2.4993 0.9794
-1.0579 -4.4390 -2.4993 0.9794
-0.6586 -4.5155 -2.4993 0.9794
0.1525 -4.5608 -2.4993 0.9794
0.5578 -4.5291 -2.4993 0.9794
1.7346 -4.2208 -2.4993 0.9794
2.7880 -3.6126 -2.4993 0.9794
3.0985 -3.3501 -2.4993 0.9794
3.3844 -3.0610 -2.4993 0.9794
3.6434 -2.7476 -2.4993 0.9794
4.0728 -2.0581 -2.4993 0.9794
4.3732 -1.3034 -2.4993 0.9794
4.5350 -0.5073 -2.4993 0.9794
4.1605 1.8746 -2.4993 0.9794
3.7622 2.5826 -2.4993 0.9794
3.5174 2.9072 -2.4993 0.9794
2.9462 3.4848 -2.4993 0.9794
2.6243 3.7332 -2.4993 0.9794
2.2817 3.9520 -2.4993 0.9794
1.9209 4.1393 -2.4993 0.9794
1.5448 4.2939 -2.4993 0.9794
1.1565 4.4143 -2.4993 0.9794
-1.2546 4.3875 -2.4993 0.9794
-1.5888 4.1251 -2.4211 0.9800
-1.9296 3.9266 -2.3963 0.9802
-2.2714 3.7393 -2.3963 0.9802
-2.8984 3.2773 -2.3963 0.9802
-3.1786 3.0063 -2.3963 0.9802
-3.4336 2.7115 -2.3963 0.9802
-1.1649 0.2639 -0.6542 0.9946
-1.1840 0.1592 -0.6543 0.9946
-1.1933 0.0532 -0.6542 0.9946
-1.1933 -0.0532 -0.6542 0.9946
-1.1840 -0.1592 -0.6543 0.9946
-1.1411 -0.4838 -0.6788 0.9944
-3.4336 -2.7115 -2.3963 0.9802
-1.9296 -3.9266 -2.3963 0.9802
-0.4568 -4.5404 -2.4993 0.9794
0.3555 -4.5495 -2.4993 0.9794
1.1565 -4.4143 -2.4993 0.9794
1.5448 -4.2939 -2.4993 0.9794
2.2817 -3.9519 -2.4993 0.9794
3.5174 -2.9072 -2.4993 0.9794
4.1605 -1.8746 -2.4993 0.9794
4.4269 -1.1073 -2.4993 0.9794
4.5079 -0.7088 -2.4993 0.9794
4.5622 0.1017 -2.4993 0.9794
4.5350 0.5073 -2.4993 0.9794
4.3732 1.3034 -2.4993 0.9794
4.2399 1.6874 -2.4993 0.9794
4.0728 2.0581 -2.4993 0.9794
3.8735 2.4124 -2.4993 0.9794
3.6434 2.7476 -2.4993 0.9794
3.0985 3.3501 -2.4993 0.9794
2.7880 3.6126 -2.4993 0.9794
2.4554 3.8464 -2.4993 0.9794
1.7346 4.2208 -2.4993 0.9794
1.3520 4.3584 -2.4993 0.9794
0.1525 4.5607 -2.4993 0.9794
-0.2541 4.5563 -2.4993 0.9794
-1.0579 4.4390 -2.4993 0.9794
-1.7528 4.0087 -2.3963 0.9802
-2.1026 3.8367 -2.3963 0.9802
-2.7495 3.4032 -2.3963 0.9802
-3.0415 3.1449 -2.3963 0.9802
-3.3094 2.8617 -2.3963 0.9802
-3.7643 2.2296 -2.3963 0.9802
-1.1577 0.3171 -0.6575 0.9945
-1.1899 0.1063 -0.6543 0.9946
-1.1276 -0.1008 -0.6536 0.9948
-1.0934 -0.2995 -0.6545 0.9948
-3.3686 -2.4246 -2.3963 0.9810
-3.1394 -2.7148 -2.3963 0.9810
-2.0404 -3.0445 -2.1160 0.9832
-1.9946 -3.6397 -2.3963 0.9810
-1.6627 -3.8028 -2.3963 0.9810
0.1447 -4.3266 -2.4993 0.9802
1.2826 -4.1346 -2.4993 0.9802
1.6455 -4.0041 -2.4993 0.9802
1.9953 -3.8417 -2.4993 0.9802
3.4563 -2.6065 -2.4993 0.9802
3.6746 -2.2886 -2.4993 0.9802
4.0221 -1.6008 -2.4993 0.9802
4.2422 -0.8623 -2.4993 0.9802
4.3193 0.2891 -2.4993 0.9802
3.7729 2.1226 -2.4993 0.9802
3.5690 2.4500 -2.4993 0.9802
2.7949 3.3058 -2.4993 0.9802
2.1645 3.7490 -2.4993 0.9802
1.0971 4.1877 -2.4993 0.9802
0.7200 4.2687 -2.4993 0.9802
-0.4333 4.3072 -2.4993 0.9802
-2.7496 3.1090 -2.3963 0.9810
-3.0154 2.8520 -2.3963 0.9810
-3.4733 2.2721 -2.3963 0.9810
-3.6617 1.9539 -2.3963 0.9810
-1.0769 0.4566 -0.6753 0.9946
-1.1039 0.2501 -0.6535 0.9948
-1.1309 0.0504 -0.6536 0.9948
-1.1309 -0.0504 -0.6536 0.9948
-1.1220 -0.1509 -0.6536 0.9948
-1.0870 -0.3505 -0.6594 0.9947
-1.0769 -0.4566 -0.6753 0.9946
-3.6617 -1.9539 -2.3963 0.9810
-3.4733 -2.2721 -2.3963 0.9810
-3.2573 -2.5722 -2.3963 0.9810
-2.7496 -3.1090 -2.3963 0.9810
-2.4620 -3.3414 -2.3963 0.9810
-1.8305 -3.7250 -2.3963 0.9810
1.4655 -4.0734 -2.4993 0.9802
1.8222 -3.9268 -2.4993 0.9802
2.4896 -3.5415 -2.4993 0.9802
2.7949 -3.3058 -2.4993 0.9802
3.0781 -3.0439 -2.4993 0.9802
3.5690 -2.4500 -2.4993 0.9802
4.1996 -1.0504 -2.4993 0.9802
4.2764 -0.6724 -2.4993 0.9802
4.3193 -0.2891 -2.4993 0.9802
4.3279 0.0964 -2.4993 0.9802
4.3022 0.4813 -2.4993 0.9802
4.2422 0.8623 -2.4993 0.9802
4.1487 1.2364 -2.4993 0.9802
4.0221 1.6008 -2.4993 0.9802
3.8637 1.9524 -2.4993 0.9802
3.6746 2.2886 -2.4993 0.9802
3.2106 2.9038 -2.4993 0.9802
2.3294 3.6489 -2.4993 0.9802
1.9953 3.8417 -2.4993 0.9802
1.2826 4.1346 -2.4993 0.9802
0.9095 4.2324 -2.4993 0.9802
0.1447 4.3266 -2.4993 0.9802
-0.6248 4.2837 -2.4993 0.9802
-1.3744 4.1050 -2.4993 0.9802
-1.9946 3.6397 -2.3963 0.9810
-2.0280 3.0261 -2.1032 0.9833
-2.6084 3.2284 -2.3963 0.9810
-3.3686 2.4246 -2.3963 0.9810
-3.5710 2.1151 -2.3963 0.9810
-1.0827 0.4032 -0.6671 0.9947
-1.0934 0.2995 -0.6545 0.9948
-1.1141 0.2007 -0.6536 0.9948
