ply
format ascii 1.0
element vertex 1411
property float32 x
property float32 y
property float32 z
property float32 I
end_header
7.0664 -15.2277 2.9601 0.9341
12.0285 15.5858 3.4715 0.9231
12.0285 15.5858 3.0160 0.9234
7.0653 -15.2253 1.8024 0.9347
12.0285 15.5858 2.1141 0.9239
11.4502 16.2882 1.6854 0.9232
7.0649 -15.2245 1.4208 0.9348
7.0644 -15.2234 1.0407 0.9350
12.0353 15.5945 1.2215 0.9241
11.4575 16.2986 0.7856 0.9233
17.9263 0.3995 0.7070 0.9307
11.4575 16.2986 0.3365 0.9234
-18.7739 6.0538 0.3332 0.9241
17.6476 -1.1814 0.2988 0.9317
17.9263 0.3995 0.3029 0.9308
12.0353 15.5945 0.3327 0.9242
17.7860 -0.3963 -0.1002 0.9313
18.1395 1.2143 -0.1024 0.9299
11.4575 16.2986 -0.1122 0.9234
7.0622 -15.2186 -0.0945 0.9351
17.6476 -1.1814 -0.0996 0.9317
12.0353 15.5945 -0.1109 0.9242
12.8979 15.2557 -0.5625 0.9232
11.4575 16.2986 -0.5610 0.9234
-18.3619 5.9210 -0.5433 0.9257
17.9263 0.3995 -0.5049 0.9308
12.0353 15.5945 -0.5547 0.9242
-18.2270 6.7878 -0.5477 0.9251
17.7860 -0.3963 -0.9022 0.9312
11.4575 16.2986 -1.0104 0.9233
7.0607 -15.2154 -0.8507 0.9350
17.9263 0.3995 -0.9093 0.9307
-18.0310 6.7148 -0.9758 0.9258
11.4575 16.2986 -1.4608 0.9232
-9.3021 15.3134 -1.3137 0.9307
-10.2684 13.9364 -1.2693 0.9329
-11.4152 12.9073 -1.2634 0.9332
-12.6318 11.9471 -1.2748 0.9326
-14.4092 11.3788 -1.3462 0.9290
-17.8347 7.5625 -1.4204 0.9252
-17.9756 5.7964 -1.3848 0.9270
17.9263 0.3995 -1.3147 0.9306
12.0353 15.5945 -1.4443 0.9240
-9.1878 16.7657 -1.4018 0.9262
-10.9819 13.5924 -1.2813 0.9323
-12.1358 12.5483 -1.2800 0.9324
-16.0500 9.5064 -1.3678 0.9279
-5.6236 -16.7968 -1.7006 0.9313
10.4692 -13.5653 -1.6451 0.9335
-8.6363 17.5744 -1.8800 0.9243
-8.9232 14.6896 -1.6501 0.9333
-10.9164 12.3434 -1.5820 0.9359
-11.9229 11.2766 -1.5755 0.9362
-14.5991 9.5503 -1.6749 0.9323
-18.0194 7.6408 -1.8791 0.9244
-17.8408 5.7529 -1.7997 0.9274
7.0592 -15.2121 -1.6100 0.9348
10.6245 -12.5668 -1.5799 0.9360
10.5246 -8.6988 -1.3109 0.9466
17.9263 0.3995 -1.7214 0.9305
-8.7861 16.0326 -1.7552 0.9292
-9.0554 13.5115 -1.5616 0.9367
-11.1080 11.4856 -1.5340 0.9378
-12.8872 11.1440 -1.6357 0.9338
-14.4196 10.3786 -1.7057 0.9311
-15.3648 9.1006 -1.7144 0.9308
-17.6011 8.4072 -1.8727 0.9246
-5.6582 -10.3248 -1.3985 0.9537
-5.6236 -16.7968 -2.1041 0.9311
10.4619 -16.3884 -2.3096 0.9247
10.4720 -11.3222 -1.8320 0.9398
10.4757 -9.4747 -1.6778 0.9447
10.5261 -7.9381 -1.5661 0.9483
-11.5190 10.8946 -1.8834 0.9381
-16.0680 8.5741 -2.1634 0.9293
-17.6080 5.6778 -2.1976 0.9282
-5.6192 -14.5899 -1.8572 0.9390
10.4699 -12.3838 -1.9263 0.9368
10.4739 -10.3579 -1.7498 0.9424
10.4957 -8.6749 -1.6175 0.9466
10.5366 -2.6354 -1.2902 0.9572
17.6476 -1.1814 -2.1010 0.9312
12.0353 15.5945 -2.3399 0.9237
-8.4154 15.3561 -2.0800 0.9319
-8.7163 13.0056 -1.8598 0.9389
-10.7499 11.1154 -1.8368 0.9396
-12.4346 10.7526 -1.9527 0.9359
-17.3424 6.4584 -2.1983 0.9282
-3.9308 -16.4945 -2.4025 0.9338
-2.4471 -16.7789 -2.4025 0.9338
0.5909 -17.6741 -2.5056 0.9310
2.1617 -17.5513 -2.5056 0.9310
3.7152 -17.2893 -2.5056 0.9310
6.4731 -15.7514 -2.4129 0.9335
7.8151 -15.0467 -2.4024 0.9338
10.3591 -13.4227 -2.4024 0.9338
10.4757 -9.4747 -2.0013 0.9445
10.4788 -7.9024 -1.8596 0.9484
10.4815 -6.5280 -1.7496 0.9513
10.5356 -3.1400 -1.5577 0.9566
17.0815 1.1435 -2.4257 0.9332
16.9119 2.6593 -2.4257 0.9332
14.9206 8.3942 -2.4257 0.9332
14.1142 9.6889 -2.4257 0.9332
13.1959 10.9067 -2.4257 0.9332
5.9865 16.6398 -2.5056 0.9310
2.9414 17.4376 -2.5056 0.9311
-0.1970 17.6829 -2.5056 0.9311
-7.8919 16.0596 -2.5354 0.9303
-8.2449 13.5729 -2.2502 0.9379
-9.1083 12.3620 -2.1757 0.9399
-10.1078 11.4291 -2.1618 0.9402
-11.1482 10.5439 -2.1742 0.9399
-12.6162 9.9629 -2.2778 0.9371
-17.4694 7.4076 -2.6886 0.9262
-5.9091 -9.7277 -1.6127 0.9551
-5.6129 -11.4220 -1.8032 0.9499
-3.1922 -16.6532 -2.4025 0.9338
-1.6973 -16.8712 -2.4025 0.9338
-0.1970 -17.6829 -2.5056 0.9311
4.4817 -17.1066 -2.5056 0.9310
5.9865 -16.6398 -2.5056 0.9310
8.4776 -14.6837 -2.4024 0.9338
9.7509 -13.8708 -2.4024 0.9338
10.4739 -10.3579 -2.0872 0.9422
10.4802 -7.1943 -1.8011 0.9499
10.6028 -4.7774 -1.6478 0.9541
10.5366 -2.6354 -1.5389 0.9571
13.3337 -2.0966 -1.9125 0.9469
17.0815 -1.1435 -2.4257 0.9332
17.1155 0.3814 -2.4257 0.9332
17.0136 1.9032 -2.4257 0.9332
16.7767 3.4100 -2.4257 0.9332
15.9063 6.3305 -2.4257 0.9332
14.5318 9.0505 -2.4257 0.9332
10.3591 13.4227 -2.4024 0.9338
7.8151 15.0468 -2.4024 0.9338
6.4731 15.7513 -2.4129 0.9335
5.2393 16.8900 -2.5056 0.9310
3.7152 17.2893 -2.5056 0.9310
-0.9845 17.6565 -2.5056 0.9311
-7.6786 17.5615 -2.7157 0.9255
-12.0105 10.3859 -2.2498 0.9379
-13.0996 9.4286 -2.2869 0.9369
-14.1969 8.4088 -2.3379 0.9355
-17.2441 6.4218 -2.6072 0.9284
-5.8650 -5.0716 -1.2773 0.9691
-5.6069 -8.3660 -1.6591 0.9600
-5.6157 -12.8436 -2.3092 0.9448
-4.6301 -13.8294 -2.4025 0.9426
0.5082 -15.2012 -2.5056 0.9402
1.8592 -15.0956 -2.5056 0.9402
3.1954 -14.8702 -2.5056 0.9402
5.7813 -14.0680 -2.5056 0.9402
8.9097 -11.5446 -2.4024 0.9426
10.4815 -6.5280 -2.0342 0.9512
10.4840 -5.2978 -1.9351 0.9535
14.6331 -1.6370 -2.4257 0.9421
14.6915 0.9835 -2.4257 0.9421
14.5457 2.2872 -2.4257 0.9421
13.9097 4.8300 -2.4257 0.9421
13.4246 6.0488 -2.4257 0.9421
11.3495 9.3806 -2.4257 0.9421
9.4151 11.1363 -2.4024 0.9426
8.3866 11.9301 -2.4024 0.9426
7.2915 12.6292 -2.4024 0.9426
3.8547 14.7131 -2.5056 0.9402
1.1849 15.1635 -2.5056 0.9402
-2.7455 14.3231 -2.4025 0.9426
-5.2416 13.6094 -2.4025 0.9426
-7.5621 15.3884 -2.8246 0.9329
-8.8464 12.0064 -2.4568 0.9413
-12.2129 9.6444 -2.5636 0.9389
-13.1516 8.6034 -2.5890 0.9383
-14.7687 7.8808 -2.7577 0.9344
-17.1298 7.2636 -3.0652 0.9273
-17.3931 5.6085 -3.0106 0.9286
-5.6086 -9.2330 -1.7797 0.9572
-5.6129 -11.4220 -2.0966 0.9497
-5.2416 -13.6094 -2.4025 0.9426
-2.7455 -14.3231 -2.4025 0.9426
-0.1694 -15.2087 -2.5056 0.9402
2.5298 -14.9978 -2.5056 0.9402
6.4023 -13.7966 -2.5056 0.9402
7.2915 -12.6292 -2.4024 0.9426
8.3866 -11.9301 -2.4024 0.9426
9.4151 -11.1363 -2.4024 0.9426
10.3690 -10.2541 -2.4024 0.9426
10.4773 -8.6597 -2.2393 0.9464
10.4802 -7.1943 -2.0941 0.9498
10.4872 -3.6416 -1.8289 0.9560
10.4893 -2.6236 -1.7812 0.9571
14.5457 -2.2872 -2.4257 0.9421
14.6915 -0.9835 -2.4257 0.9421
14.7207 0.3280 -2.4257 0.9421
14.6331 1.6370 -2.4257 0.9421
14.1110 4.2055 -2.4257 0.9421
13.6807 5.4448 -2.4257 0.9421
13.1418 6.6408 -2.4257 0.9421
12.4986 7.7842 -2.4257 0.9421
11.7561 8.8657 -2.4257 0.9421
10.9204 9.8769 -2.4257 0.9421
6.7216 12.9414 -2.4024 0.9426
5.7813 14.0681 -2.5056 0.9402
4.5063 14.5268 -2.5056 0.9402
3.1954 14.8702 -2.5056 0.9402
1.8592 15.0956 -2.5056 0.9402
0.5082 15.2012 -2.5056 0.9402
-0.8468 15.1861 -2.5056 0.9402
-2.1047 14.4312 -2.4025 0.9426
-3.3808 14.1866 -2.4025 0.9426
-4.6301 13.8294 -2.4025 0.9426
-7.7533 14.1480 -2.6578 0.9367
-8.2214 12.2672 -2.4328 0.9419
-10.0936 10.4367 -2.3919 0.9428
-16.0666 7.6744 -2.9332 0.9304
-17.0067 6.3334 -2.9897 0.9291
-18.9903 5.2020 -3.2437 0.9233
-5.8650 -5.0716 -1.4574 0.9689
-5.6040 -6.9362 -1.6761 0.9644
-5.6106 -10.2380 -2.1944 0.9536
-2.9632 -12.4339 -2.4025 0.9493
-1.8447 -12.6483 -2.4025 0.9493
0.4454 -13.3231 -2.5056 0.9472
1.6295 -13.2306 -2.5056 0.9472
3.9495 -12.7321 -2.5056 0.9472
5.0671 -12.3300 -2.5056 0.9472
7.8089 -10.1184 -2.4024 0.9493
9.4792 -8.5735 -2.4024 0.9493
10.4815 -6.5280 -2.3210 0.9510
10.4840 -5.2978 -2.2079 0.9533
10.4902 -2.1322 -2.0121 0.9574
12.9021 -0.2875 -2.4257 0.9488
12.8764 0.8620 -2.4257 0.9488
12.7486 2.0046 -2.4257 0.9488
12.5196 3.1314 -2.4257 0.9488
11.7660 5.3015 -2.4257 0.9488
10.6396 7.3037 -2.4257 0.9488
9.0879 8.9872 -2.4024 0.9493
8.2519 9.7604 -2.4024 0.9493
7.3505 10.4562 -2.4024 0.9493
4.5128 12.5435 -2.5056 0.9472
-0.1485 13.3298 -2.5056 0.9472
-3.5141 12.2896 -2.4025 0.9493
-4.5940 11.9280 -2.4025 0.9493
-7.1229 14.4947 -3.0356 0.9364
-5.5005 6.2195 -1.5606 0.9668
-10.4755 9.9077 -2.7102 0.9430
-14.1905 7.5723 -3.0233 0.9366
-15.3505 6.5092 -3.1340 0.9344
-17.2006 5.5465 -3.3970 0.9291
-5.6483 -5.3421 -1.4613 0.9689
-5.6129 -11.4220 -2.3921 0.9495
-3.5141 -12.2896 -2.4025 0.9493
-1.3343 -13.2636 -2.5056 0.9472
-0.1485 -13.3298 -2.5056 0.9472
5.6113 -12.0921 -2.5056 0.9472
7.3505 -10.4562 -2.4024 0.9493
8.2519 -9.7604 -2.4024 0.9493
10.4828 -5.8975 -2.2608 0.9522
10.4851 -4.7244 -2.1616 0.9543
10.4893 -2.6236 -2.0323 0.9569
12.9021 0.2875 -2.4257 0.9488
12.8253 1.4347 -2.4257 0.9488
12.3677 3.6860 -2.4257 0.9488
10.9544 6.8225 -2.4257 0.9488
10.2047 7.6957 -2.4024 0.9493
7.8090 10.1184 -2.4024 0.9493
6.8774 10.7732 -2.4024 0.9493
6.1444 11.8301 -2.5056 0.9472
0.4454 13.3231 -2.5056 0.9472
-0.7421 13.3099 -2.5056 0.9472
-2.9632 12.4339 -2.4025 0.9493
-5.1208 11.7116 -2.4025 0.9493
-5.5192 8.2352 -1.8634 0.9605
-9.0009 11.1406 -2.6920 0.9434
-11.2415 9.7209 -2.7934 0.9413
-11.9438 8.5966 -2.7660 0.9419
-14.7244 7.0333 -3.0671 0.9357
-15.9881 5.9540 -3.2068 0.9329
-18.9220 5.1833 -3.6876 0.9233
-5.6805 -4.9121 -1.5874 0.9698
-5.6017 -5.7922 -1.7033 0.9676
-5.6040 -6.9362 -1.8849 0.9642
-5.4623 -9.9674 -2.4025 0.9546
-4.5534 -10.4140 -2.4025 0.9546
-1.6403 -11.2470 -2.4025 0.9546
-0.6599 -11.8353 -2.5056 0.9527
0.3961 -11.8471 -2.5056 0.9527
4.5057 -10.9639 -2.5056 0.9527
5.4637 -10.5194 -2.5056 0.9527
6.3783 -9.9914 -2.5056 0.9527
7.7170 -8.3436 -2.4024 0.9546
8.4290 -7.6236 -2.4024 0.9546
9.0741 -6.8431 -2.4024 0.9546
11.4043 -1.2758 -2.4257 0.9542
11.4726 -0.2557 -2.4257 0.9542
11.4498 0.7665 -2.4257 0.9542
11.3362 1.7825 -2.4257 0.9542
11.1325 2.7844 -2.4257 0.9542
10.8405 3.7642 -2.4257 0.9542
10.3619 4.6689 -2.4024 0.9546
9.9053 5.5726 -2.4024 0.9546
9.3700 6.4321 -2.4024 0.9546
8.7603 7.2405 -2.4024 0.9546
8.0811 7.9915 -2.4024 0.9546
7.3377 8.6791 -2.4024 0.9546
5.9268 10.2656 -2.5056 0.9527
4.9896 10.7523 -2.5056 0.9527
4.0128 11.1538 -2.5056 0.9527
0.9234 11.8177 -2.5056 0.9527
-1.1865 11.7941 -2.5056 0.9527
-2.1397 11.1628 -2.4025 0.9546
-5.0128 10.2008 -2.4025 0.9546
-7.3642 12.1231 -2.9983 0.9437
-8.0620 10.9418 -2.8729 0.9459
-5.5077 6.2276 -1.7574 0.9666
-10.1651 9.6141 -2.9575 0.9444
-10.9978 8.6849 -2.9622 0.9443
-11.7990 7.7186 -2.9803 0.9440
-12.8778 6.8718 -3.0854 0.9421
-13.7426 5.8274 -3.1553 0.9408
-5.6102 -5.3061 -1.6323 0.9689
-5.6054 -7.6076 -1.9975 0.9621
-5.0128 -10.2008 -2.4025 0.9546
-4.0850 -10.6065 -2.4025 0.9546
-1.1865 -11.7941 -2.5056 0.9527
0.9234 -11.8177 -2.5056 0.9527
3.0041 -11.4667 -2.5056 0.9527
4.9896 -10.7523 -2.5056 0.9527
6.5361 -9.2977 -2.4024 0.9546
7.3377 -8.6791 -2.4024 0.9546
8.0811 -7.9915 -2.4024 0.9546
9.9053 -5.5726 -2.4024 0.9546
10.3619 -4.6689 -2.4024 0.9546
10.4872 -3.6416 -2.3466 0.9556
11.4726 0.2557 -2.4257 0.9542
11.4043 1.2758 -2.4257 0.9542
11.2455 2.2857 -2.4257 0.9542
10.9975 3.2776 -2.4257 0.9542
10.1437 5.1258 -2.4024 0.9546
9.0741 6.8431 -2.4024 0.9546
8.4290 7.6236 -2.4024 0.9546
7.7170 8.3436 -2.4024 0.9546
6.9438 8.9973 -2.4024 0.9546
5.4637 10.5194 -2.5056 0.9527
2.4904 11.5891 -2.5056 0.9527
1.4490 11.7648 -2.5056 0.9527
-0.6599 11.8353 -2.5056 0.9527
-1.6403 11.2470 -2.4025 0.9546
-4.5534 10.4140 -2.4025 0.9546
-7.7459 11.5577 -2.9410 0.9447
-9.5045 9.8276 -2.8900 0.9456
-5.6904 -4.0957 -1.6478 0.9716
-5.6017 -5.7922 -1.8938 0.9674
-5.6040 -6.9362 -2.0957 0.9640
-5.6069 -8.3660 -2.3669 0.9595
-4.0954 -9.3664 -2.4025 0.9589
-3.2455 -9.6937 -2.4025 0.9589
-0.5935 -10.6447 -2.5056 0.9571
0.3563 -10.6552 -2.5056 0.9571
4.0524 -9.8610 -2.5056 0.9571
4.9140 -9.4612 -2.5056 0.9571
5.7366 -8.9862 -2.5056 0.9571
6.4630 -8.3743 -2.4861 0.9575
7.5811 -6.8567 -2.4024 0.9589
8.1613 -6.1547 -2.4024 0.9589
8.6767 -5.4039 -2.4024 0.9589
9.4973 -3.7799 -2.4024 0.9589
10.0171 -2.0361 -2.4024 0.9589
10.1585 -1.1364 -2.4024 0.9589
9.9164 2.4803 -2.4024 0.9589
9.3195 4.1992 -2.4024 0.9589
8.9088 5.0120 -2.4024 0.9589
8.4273 5.7850 -2.4024 0.9589
7.8790 6.5121 -2.4024 0.9589
7.2681 7.1876 -2.4024 0.9589
1.7733 10.5127 -2.5056 0.9571
-1.0671 10.6077 -2.5056 0.9571
-2.8104 9.8287 -2.4025 0.9589
-3.6741 9.5395 -2.4025 0.9589
-4.5085 9.1746 -2.4025 0.9589
-7.5473 10.2433 -2.9903 0.9491
-10.1296 7.9993 -3.0335 0.9483
-11.7589 6.2747 -3.1325 0.9467
-17.9199 4.0601 -4.3183 0.9273
-5.5990 -4.4215 -1.6767 0.9711
-5.6008 -5.2972 -1.8118 0.9688
-5.6028 -6.3352 -1.9877 0.9658
-4.5086 -9.1746 -2.4025 0.9589
-2.8104 -9.8287 -2.4025 0.9589
-1.9245 -10.0398 -2.4025 0.9589
-1.0671 -10.6077 -2.5056 0.9571
0.8305 -10.6288 -2.5056 0.9571
1.7733 -10.5127 -2.5056 0.9571
3.6091 -10.0317 -2.5056 0.9571
4.4877 -9.6707 -2.5056 0.9571
6.5995 -7.8060 -2.4024 0.9589
7.2681 -7.1876 -2.4024 0.9589
10.1585 1.1364 -2.4024 0.9589
9.7961 2.9196 -2.4024 0.9589
9.1232 4.6102 -2.4024 0.9589
8.6767 5.4039 -2.4024 0.9589
7.5811 6.8567 -2.4024 0.9589
6.4630 8.3743 -2.4861 0.9575
5.7366 8.9862 -2.5056 0.9571
3.1587 10.1826 -2.5056 0.9571
-0.5935 10.6447 -2.5056 0.9571
-2.3698 9.9441 -2.4025 0.9589
-3.2455 9.6937 -2.4025 0.9589
-7.2000 10.7431 -3.0395 0.9482
-7.9699 9.8645 -2.9805 0.9492
-9.7561 8.4364 -3.0313 0.9484
-5.5009 3.9593 -1.5929 0.9725
-12.1418 5.7996 -3.1624 0.9462
-15.4346 4.2280 -3.7611 0.9364
-5.9639 -2.2210 -1.6478 0.9740
-5.7426 -2.7430 -1.6478 0.9740
-5.5968 -3.3150 -1.6842 0.9735
-5.5982 -4.0294 -1.7859 0.9719
-5.5999 -4.8424 -1.9168 0.9699
-2.1511 -9.0264 -2.4025 0.9624
-1.3966 -9.5760 -2.5056 0.9608
-0.5388 -9.6623 -2.5056 0.9608
0.3234 -9.6719 -2.5056 0.9608
1.1829 -9.6047 -2.5056 0.9608
2.0331 -9.4613 -2.5056 0.9608
2.8672 -9.2428 -2.5056 0.9608
3.6784 -8.9510 -2.5056 0.9608
4.4605 -8.5880 -2.5056 0.9608
5.9125 -7.6611 -2.5056 0.9608
6.4630 -6.9877 -2.4645 0.9614
6.8814 -6.2239 -2.4024 0.9624
7.4081 -5.5867 -2.4024 0.9624
7.8759 -4.9052 -2.4024 0.9624
9.2762 -0.2067 -2.4024 0.9624
9.2578 0.6197 -2.4024 0.9624
9.1659 1.4413 -2.4024 0.9624
8.7651 3.0436 -2.4024 0.9624
8.4595 3.8117 -2.4024 0.9624
7.6496 5.2512 -2.4024 0.9624
7.1519 5.9112 -2.4024 0.9624
6.5974 6.5243 -2.4024 0.9624
6.2479 7.3901 -2.5056 0.9608
3.2760 9.1059 -2.5056 0.9608
0.7539 9.6479 -2.5056 0.9608
-1.7469 9.1132 -2.4025 0.9624
-2.5511 8.9216 -2.4025 0.9624
-4.0925 8.3279 -2.4025 0.9624
-4.8175 7.9306 -2.4025 0.9624
-8.6265 8.1589 -3.0743 0.9521
-9.3867 7.4126 -3.0968 0.9518
-10.2063 6.6766 -3.1578 0.9509
-10.8753 5.8032 -3.1916 0.9503
-11.7445 4.9801 -3.3030 0.9487
-12.8751 4.1517 -3.5026 0.9456
-5.5975 -3.6617 -1.7319 0.9727
-5.5990 -4.4215 -1.8472 0.9710
-5.6008 -5.2972 -1.9960 0.9686
-5.5042 -7.4704 -2.4025 0.9624
-4.0925 -8.3279 -2.4025 0.9624
-1.7469 -9.1132 -2.4025 0.9624
-0.9687 -9.6287 -2.5056 0.9608
1.6096 -9.5425 -2.5056 0.9608
6.2479 -7.3901 -2.5056 0.9608
6.7821 -3.0559 -1.9260 0.9697
9.0013 -2.2514 -2.4024 0.9624
9.1659 -1.4413 -2.4024 0.9624
9.2762 0.2067 -2.4024 0.9624
9.2210 1.0315 -2.4024 0.9624
9.0926 1.8482 -2.4024 0.9624
8.8920 2.6501 -2.4024 0.9624
7.4081 5.5867 -2.4024 0.9624
6.8814 6.2239 -2.4024 0.9624
6.4630 6.9877 -2.4645 0.9614
5.9125 7.6611 -2.5056 0.9608
4.4605 8.5880 -2.5056 0.9608
3.6784 8.9510 -2.5056 0.9608
2.8672 9.2428 -2.5056 0.9608
2.0331 9.4613 -2.5056 0.9608
1.1829 9.6047 -2.5056 0.9608
0.3234 9.6719 -2.5056 0.9608
-0.5388 9.6623 -2.5056 0.9608
-1.3966 9.5760 -2.5056 0.9608
-4.4594 8.1374 -2.4025 0.9624
-9.8001 7.0537 -3.1264 0.9513
-5.5011 2.6276 -1.5785 0.9751
-13.5168 3.7026 -3.6287 0.9437
-5.5016 -0.0000 -1.5575 0.9774
-5.5018 -0.9912 -1.5826 0.9770
-5.5999 -4.8424 -2.0958 0.9697
-5.3335 -6.6014 -2.4025 0.9653
-4.0786 -7.4425 -2.4025 0.9653
-1.2774 -8.7582 -2.5056 0.9639
0.2958 -8.8460 -2.5056 0.9639
1.0819 -8.7845 -2.5056 0.9639
3.3643 -8.1866 -2.5056 0.9639
4.0796 -7.8546 -2.5056 0.9639
5.4076 -7.0069 -2.5056 0.9639
6.0098 -6.4978 -2.5056 0.9639
6.4630 -5.8454 -2.4670 0.9644
8.1327 -2.4238 -2.4024 0.9653
8.3161 -1.6903 -2.4024 0.9653
8.4841 -0.1891 -2.4024 0.9653
8.4672 0.5668 -2.4024 0.9653
8.3832 1.3182 -2.4024 0.9653
8.2326 2.0591 -2.4024 0.9653
8.0166 2.7837 -2.4024 0.9653
7.7371 3.4862 -2.4024 0.9653
7.3961 4.1610 -2.4024 0.9653
6.9964 4.8027 -2.4024 0.9653
6.5411 5.4064 -2.4024 0.9653
6.2933 6.2236 -2.5056 0.9639
5.7144 6.7590 -2.5056 0.9639
4.4255 7.6651 -2.5056 0.9639
0.6895 8.8240 -2.5056 0.9639
-0.0986 8.8504 -2.5056 0.9639
-4.4061 7.2534 -2.4025 0.9653
-7.9526 7.5215 -3.0988 0.9555
-8.7893 6.9409 -3.1705 0.9545
-11.9505 3.8536 -3.5546 0.9491
-5.5014 1.2464 -1.5969 0.9768
-5.5015 0.7398 -1.5715 0.9772
-5.5016 0.2453 -1.5590 0.9774
-5.5017 -0.7399 -1.5715 0.9772
-5.6915 -1.8353 -1.6929 0.9754
-5.5962 -2.9862 -1.7957 0.9740
-5.5975 -3.6617 -1.8936 0.9726
-5.5990 -4.4215 -2.0197 0.9708
-5.0342 -6.8324 -2.4025 0.9653
-4.4061 -7.2534 -2.4025 0.9653
-3.0502 -7.9197 -2.4025 0.9653
-2.3332 -8.1597 -2.4025 0.9653
-0.8859 -8.8065 -2.5056 0.9639
-0.0986 -8.8504 -2.5056 0.9639
0.6895 -8.8240 -2.5056 0.9639
2.9963 -8.3283 -2.5056 0.9639
3.7256 -8.0286 -2.5056 0.9639
5.0901 -7.2408 -2.5056 0.9639
5.7144 -6.7590 -2.5056 0.9639
6.2933 -6.2236 -2.5056 0.9639
6.5411 -5.4064 -2.4024 0.9653
6.9964 -4.8027 -2.4024 0.9653
6.7821 -3.0559 -2.1059 0.9695
8.2326 -2.0591 -2.4024 0.9653
8.3832 -1.3182 -2.4024 0.9653
8.4841 0.1891 -2.4024 0.9653
8.4336 0.9434 -2.4024 0.9653
8.1327 2.4238 -2.4024 0.9653
7.8847 3.1380 -2.4024 0.9653
7.5741 3.8273 -2.4024 0.9653
6.7755 5.1096 -2.4024 0.9653
6.0098 6.4977 -2.5056 0.9639
5.4076 7.0069 -2.5056 0.9639
4.7625 7.4604 -2.5056 0.9639
3.3643 8.1866 -2.5056 0.9639
2.6223 8.4535 -2.5056 0.9639
1.8595 8.6534 -2.5056 0.9639
0.2958 8.8460 -2.5056 0.9639
-1.2774 8.7582 -2.5056 0.9639
-4.0786 7.4425 -2.4025 0.9653
-7.5868 7.8447 -3.0895 0.9556
-9.1454 6.5825 -3.1899 0.9542
-11.4554 4.2661 -3.4605 0.9505
-12.5499 3.4378 -3.6837 0.9473
-18.9184 -1.6906 -5.8421 0.9236
-5.5956 -2.6728 -1.9073 0.9744
-5.5968 -3.3150 -2.0008 0.9731
-5.5982 -4.0294 -2.1215 0.9715
-5.5999 -4.8424 -2.2771 0.9695
-5.4302 -5.6148 -2.4025 0.9678
-4.9089 -6.0759 -2.4025 0.9678
-3.7539 -6.8500 -2.4025 0.9678
-3.1293 -7.1569 -2.4025 0.9678
-2.4799 -7.4070 -2.4025 0.9678
-1.8108 -7.5984 -2.4025 0.9678
-1.1757 -8.0610 -2.5056 0.9665
-0.4535 -8.1337 -2.5056 0.9665
0.9958 -8.0852 -2.5056 0.9665
1.7115 -7.9645 -2.5056 0.9665
2.4136 -7.7805 -2.5056 0.9665
3.0965 -7.5349 -2.5056 0.9665
3.7548 -7.2293 -2.5056 0.9665
4.3834 -6.8664 -2.5056 0.9665
4.9771 -6.4491 -2.5056 0.9665
5.5314 -5.9805 -2.5056 0.9665
6.4630 -4.8740 -2.4898 0.9667
6.9711 -3.5227 -2.4024 0.9678
7.4853 -2.2308 -2.4024 0.9678
7.6541 -1.5558 -2.4024 0.9678
7.7622 -0.8683 -2.4024 0.9678
7.7932 0.5217 -2.4024 0.9678
7.5772 1.8952 -2.4024 0.9678
7.1211 3.2086 -2.4024 0.9678
6.8073 3.8297 -2.4024 0.9678
6.4726 4.4432 -2.4148 0.9677
6.2791 5.1898 -2.5056 0.9665
5.7923 5.7281 -2.5056 0.9665
4.6849 6.6644 -2.5056 0.9665
4.0732 7.0549 -2.5056 0.9665
2.7578 7.6653 -2.5056 0.9665
2.0646 7.8803 -2.5056 0.9665
1.3550 8.0328 -2.5056 0.9665
0.6346 8.1215 -2.5056 0.9665
-0.0908 8.1458 -2.5056 0.9665
-0.8154 8.1054 -2.5056 0.9665
-2.8074 7.2892 -2.4025 0.9678
-4.6334 6.2885 -2.4025 0.9678
-8.2548 6.5187 -3.2352 0.9569
-5.5014 1.2464 -1.7350 0.9767
-5.5975 -3.6617 -2.0573 0.9724
-5.6008 -5.2972 -2.3711 0.9683
-3.4450 -7.0104 -2.4025 0.9678
-2.1475 -7.5101 -2.4025 0.9678
-0.0907 -8.1458 -2.5056 0.9665
0.6346 -8.1215 -2.5056 0.9665
3.4291 -7.3895 -2.5056 0.9665
4.6849 -6.6644 -2.5056 0.9665
5.2595 -6.2210 -2.5056 0.9665
6.4726 -4.4432 -2.4148 0.9677
6.8073 -3.8297 -2.4024 0.9678
6.7821 -3.0559 -2.2880 0.9693
7.8087 0.1740 -2.4024 0.9678
7.7622 0.8683 -2.4024 0.9678
7.6541 1.5558 -2.4024 0.9678
7.4853 2.2308 -2.4024 0.9678
7.2570 2.8882 -2.4024 0.9678
6.6299 4.1292 -2.4024 0.9678
6.4630 4.8740 -2.4898 0.9667
5.5314 5.9805 -2.5056 0.9665
4.3834 6.8664 -2.5056 0.9665
2.4136 7.7806 -2.5056 0.9665
0.2722 8.1418 -2.5056 0.9665
-1.8108 7.5984 -2.4025 0.9678
-3.1293 7.1569 -2.4025 0.9678
-4.3487 6.4887 -2.4025 0.9678
-4.9089 6.0759 -2.4025 0.9678
-5.4302 5.6148 -2.4025 0.9678
-7.8669 6.8028 -3.1989 0.9574
-9.2387 5.4721 -3.3027 0.9561
-10.0016 4.7774 -3.4092 0.9547
-10.7823 4.0154 -3.5389 0.9530
-11.7972 3.2316 -3.7622 0.9501
-14.1512 2.5495 -4.4227 0.9416
-18.5722 0.0000 -6.1735 0.9247
-5.5968 -3.3150 -2.1623 0.9730
-5.5982 -4.0294 -2.2928 0.9713
-5.4671 -4.7276 -2.4025 0.9700
-4.5423 -5.6221 -2.4025 0.9700
-4.0239 -6.0040 -2.4025 0.9700
-2.8956 -6.6224 -2.4025 0.9700
-2.2947 -6.8538 -2.4025 0.9700
-1.6755 -7.0309 -2.4025 0.9700
-1.0879 -7.4589 -2.5056 0.9687
0.2519 -7.5337 -2.5056 0.9687
2.8652 -6.9721 -2.5056 0.9687
3.4744 -6.6894 -2.5056 0.9687
4.6054 -5.9674 -2.5056 0.9687
6.0183 -4.5386 -2.5056 0.9687
6.4736 -3.2713 -2.4110 0.9699
6.7150 -2.6725 -2.4024 0.9700
6.9262 -2.0642 -2.4024 0.9700
7.2255 -0.1610 -2.4024 0.9700
7.0113 1.7536 -2.4024 0.9700
6.8274 2.3707 -2.4024 0.9700
5.8102 4.8022 -2.5056 0.9687
5.3597 5.3003 -2.5056 0.9687
4.8667 5.7563 -2.5056 0.9687
3.7689 6.5280 -2.5056 0.9687
3.1729 6.8375 -2.5056 0.9687
2.5518 7.0928 -2.5056 0.9687
1.2538 7.4329 -2.5056 0.9687
0.5872 7.5150 -2.5056 0.9687
-2.5977 6.7448 -2.4025 0.9700
-3.1877 6.4868 -2.4025 0.9700
-4.2873 5.8188 -2.4025 0.9700
-7.7717 6.1372 -3.2917 0.9591
-8.4001 5.4951 -3.3366 0.9586
-9.1157 4.8643 -3.4345 0.9574
-9.8201 4.1641 -3.5456 0.9560
-5.5014 1.2464 -1.8750 0.9765
-15.8882 2.1368 -5.3289 0.9347
-5.5088 0.2456 -1.8330 0.9770
-18.8012 -2.5286 -6.3059 0.9231
-5.6915 -1.8353 -1.9878 0.9751
-5.5962 -2.9862 -2.1085 0.9736
-5.5990 -4.4215 -2.3715 0.9704
-4.7882 -5.4141 -2.4025 0.9700
-3.7524 -6.1773 -2.4025 0.9700
-1.9871 -6.9492 -2.4025 0.9700
-0.0840 -7.5374 -2.5056 0.9687
0.5872 -7.5150 -2.5056 0.9687
1.9104 -7.2918 -2.5056 0.9687
2.5518 -7.0928 -2.5056 0.9687
3.1729 -6.8375 -2.5056 0.9687
4.3350 -6.1666 -2.5056 0.9687
4.8667 -5.7563 -2.5056 0.9687
6.5893 -2.9690 -2.4024 0.9700
6.8274 -2.3707 -2.4024 0.9700
7.1395 -1.1226 -2.4024 0.9700
7.1824 0.8035 -2.4024 0.9700
6.7150 2.6725 -2.4024 0.9700
6.4736 3.2713 -2.4110 0.9699
6.3984 3.9850 -2.5056 0.9687
6.0183 4.5386 -2.5056 0.9687
5.1183 5.5338 -2.5056 0.9687
4.6054 5.9674 -2.5056 0.9687
4.0560 6.3536 -2.5056 0.9687
2.2333 7.1995 -2.5056 0.9687
0.2519 7.5337 -2.5056 0.9687
-0.4197 7.5262 -2.5056 0.9687
-1.0879 7.4590 -2.5056 0.9687
-1.6755 7.0308 -2.4025 0.9700
-2.8956 6.6224 -2.4025 0.9700
-4.0239 6.0040 -2.4025 0.9700
-4.5423 5.6221 -2.4025 0.9700
-5.0247 5.1955 -2.4025 0.9700
-5.4671 4.7276 -2.4025 0.9700
-8.7588 5.1878 -3.3838 0.9580
-9.4699 4.5234 -3.4885 0.9567
-5.5084 2.0513 -1.9539 0.9755
-11.1185 3.0457 -3.8320 0.9526
-5.5956 -2.6728 -2.2176 0.9740
-5.0819 -4.3945 -2.4025 0.9719
-4.6706 -4.8293 -2.4025 0.9719
-3.2287 -5.8917 -2.4025 0.9719
-2.1330 -6.3708 -2.4025 0.9719
-1.5848 -6.6499 -2.4447 0.9714
0.2341 -7.0027 -2.5056 0.9707
1.4720 -6.8503 -2.5056 0.9707
2.0759 -6.6921 -2.5056 0.9707
3.7702 -5.9058 -2.5056 0.9707
5.5942 -4.2188 -2.5056 0.9707
5.9475 -3.7041 -2.5056 0.9707
6.2536 -3.1601 -2.5056 0.9707
6.4725 -1.9290 -2.4152 0.9717
6.5833 -1.3381 -2.4024 0.9719
6.6765 -0.7469 -2.4025 0.9719
6.7163 -0.1497 -2.4024 0.9719
6.6364 1.0435 -2.4024 0.9719
6.5172 1.6301 -2.4024 0.9719
6.4643 2.2446 -2.4471 0.9713
6.3881 2.8784 -2.5056 0.9707
5.4007 4.4638 -2.5056 0.9707
3.5033 6.0679 -2.5056 0.9707
2.3720 6.5929 -2.5056 0.9707
-2.4146 6.2695 -2.4025 0.9719
-2.9631 6.0297 -2.4025 0.9719
-3.9852 5.4088 -2.4025 0.9719
-5.2726 4.1637 -2.4025 0.9719
-7.9849 5.2235 -3.4122 0.9603
-10.0627 3.2448 -3.7809 0.9561
-5.5014 1.2464 -2.0172 0.9763
-13.0995 1.7617 -4.7266 0.9454
-18.5303 -0.8263 -6.6332 0.9242
-18.6328 -2.5059 -6.7233 0.9232
-5.2726 -4.1637 -2.4025 0.9719
-4.8811 -4.6165 -2.4025 0.9719
-3.9852 -5.4088 -2.4025 0.9719
-1.8470 -6.4595 -2.4025 0.9719
-0.7013 -6.9715 -2.5056 0.9707
-0.0781 -7.0062 -2.5056 0.9707
2.3719 -6.5929 -2.5056 0.9707
3.5033 -6.0679 -2.5056 0.9707
4.0295 -5.7321 -2.5056 0.9707
4.9820 -4.9268 -2.5056 0.9707
5.7766 -3.9654 -2.5056 0.9707
6.4643 -2.2446 -2.4471 0.9713
6.5172 -1.6300 -2.4024 0.9719
6.6364 -1.0435 -2.4024 0.9719
6.7029 -0.4487 -2.4024 0.9719
6.7163 0.1497 -2.4024 0.9719
6.5833 1.3381 -2.4024 0.9719
6.4725 1.9290 -2.4152 0.9717
4.2808 5.5469 -2.5056 0.9707
3.7702 5.9059 -2.5056 0.9707
2.0759 6.6921 -2.5056 0.9707
1.4720 6.8503 -2.5056 0.9707
-1.0112 6.9333 -2.5056 0.9707
-2.1330 6.3708 -2.4025 0.9719
-3.7403 5.5809 -2.4025 0.9719
-5.0819 4.3945 -2.4025 0.9719
-5.5944 -2.0834 -2.2877 0.9748
-5.5956 -2.6728 -2.3764 0.9738
-5.3942 -3.1950 -2.4025 0.9735
-5.0884 -3.6624 -2.4025 0.9735
-3.0129 -5.4979 -2.4025 0.9735
-2.5116 -5.7443 -2.4025 0.9735
-1.9904 -5.9450 -2.4025 0.9735
-0.3640 -6.5282 -2.5056 0.9724
0.2185 -6.5347 -2.5056 0.9724
1.9372 -6.2448 -2.5056 0.9724
2.4853 -6.0476 -2.5056 0.9724
3.0137 -5.8024 -2.5056 0.9724
3.9947 -5.1762 -2.5056 0.9724
5.2203 -3.9368 -2.5056 0.9724
5.8356 -2.9489 -2.5056 0.9724
6.0749 -2.4178 -2.5056 0.9724
6.2660 -1.8675 -2.5056 0.9724
6.4074 -1.3024 -2.5056 0.9724
6.4630 -0.7230 -2.4922 0.9725
6.4630 0.4326 -2.4823 0.9726
6.3430 1.5865 -2.5056 0.9724
6.1766 2.1448 -2.5056 0.9724
5.9612 2.6860 -2.5056 0.9724
5.0398 4.1655 -2.5056 0.9724
1.0875 6.4473 -2.5056 0.9724
-0.6545 6.5056 -2.5056 0.9724
-2.2533 5.8505 -2.4025 0.9735
-3.2549 5.3582 -2.4025 0.9735
-4.1533 4.6963 -2.4025 0.9735
-4.5549 4.3079 -2.4025 0.9735
-5.5312 2.9515 -2.4025 0.9735
-5.5080 2.3356 -2.2927 0.9747
-5.5014 1.2464 -2.1617 0.9761
-5.5950 -2.3725 -2.3289 0.9743
-5.2465 -3.4321 -2.4025 0.9735
-4.9202 -3.8854 -2.4025 0.9735
-4.5549 -4.3079 -2.4025 0.9735
-4.1533 -4.6962 -2.4025 0.9735
-3.7189 -5.0473 -2.4025 0.9735
-3.2549 -5.3583 -2.4025 0.9735
-0.6545 -6.5055 -2.5056 0.9724
1.6571 -6.3249 -2.5056 0.9724
2.7522 -5.9309 -2.5056 0.9724
3.2692 -5.6624 -2.5056 0.9724
3.7602 -5.3490 -2.5056 0.9724
4.6490 -4.5975 -2.5056 0.9724
5.3905 -3.7004 -2.5056 0.9724
5.9612 -2.6860 -2.5056 0.9724
6.4590 -1.0156 -2.5056 0.9724
6.4630 -0.4327 -2.4823 0.9726
6.4630 0.1440 -2.4773 0.9727
6.2660 1.8675 -2.5056 0.9724
5.8356 2.9489 -2.5056 0.9724
5.5500 3.4566 -2.5056 0.9724
3.9948 5.1761 -2.5056 0.9724
2.4853 6.0476 -2.5056 0.9724
1.3737 6.3925 -2.5056 0.9724
0.7992 6.4894 -2.5056 0.9724
0.2185 6.5347 -2.5056 0.9724
-0.3640 6.5283 -2.5056 0.9724
-1.5157 6.3603 -2.5056 0.9724
-1.9904 5.9450 -2.4025 0.9735
-3.0129 5.4979 -2.4025 0.9735
-4.3584 4.5066 -2.4025 0.9735
-4.7422 4.1008 -2.4025 0.9735
-5.0884 3.6624 -2.4025 0.9735
-8.5351 4.0769 -3.6248 0.9603
-9.1569 3.4101 -3.7445 0.9590
-14.1672 1.2660 -5.4508 0.9409
-17.9727 0.0000 -7.3558 0.9253
-5.5011 -2.0487 -2.4025 0.9749
-5.2970 -2.5302 -2.4025 0.9749
-4.7644 -3.4292 -2.4025 0.9749
-4.4403 -3.8397 -2.4025 0.9749
-2.8211 -5.1479 -2.4025 0.9749
-2.3517 -5.3786 -2.4025 0.9749
-1.8637 -5.5665 -2.4025 0.9749
-0.3408 -6.1126 -2.5056 0.9739
0.2046 -6.1187 -2.5056 0.9739
0.7484 -6.0762 -2.5056 0.9739
1.8138 -5.8472 -2.5056 0.9739
2.3271 -5.6626 -2.5056 0.9739
3.7404 -4.8466 -2.5056 0.9739
4.1570 -4.4945 -2.5056 0.9739
4.8880 -3.6862 -2.5056 0.9739
5.4641 -2.7611 -2.5056 0.9739
5.8671 -1.7486 -2.5056 0.9739
5.9994 -1.2195 -2.5056 0.9739
6.0842 -0.6806 -2.5056 0.9739
6.1206 -0.1364 -2.5056 0.9739
6.0478 0.9510 -2.5056 0.9739
5.9392 1.4855 -2.5056 0.9739
5.7834 2.0082 -2.5056 0.9739
3.9526 4.6752 -2.5056 0.9739
2.5770 5.5533 -2.5056 0.9739
1.5516 5.9222 -2.5056 0.9739
1.0183 6.0368 -2.5056 0.9739
-0.6128 6.0913 -2.5056 0.9739
-1.6139 5.6440 -2.4025 0.9749
-3.0476 5.0171 -2.4025 0.9749
-3.4821 4.7259 -2.4025 0.9749
-4.2649 4.0337 -2.4025 0.9749
-4.6070 3.6381 -2.4025 0.9749
-4.9125 3.2136 -2.4025 0.9749
-5.4044 2.2917 -2.4025 0.9749
-1.6146 0.3658 -0.6776 0.9929
-18.2413 0.8134 -7.4731 0.9241
-1.6301 -0.2192 -0.6732 0.9929
-1.6146 -0.3658 -0.6776 0.9929
-1.5889 -0.5124 -0.6833 0.9928
-5.1790 -2.7636 -2.4025 0.9749
-4.9125 -3.2136 -2.4025 0.9749
-4.2649 -4.0337 -2.4025 0.9749
-2.1098 -5.4780 -2.4025 0.9749
-1.6139 -5.6440 -2.4025 0.9749
-0.6128 -6.0913 -2.5056 0.9739
0.4769 -6.1035 -2.5056 0.9739
1.0183 -6.0368 -2.5056 0.9739
1.5516 -5.9222 -2.5056 0.9739
2.0725 -5.7606 -2.5056 0.9739
3.5208 -5.0084 -2.5056 0.9739
4.3530 -4.3048 -2.5056 0.9739
5.0473 -3.4648 -2.5056 0.9739
5.3357 -3.0018 -2.5056 0.9739
5.7834 -2.0082 -2.5056 0.9739
5.9392 -1.4855 -2.5056 0.9739
6.1084 -0.4089 -2.5056 0.9739
5.9994 1.2194 -2.5056 0.9739
5.6882 2.2638 -2.5056 0.9739
5.4641 2.7611 -2.5056 0.9739
4.5405 4.1066 -2.5056 0.9739
3.7404 4.8466 -2.5056 0.9739
3.2942 5.1603 -2.5056 0.9739
2.3271 5.6626 -2.5056 0.9739
1.8138 5.8472 -2.5056 0.9739
0.2046 6.1187 -2.5056 0.9739
-1.4192 5.9553 -2.5056 0.9739
-2.8211 5.1479 -2.4025 0.9749
-3.2681 4.8764 -2.4025 0.9749
-3.6892 4.5661 -2.4025 0.9749
-4.0809 4.2197 -2.4025 0.9749
-4.7644 3.4292 -2.4025 0.9749
-5.2970 2.5302 -2.4025 0.9749
-5.5011 2.0487 -2.4025 0.9749
-1.6035 0.4392 -0.6804 0.9928
-1.6390 0.1465 -0.6735 0.9929
-1.5266 0.0000 -0.6653 0.9934
-1.5215 -0.1360 -0.6657 0.9934
-1.5015 -0.2705 -0.6649 0.9934
-5.1661 -1.9239 -2.4025 0.9762
-4.9744 -2.3761 -2.4025 0.9762
-4.7432 -2.8094 -2.4025 0.9762
-4.4743 -3.2204 -2.4025 0.9762
-4.1699 -3.6059 -2.4025 0.9762
-3.8324 -3.9627 -2.4025 0.9762
-3.4645 -4.2880 -2.4025 0.9762
-3.0691 -4.5794 -2.4025 0.9762
-2.6493 -4.8344 -2.4025 0.9762
-1.7502 -5.2275 -2.4025 0.9762
-1.3328 -5.5927 -2.5056 0.9752
-0.8297 -5.6891 -2.5056 0.9752
0.7028 -5.7062 -2.5056 0.9752
2.6500 -5.1021 -2.5056 0.9752
3.5126 -4.5514 -2.5056 0.9752
3.9038 -4.2207 -2.5056 0.9752
4.5903 -3.4617 -2.5056 0.9752
4.8802 -3.0394 -2.5056 0.9752
5.7136 -0.6392 -2.5056 0.9752
5.7478 -0.1281 -2.5056 0.9752
5.7364 0.3840 -2.5056 0.9752
5.6795 0.8931 -2.5056 0.9752
5.4312 1.8859 -2.5056 0.9752
5.2417 2.3618 -2.5056 0.9752
5.0107 2.8190 -2.5056 0.9752
4.7399 3.2538 -2.5056 0.9752
3.7119 4.3904 -2.5056 0.9752
3.3064 4.7034 -2.5056 0.9752
2.8746 4.9790 -2.5056 0.9752
2.4201 5.2151 -2.5056 0.9752
1.4571 5.5616 -2.5056 0.9752
0.9563 5.6692 -2.5056 0.9752
0.4479 5.7318 -2.5056 0.9752
-0.0640 5.7489 -2.5056 0.9752
-0.5755 5.7204 -2.5056 0.9752
-1.9813 5.1444 -2.4025 0.9762
-2.8620 4.7116 -2.4025 0.9762
-3.6521 4.1295 -2.4025 0.9762
-4.3264 3.4165 -2.4025 0.9762
-4.6133 3.0179 -2.4025 0.9762
-5.0753 2.1521 -2.4025 0.9762
-1.5133 0.2035 -0.6654 0.9934
-1.5259 0.0680 -0.6657 0.9934
-1.5259 -0.0680 -0.6657 0.9934
-1.5029 -0.3405 -0.6716 0.9933
-1.4861 -0.4792 -0.6805 0.9932
-4.8636 -2.5953 -2.4025 0.9762
-4.6133 -3.0179 -2.4025 0.9762
-4.3264 -3.4165 -2.4025 0.9762
-4.0051 -3.7880 -2.4025 0.9762
-3.2700 -4.4381 -2.4025 0.9762
-2.4313 -4.9476 -2.4025 0.9762
-1.9813 -5.1444 -2.4025 0.9762
-1.5806 -5.5277 -2.5056 0.9752
-0.0640 -5.7489 -2.5056 0.9752
0.4479 -5.7318 -2.5056 0.9752
0.9563 -5.6692 -2.5056 0.9752
1.9463 -5.4098 -2.5056 0.9752
2.4201 -5.2151 -2.5056 0.9752
2.8746 -4.9790 -2.5056 0.9752
3.3064 -4.7034 -2.5056 0.9752
4.0879 -4.0426 -2.5056 0.9752
5.6795 -0.8931 -2.5056 0.9752
5.7364 -0.3840 -2.5056 0.9752
5.6341 1.1452 -2.5056 0.9752
5.5098 1.6421 -2.5056 0.9752
5.3418 2.1260 -2.5056 0.9752
4.5903 3.4617 -2.5056 0.9752
4.2640 3.8565 -2.5056 0.9752
1.7034 5.4911 -2.5056 0.9752
1.2079 5.6210 -2.5056 0.9752
0.7028 5.7062 -2.5056 0.9752
0.1921 5.7461 -2.5056 0.9752
-0.3201 5.7403 -2.5056 0.9752
-0.8297 5.6891 -2.5056 0.9752
-1.7502 5.2275 -2.4025 0.9762
-2.2085 5.0510 -2.4025 0.9762
-2.6493 4.8344 -2.4025 0.9762
-3.0691 4.5794 -2.4025 0.9762
-3.4645 4.2881 -2.4025 0.9762
-3.8324 3.9627 -2.4025 0.9762
-4.7432 2.8094 -2.4025 0.9762
-5.1661 1.9239 -2.4025 0.9762
-1.5215 0.1360 -0.6657 0.9934
-1.4219 0.0000 -0.6582 0.9938
-1.3993 -0.2521 -0.6581 0.9938
-1.3946 -0.3820 -0.6693 0.9936
-4.8640 -1.8114 -2.4025 0.9774
-4.4658 -2.6451 -2.4025 0.9774
-4.2126 -3.0321 -2.4025 0.9774
-3.6083 -3.7310 -2.4025 0.9774
-3.2619 -4.0373 -2.4025 0.9774
-2.8896 -4.3116 -2.4025 0.9774
-2.4944 -4.5517 -2.4025 0.9774
-2.0794 -4.7556 -2.4025 0.9774
0.1809 -5.4101 -2.5056 0.9764
0.6617 -5.3725 -2.5056 0.9764
1.6038 -5.1700 -2.5056 0.9764
2.9127 -4.5627 -2.5056 0.9764
3.3072 -4.2853 -2.5056 0.9764
4.3219 -3.2593 -2.5056 0.9764
4.5948 -2.8617 -2.5056 0.9764
4.8313 -2.4413 -2.5056 0.9764
5.1136 1.7756 -2.5056 0.9764
4.7177 2.6541 -2.5056 0.9764
4.4628 3.0635 -2.5056 0.9764
4.1724 3.4486 -2.5056 0.9764
3.8489 3.8062 -2.5056 0.9764
3.1130 4.4284 -2.5056 0.9764
2.2785 4.9102 -2.5056 0.9764
1.8325 5.0935 -2.5056 0.9764
0.9004 5.3377 -2.5056 0.9764
0.4217 5.3966 -2.5056 0.9764
-0.0603 5.4127 -2.5056 0.9764
-1.4882 5.2045 -2.5056 0.9764
-1.8655 4.8436 -2.4025 0.9774
-2.2891 4.6583 -2.4025 0.9774
-2.6947 4.4361 -2.4025 0.9774
-2.2101 2.9996 -1.7247 0.9837
-3.7709 3.5665 -2.4025 0.9774
-4.3435 2.8414 -2.4025 0.9774
-4.5792 2.4435 -2.4025 0.9774
-4.7785 2.0263 -2.4025 0.9774
-1.3890 0.4479 -0.6755 0.9936
-1.3967 0.3165 -0.6629 0.9937
-1.4099 0.1896 -0.6585 0.9937
-1.4212 0.0634 -0.6585 0.9937
-1.4212 -0.0634 -0.6585 0.9937
-1.3890 -0.4479 -0.6755 0.9936
-4.7785 -2.0262 -2.4025 0.9774
-4.3435 -2.8414 -2.4025 0.9774
-4.0734 -3.2167 -2.4025 0.9774
-3.7709 -3.5665 -2.4025 0.9774
-3.0788 -4.1786 -2.4025 0.9774
-2.6947 -4.4361 -2.4025 0.9774
-2.2892 -4.6583 -2.4025 0.9774
-1.8655 -4.8435 -2.4025 0.9774
-0.5418 -5.3859 -2.5056 0.9764
0.9004 -5.3377 -2.5056 0.9764
1.3719 -5.2364 -2.5056 0.9764
3.1130 -4.4284 -2.5056 0.9764
3.4948 -4.1337 -2.5056 0.9764
3.8489 -3.8062 -2.5056 0.9764
4.1724 -3.4486 -2.5056 0.9764
4.4628 -3.0635 -2.5056 0.9764
4.9352 -2.2237 -2.5056 0.9764
5.1136 -1.7756 -2.5056 0.9764
5.2513 -1.3134 -2.5056 0.9764
5.3474 -0.8408 -2.5056 0.9764
5.3046 1.0782 -2.5056 0.9764
5.1876 1.5461 -2.5056 0.9764
4.5948 2.8617 -2.5056 0.9764
2.4950 4.8038 -2.5056 0.9764
1.6038 5.1700 -2.5056 0.9764
-2.0794 4.7556 -2.4025 0.9774
-2.0743 3.0951 -1.7247 0.9837
-3.2619 4.0373 -2.4025 0.9774
-3.9261 3.3950 -2.4025 0.9774
-4.4658 2.6451 -2.4025 0.9774
-4.6835 2.2371 -2.4025 0.9774
-4.8640 1.8114 -2.4025 0.9774
-1.4172 0.1266 -0.6586 0.9937
-1.3367 0.0000 -0.6557 0.9941
-1.3061 -0.3578 -0.6642 0.9940
-3.4050 -3.5207 -2.4025 0.9784
-3.0781 -3.8098 -2.4025 0.9784
-2.3538 -4.2952 -2.4025 0.9784
-1.5841 -4.7315 -2.4475 0.9780
0.1707 -5.1052 -2.5056 0.9775
0.6244 -5.0698 -2.5056 0.9775
1.0732 -4.9941 -2.5056 0.9775
2.3544 -4.5331 -2.5056 0.9775
3.1209 -4.0438 -2.5056 0.9775
3.7884 -3.4264 -2.5056 0.9775
4.3359 -2.7004 -2.5056 0.9775
4.5591 -2.3038 -2.5056 0.9775
4.7460 -1.8889 -2.5056 0.9775
4.8953 -1.4590 -2.5056 0.9775
5.0764 -0.5679 -2.5056 0.9775
5.0967 0.3412 -2.5056 0.9775
4.6572 2.0984 -2.5056 0.9775
4.4519 2.5046 -2.5056 0.9775
4.2113 2.8909 -2.5056 0.9775
3.9373 3.2543 -2.5056 0.9775
3.6320 3.5918 -2.5056 0.9775
3.2979 3.9008 -2.5056 0.9775
2.9376 4.1788 -2.5056 0.9775
2.1502 4.6335 -2.5056 0.9775
1.7292 4.8065 -2.5056 0.9775
1.2946 4.9413 -2.5056 0.9775
0.8496 5.0369 -2.5056 0.9775
-0.5113 5.0824 -2.5056 0.9775
-0.9616 5.0167 -2.5056 0.9775
-1.4043 4.9113 -2.5056 0.9775
-2.5428 4.1861 -2.4025 0.9784
-2.1817 2.9610 -1.8041 0.9837
-4.0988 2.6813 -2.4025 0.9784
-4.3212 2.3059 -2.4025 0.9784
-4.5093 1.9121 -2.4025 0.9784
-1.3089 0.2966 -0.6583 0.9940
-1.3355 0.0596 -0.6558 0.9941
-1.3355 -0.0596 -0.6558 0.9941
-1.3003 -0.4193 -0.6702 0.9939
-4.5093 -1.9121 -2.4025 0.9784
-4.3212 -2.3059 -2.4025 0.9784
-4.0988 -2.6813 -2.4025 0.9784
-2.9053 -3.9431 -2.4025 0.9784
-2.5428 -4.1861 -2.4025 0.9784
-0.5113 -5.0824 -2.5056 0.9775
-0.0569 -5.1078 -2.5056 0.9775
0.8496 -5.0369 -2.5056 0.9775
2.5540 -4.4237 -2.5056 0.9775
2.9376 -4.1788 -2.5056 0.9775
3.6320 -3.5918 -2.5056 0.9775
3.9373 -3.2543 -2.5056 0.9775
4.4519 -2.5046 -2.5056 0.9775
4.9554 -1.2394 -2.5056 0.9775
5.0967 -0.3412 -2.5056 0.9775
5.0764 0.5679 -2.5056 0.9775
5.0057 1.0175 -2.5056 0.9775
4.7460 1.8889 -2.5056 0.9775
4.3359 2.7004 -2.5056 0.9775
3.7884 3.4264 -2.5056 0.9775
3.4684 3.7500 -2.5056 0.9775
3.1209 4.0438 -2.5056 0.9775
2.7486 4.3055 -2.5056 0.9775
1.9416 4.7247 -2.5056 0.9775
1.5134 4.8787 -2.5056 0.9775
1.0732 4.9941 -2.5056 0.9775
0.6244 5.0698 -2.5056 0.9775
0.1707 5.1052 -2.5056 0.9775
-0.2844 5.1002 -2.5056 0.9775
-1.1842 4.9689 -2.5056 0.9775
-1.5841 4.7315 -2.4475 0.9780
-1.9622 4.4877 -2.4025 0.9784
-2.3538 4.2952 -2.4025 0.9784
-2.0413 3.0458 -1.7985 0.9838
-3.0781 3.8098 -2.4025 0.9784
-3.4050 3.5207 -2.4025 0.9784
-3.7048 3.2037 -2.4025 0.9784
-4.4196 2.1111 -2.4025 0.9784
-1.2931 0.4815 -0.6768 0.9939
-1.3061 0.3578 -0.6642 0.9940
-1.3317 0.1190 -0.6558 0.9941
-1.2576 -0.1124 -0.6550 0.9943
-1.2283 -0.3365 -0.6607 0.9943
-1.2162 -0.4529 -0.6733 0.9942
-4.1789 -1.9961 -2.4025 0.9793
-3.7588 -2.7054 -2.4025 0.9793
-3.2195 -3.3290 -2.4025 0.9793
-2.9105 -3.6023 -2.4025 0.9793
-2.2256 -4.0613 -2.4025 0.9793
-1.1197 -4.6983 -2.5056 0.9785
-0.6970 -4.7793 -2.5056 0.9785
0.1614 -4.8271 -2.5056 0.9785
0.5904 -4.7936 -2.5056 0.9785
1.4310 -4.6130 -2.5056 0.9785
1.8359 -4.4673 -2.5056 0.9785
2.5989 -4.0710 -2.5056 0.9785
2.9509 -3.8236 -2.5056 0.9785
3.5821 -3.2398 -2.5056 0.9785
3.8562 -2.9081 -2.5056 0.9785
4.7331 -0.9620 -2.5056 0.9785
4.7999 -0.5370 -2.5056 0.9785
4.7712 0.7502 -2.5056 0.9785
4.6855 1.1719 -2.5056 0.9785
4.5626 1.5843 -2.5056 0.9785
4.4035 1.9841 -2.5056 0.9785
3.7228 3.0770 -2.5056 0.9785
2.4149 4.1828 -2.5056 0.9785
1.6350 4.5447 -2.5056 0.9785
0.3763 4.8152 -2.5056 0.9785
-0.0538 4.8296 -2.5056 0.9785
-0.9093 4.7435 -2.5056 0.9785
-1.3278 4.6437 -2.5056 0.9785
-1.6645 4.3217 -2.4025 0.9793
-2.0425 4.1564 -2.4025 0.9793
-2.4043 3.9581 -2.4025 0.9793
-2.1785 2.9567 -1.9053 0.9836
-3.0680 3.4691 -2.4025 0.9793
-3.6345 2.8702 -2.4025 0.9793
-1.2316 0.2790 -0.6551 0.9943
-1.2613 -0.0562 -0.6550 0.9943
-1.2514 -0.1683 -0.6551 0.9943
-4.2637 -1.8080 -2.4025 0.9793
-3.8755 -2.5353 -2.4025 0.9793
-3.6345 -2.8701 -2.4025 0.9793
-3.0680 -3.4691 -2.4025 0.9793
-2.7471 -3.7284 -2.4025 0.9793
-1.3278 -4.6437 -2.5056 0.9785
-0.9093 -4.7435 -2.5056 0.9785
0.8033 -4.7626 -2.5056 0.9785
1.2241 -4.6722 -2.5056 0.9785
3.1183 -3.6883 -2.5056 0.9785
3.4342 -3.3961 -2.5056 0.9785
4.4035 -1.9841 -2.5056 0.9785
4.6855 -1.1719 -2.5056 0.9785
4.8191 -0.3226 -2.5056 0.9785
4.8287 0.1076 -2.5056 0.9785
4.7999 0.5370 -2.5056 0.9785
4.6287 1.3795 -2.5056 0.9785
4.4875 1.7860 -2.5056 0.9785
4.3107 2.1783 -2.5056 0.9785
3.8562 2.9081 -2.5056 0.9785
3.5821 3.2398 -2.5056 0.9785
1.8359 4.4673 -2.5056 0.9785
1.4310 4.6130 -2.5056 0.9785
0.5904 4.7936 -2.5056 0.9785
0.1614 4.8271 -2.5056 0.9785
-0.2689 4.8224 -2.5056 0.9785
-1.1197 4.6983 -2.5056 0.9785
-1.5334 4.5800 -2.5056 0.9785
-1.8553 4.2433 -2.4025 0.9793
-3.7588 2.7054 -2.4025 0.9793
-4.1789 1.9961 -2.4025 0.9793
-1.2162 0.4529 -0.6733 0.9942
-1.2283 0.3365 -0.6607 0.9943
-1.2426 0.2239 -0.6550 0.9943
-1.1944 0.0000 -0.6542 0.9946
-1.1899 -0.1063 -0.6543 0.9946
-1.1577 -0.3171 -0.6575 0.9945
-3.3181 -2.8692 -2.4025 0.9802
-3.0495 -3.1532 -2.4025 0.9802
-2.7568 -3.4121 -2.4025 0.9802
-2.0404 -3.0445 -2.0074 0.9834
-2.1081 -3.8468 -2.4025 0.9802
-1.0605 -4.4502 -2.5056 0.9794
-0.6602 -4.5269 -2.5056 0.9794
-0.2547 -4.5677 -2.5056 0.9794
0.5592 -4.5405 -2.5056 0.9794
1.3554 -4.3694 -2.5056 0.9794
2.7951 -3.6217 -2.5056 0.9794
3.1063 -3.3585 -2.5056 0.9794
3.3929 -3.0687 -2.5056 0.9794
3.6526 -2.7545 -2.5056 0.9794
3.8832 -2.4185 -2.5056 0.9794
4.2505 -1.6917 -2.5056 0.9794
4.3842 -1.3066 -2.5056 0.9794
4.5464 -0.5086 -2.5056 0.9794
4.5737 -0.1019 -2.5056 0.9794
4.5646 0.3056 -2.5056 0.9794
4.5193 0.7106 -2.5056 0.9794
4.1709 1.8793 -2.5056 0.9794
3.9871 2.2431 -2.5056 0.9794
3.7716 2.5891 -2.5056 0.9794
3.5262 2.9145 -2.5056 0.9794
2.9536 3.4936 -2.5056 0.9794
1.9257 4.1497 -2.5056 0.9794
1.5487 4.3047 -2.5056 0.9794
1.1594 4.4254 -2.5056 0.9794
0.7609 4.5111 -2.5056 0.9794
-0.0510 4.5745 -2.5056 0.9794
-0.4579 4.5518 -2.5056 0.9794
-0.8612 4.4930 -2.5056 0.9794
-1.5898 4.1279 -2.4228 0.9800
-1.9346 3.9369 -2.4025 0.9802
-2.1753 2.9523 -2.0085 0.9834
-3.1869 3.0142 -2.4025 0.9802
-3.4426 2.7186 -2.4025 0.9802
-1.1411 0.4838 -0.6788 0.9944
-1.1515 0.3713 -0.6626 0.9945
-1.1649 0.2639 -0.6542 0.9946
-1.1933 0.0532 -0.6542 0.9946
-1.1649 -0.2639 -0.6542 0.9946
-1.1411 -0.4838 -0.6788 0.9944
-3.8700 -2.0651 -2.4025 0.9802
-3.6709 -2.4014 -2.4025 0.9802
-3.4426 -2.7186 -2.4025 0.9802
-3.1869 -3.0142 -2.4025 0.9802
-2.6020 -3.5315 -2.4025 0.9802
-2.2774 -3.7491 -2.4025 0.9802
-1.2577 -4.3985 -2.5056 0.9794
-0.4579 -4.5518 -2.5056 0.9794
-0.0510 -4.5745 -2.5056 0.9794
0.3564 -4.5609 -2.5056 0.9794
0.7609 -4.5111 -2.5056 0.9794
2.6309 -3.7426 -2.5056 0.9794
2.9536 -3.4936 -2.5056 0.9794
3.2528 -3.2168 -2.5056 0.9794
3.9871 -2.2431 -2.5056 0.9794
4.3217 -1.5006 -2.5056 0.9794
4.4381 -1.1100 -2.5056 0.9794
4.5193 -0.7106 -2.5056 0.9794
4.5737 0.1019 -2.5056 0.9794
4.5464 0.5086 -2.5056 0.9794
4.2505 1.6917 -2.5056 0.9794
4.0831 2.0633 -2.5056 0.9794
3.8832 2.4185 -2.5056 0.9794
3.3929 3.0687 -2.5056 0.9794
3.1063 3.3585 -2.5056 0.9794
2.4616 3.8561 -2.5056 0.9794
2.1086 4.0598 -2.5056 0.9794
1.3554 4.3694 -2.5056 0.9794
0.9611 4.4727 -2.5056 0.9794
0.5592 4.5405 -2.5056 0.9794
0.1529 4.5722 -2.5056 0.9794
-0.2547 4.5677 -2.5056 0.9794
-0.6602 4.5269 -2.5056 0.9794
-1.4524 4.3381 -2.5056 0.9794
-3.3181 2.8692 -2.4025 0.9802
-3.7742 2.2355 -2.4025 0.9802
-3.9582 1.8907 -2.4025 0.9802
-1.1577 0.3171 -0.6575 0.9945
-1.1756 0.2118 -0.6543 0.9946
-1.1899 0.1063 -0.6543 0.9946
-1.1276 -0.1008 -0.6536 0.9948
-1.1141 -0.2007 -0.6536 0.9948
-1.0934 -0.2995 -0.6545 0.9948
-3.7549 -1.7936 -2.4025 0.9810
-3.5804 -2.1207 -2.4025 0.9810
-3.3774 -2.4309 -2.4025 0.9810
-2.6152 -3.2369 -2.4025 0.9810
-1.6671 -3.8128 -2.4025 0.9810
-0.2416 -4.3331 -2.5056 0.9802
0.9118 -4.2430 -2.5056 0.9802
1.6496 -4.0141 -2.5056 0.9802
2.3352 -3.6580 -2.5056 0.9802
3.2187 -2.9111 -2.5056 0.9802
3.8734 -1.9573 -2.5056 0.9802
4.1591 -1.2395 -2.5056 0.9802
4.3302 0.2899 -2.5056 0.9802
4.2872 0.6741 -2.5056 0.9802
3.7824 2.1279 -2.5056 0.9802
3.5780 2.4561 -2.5056 0.9802
3.3452 2.7648 -2.5056 0.9802
3.0858 3.0516 -2.5056 0.9802
2.8019 3.3142 -2.5056 0.9802
2.1699 3.7584 -2.5056 0.9802
1.8268 3.9367 -2.5056 0.9802
1.4692 4.0836 -2.5056 0.9802
1.0999 4.1982 -2.5056 0.9802
-2.1604 3.5566 -2.4025 0.9810
-2.1720 2.9479 -2.1140 0.9832
-3.0233 2.8594 -2.4025 0.9810
-3.2658 2.5790 -2.4025 0.9810
-3.4824 2.2781 -2.4025 0.9810
-3.6713 1.9591 -2.4025 0.9810
-1.0769 0.4566 -0.6753 0.9946
-1.0870 0.3505 -0.6594 0.9947
-1.1039 0.2501 -0.6535 0.9948
-1.1309 0.0504 -0.6536 0.9948
-1.1309 -0.0504 -0.6536 0.9948
-1.0870 -0.3505 -0.6594 0.9947
-3.0233 -2.8594 -2.4025 0.9810
-2.7568 -3.1171 -2.4025 0.9810
-2.1604 -3.5566 -2.4025 0.9810
-1.5598 -4.0499 -2.5056 0.9802
-1.1931 -4.1726 -2.5056 0.9802
-0.0483 -4.3396 -2.5056 0.9802
0.3381 -4.3267 -2.5056 0.9802
1.0999 -4.1982 -2.5056 0.9802
1.4692 -4.0836 -2.5056 0.9802
1.8268 -3.9367 -2.5056 0.9802
2.1699 -3.7584 -2.5056 0.9802
2.8019 -3.3142 -2.5056 0.9802
3.0858 -3.0516 -2.5056 0.9802
3.3452 -2.7648 -2.5056 0.9802
3.5780 -2.4562 -2.5056 0.9802
4.3302 -0.2899 -2.5056 0.9802
4.3130 0.4825 -2.5056 0.9802
4.2529 0.8644 -2.5056 0.9802
4.1591 1.2395 -2.5056 0.9802
3.8734 1.9573 -2.5056 0.9802
3.6838 2.2943 -2.5056 0.9802
3.4650 2.6131 -2.5056 0.9802
3.2187 2.9111 -2.5056 0.9802
2.9468 3.1861 -2.5056 0.9802
2.6515 3.4357 -2.5056 0.9802
1.6496 4.0141 -2.5056 0.9802
1.2858 4.1450 -2.5056 0.9802
0.1450 4.3375 -2.5056 0.9802
-0.2416 4.3331 -2.5056 0.9802
-1.6671 3.8128 -2.4025 0.9810
-1.9999 3.6493 -2.4025 0.9810
-2.0283 3.0264 -2.1034 0.9833
-2.8929 2.9913 -2.4025 0.9810
-3.1477 2.7219 -2.4025 0.9810
-3.3774 2.4309 -2.4025 0.9810
-1.1141 0.2007 -0.6536 0.9948
-1.1276 0.1008 -0.6536 0.9948
