ply
format ascii 1.0
element vertex 1368
property float32 x
property float32 y
property float32 z
property float32 I
end_header
12.0285 15.5858 3.0160 0.9234
7.0656 -15.2261 2.1858 0.9345
7.0653 -15.2253 1.8024 0.9347
12.0285 15.5858 2.1141 0.9239
7.0649 -15.2245 1.4208 0.9348
11.9964 15.5442 1.6622 0.9242
7.0644 -15.2234 1.0407 0.9350
17.9263 0.3995 0.7070 0.9307
12.0353 15.5945 0.7767 0.9242
11.4575 16.2986 0.3365 0.9234
17.6476 -1.1814 0.2988 0.9317
17.9263 0.3995 0.3029 0.9308
12.0353 15.5945 0.3327 0.9242
17.7860 -0.3963 -0.1002 0.9313
18.1395 1.2143 -0.1024 0.9299
11.4575 16.2986 -0.1122 0.9234
7.0622 -15.2186 -0.0945 0.9351
17.6476 -1.1814 -0.0996 0.9317
17.7860 -0.3964 -0.5009 0.9313
12.8979 15.2557 -0.5625 0.9232
-18.3577 5.9196 -0.5431 0.9257
17.9263 0.3995 -0.5049 0.9308
12.0353 15.5945 -0.5547 0.9242
-18.2244 6.7868 -0.5476 0.9251
17.7860 -0.3963 -0.9022 0.9312
11.4575 16.2986 -1.0104 0.9233
-18.1031 5.8375 -0.9646 0.9266
7.0607 -15.2154 -0.8507 0.9350
-18.0281 6.7137 -0.9756 0.9258
10.5302 -13.6444 -1.2637 0.9332
17.7860 -0.3964 -1.3044 0.9311
11.4575 16.2986 -1.4608 0.9232
-12.5928 11.9102 -1.2709 0.9328
-14.3958 11.3682 -1.3450 0.9291
-17.8325 7.5616 -1.4202 0.9253
-17.9747 5.7961 -1.3848 0.9271
17.6476 -1.1814 -1.2969 0.9315
17.9263 0.3995 -1.3147 0.9306
12.0353 15.5945 -1.4443 0.9240
-13.3581 11.5512 -1.2949 0.9316
-15.1519 10.9057 -1.3688 0.9279
-17.8015 6.6293 -1.3928 0.9266
10.4675 -13.5632 -1.6448 0.9335
10.5261 -7.9381 -1.2657 0.9484
17.7860 -0.3963 -1.7080 0.9310
-9.7259 13.2000 -1.5741 0.9362
-10.9089 12.3349 -1.5809 0.9360
-13.5450 10.6963 -1.6570 0.9330
-14.5916 9.5454 -1.6740 0.9323
-16.7924 8.9607 -1.8273 0.9264
-18.0243 7.6429 -1.8796 0.9243
-17.8384 5.7521 -1.7994 0.9275
-5.8345 -15.1490 -1.5585 0.9368
17.6476 -1.1813 -1.6981 0.9314
17.9263 0.3995 -1.7214 0.9305
12.0353 15.5945 -1.8912 0.9239
-9.0493 13.5025 -1.5605 0.9368
-10.5672 13.0791 -1.6143 0.9347
-17.5994 8.4065 -1.8725 0.9246
-5.6582 -10.3248 -1.3985 0.9537
-5.6236 -16.7968 -2.1041 0.9311
10.5356 -3.1400 -1.3059 0.9567
17.7860 -0.3963 -2.1133 0.9308
-8.2430 16.7740 -2.2201 0.9275
-8.5669 14.1031 -1.9601 0.9357
-10.4703 11.8389 -1.8774 0.9383
-11.5124 10.8883 -1.8823 0.9382
-14.1245 9.2398 -2.0049 0.9343
-17.6036 5.6764 -2.1971 0.9282
-5.6192 -14.5899 -1.8572 0.9390
10.4649 -14.8865 -2.1615 0.9293
10.4739 -10.3579 -1.7498 0.9424
10.4923 -8.6721 -1.6169 0.9466
10.5366 -2.6354 -1.2902 0.9572
17.9293 0.3996 -2.1303 0.9303
12.0353 15.5945 -2.3399 0.9237
-10.7439 11.1091 -1.8358 0.9396
-13.7325 9.8841 -2.0098 0.9341
-14.7269 8.7228 -2.0332 0.9334
-17.3412 6.4579 -2.1981 0.9282
-0.9821 -17.6132 -2.4995 0.9312
2.1563 -17.5083 -2.4995 0.9312
5.2265 -16.8486 -2.4995 0.9312
6.4717 -15.7479 -2.4124 0.9335
10.3326 -13.3884 -2.3962 0.9340
10.4720 -11.3222 -2.1852 0.9396
10.4757 -9.4747 -2.0013 0.9445
10.4815 -6.5280 -1.7496 0.9513
10.4840 -5.2978 -1.6644 0.9537
16.9705 -1.8984 -2.4195 0.9333
17.0721 -0.3804 -2.4195 0.9333
17.0382 1.1406 -2.4195 0.9333
16.8691 2.6525 -2.4195 0.9333
16.1315 5.6015 -2.4195 0.9333
14.0785 9.6643 -2.4195 0.9333
12.1419 12.0074 -2.4195 0.9333
11.0250 13.0404 -2.4195 0.9333
9.7260 13.8354 -2.3962 0.9340
8.4559 14.6461 -2.3962 0.9340
4.4707 17.0647 -2.4995 0.9312
2.9341 17.3948 -2.4995 0.9312
-0.1965 17.6395 -2.4995 0.9312
-1.6929 16.8281 -2.3964 0.9340
-3.1840 16.6106 -2.3964 0.9340
-4.6498 16.2613 -2.3964 0.9340
-7.8868 16.0492 -2.5337 0.9303
-9.1037 12.3556 -2.1745 0.9399
-10.1021 11.4226 -2.1606 0.9403
-12.6093 9.9574 -2.2765 0.9372
-13.6840 8.9517 -2.3169 0.9361
-17.4529 5.6278 -2.5983 0.9286
-3.1840 -16.6106 -2.3964 0.9340
-0.1965 -17.6395 -2.4995 0.9312
2.9341 -17.3948 -2.4995 0.9312
4.4707 -17.0646 -2.4995 0.9312
5.9718 -16.5990 -2.4995 0.9312
7.1188 -15.3406 -2.3962 0.9340
10.4773 -8.6597 -1.9260 0.9466
10.4828 -5.8975 -1.7042 0.9526
13.3340 -2.0967 -1.9125 0.9469
17.0721 0.3804 -2.4195 0.9333
16.7342 3.4014 -2.4195 0.9333
15.8660 6.3145 -2.4195 0.9333
15.2410 7.7016 -2.4195 0.9333
14.4950 9.0276 -2.4195 0.9333
12.6647 11.4546 -2.4195 0.9333
11.5949 12.5363 -2.4195 0.9333
10.3326 13.3884 -2.3962 0.9340
7.7951 15.0083 -2.3962 0.9340
6.4717 15.7479 -2.4124 0.9335
5.2265 16.8486 -2.4995 0.9312
3.7061 17.2469 -2.4995 0.9312
2.1564 17.5083 -2.4995 0.9312
-2.4409 16.7359 -2.3964 0.9340
-8.0666 14.7196 -2.3783 0.9344
-8.4581 12.6203 -2.1526 0.9405
-9.8309 12.1679 -2.2165 0.9388
-10.4066 10.7604 -2.1210 0.9413
-16.7850 8.0175 -2.6357 0.9276
-17.2426 6.4212 -2.6070 0.9284
-4.6183 -13.7940 -2.3964 0.9427
-3.3722 -14.1503 -2.3964 0.9427
-2.0994 -14.3943 -2.3964 0.9427
3.1876 -14.8337 -2.4995 0.9403
4.4952 -14.4912 -2.4995 0.9403
6.7044 -12.9083 -2.3962 0.9427
7.8267 -12.2604 -2.3962 0.9427
10.4757 -9.4747 -2.3269 0.9443
10.4788 -7.9024 -2.1621 0.9482
10.4815 -6.5280 -2.0342 0.9512
10.4840 -5.2978 -1.9351 0.9535
10.4902 -2.1322 -1.7635 0.9575
14.5960 -1.6328 -2.4195 0.9422
14.6543 0.9810 -2.4195 0.9422
14.5088 2.2814 -2.4195 0.9422
14.2482 3.5637 -2.4195 0.9422
13.3906 6.0335 -2.4195 0.9422
11.3208 9.3569 -2.4195 0.9422
10.3424 10.2279 -2.3962 0.9427
7.2728 12.5969 -2.3962 0.9427
5.1363 14.2765 -2.4995 0.9403
2.5236 14.9610 -2.4995 0.9403
1.1820 15.1262 -2.4995 0.9403
-1.5187 15.0962 -2.4995 0.9403
-2.7385 14.2865 -2.3964 0.9427
-5.2281 13.5746 -2.3964 0.9427
-8.8418 12.0002 -2.4556 0.9414
-9.7871 11.0664 -2.4338 0.9419
-10.7966 10.2114 -2.4482 0.9415
-13.1389 8.5951 -2.5865 0.9383
-14.7592 7.8757 -2.7559 0.9344
-17.3922 5.6083 -3.0105 0.9286
-5.6483 -5.3421 -1.2807 0.9690
-5.9110 -8.0225 -1.6416 0.9604
-5.6129 -11.4220 -2.0966 0.9497
-3.9992 -13.9860 -2.3964 0.9427
8.3651 -11.8996 -2.3962 0.9427
10.3424 -10.2279 -2.3962 0.9427
10.4802 -7.1943 -2.0941 0.9498
10.4851 -4.7244 -1.8945 0.9544
14.5960 1.6328 -2.4195 0.9422
14.3928 2.9254 -2.4195 0.9422
14.0753 4.1949 -2.4195 0.9422
13.6460 5.4310 -2.4195 0.9422
12.4669 7.7645 -2.4195 0.9422
11.7263 8.8433 -2.4195 0.9422
10.8927 9.8519 -2.4195 0.9422
9.8765 10.6784 -2.3962 0.9427
7.8267 12.2604 -2.3962 0.9427
6.7044 12.9083 -2.3962 0.9427
5.7671 14.0336 -2.4995 0.9403
3.1876 14.8337 -2.4995 0.9403
1.8546 15.0586 -2.4995 0.9403
-0.8447 15.1488 -2.4995 0.9403
-2.0993 14.3943 -2.3964 0.9427
-3.3722 14.1503 -2.3964 0.9427
-4.6183 13.7940 -2.3964 0.9427
-9.4876 11.7429 -2.4870 0.9406
-10.0879 10.4308 -2.3905 0.9429
-11.6053 10.0355 -2.5275 0.9397
-12.4872 8.9877 -2.5346 0.9395
-13.7543 8.1467 -2.6335 0.9372
-16.0561 7.6694 -2.9313 0.9304
-17.0045 6.3325 -2.9893 0.9291
-5.6493 -5.8413 -1.5274 0.9675
-5.6040 -6.9362 -1.6761 0.9644
-5.6106 -10.2380 -2.1944 0.9536
-2.9556 -12.4021 -2.3964 0.9494
0.4444 -13.2905 -2.4995 0.9473
1.6255 -13.1982 -2.4995 0.9473
2.7938 -13.0011 -2.4995 0.9473
3.9398 -12.7008 -2.4995 0.9473
6.1293 -11.8011 -2.4995 0.9473
9.4550 -8.5516 -2.3962 0.9494
10.1786 -7.6761 -2.3962 0.9494
10.4862 -4.1734 -2.1214 0.9551
10.4883 -3.1259 -2.0571 0.9564
10.4902 -2.1322 -2.0121 0.9574
12.4879 3.1234 -2.4195 0.9490
12.1603 4.2225 -2.4195 0.9490
10.6127 7.2852 -2.4195 0.9490
8.2308 9.7355 -2.3962 0.9494
7.3317 10.4294 -2.3962 0.9494
4.5017 12.5127 -2.4995 0.9473
3.3702 12.8637 -2.4995 0.9473
1.0360 13.2575 -2.4995 0.9473
-3.5051 12.2581 -2.3964 0.9494
-8.5929 11.6623 -2.7228 0.9427
-5.5005 6.2195 -1.5606 0.9668
-10.4697 9.9022 -2.7087 0.9430
-11.6841 9.2269 -2.7984 0.9412
-12.4295 8.1310 -2.7918 0.9413
-15.3222 6.4972 -3.1282 0.9345
-17.1638 5.5346 -3.3897 0.9292
-5.6483 -5.3421 -1.4613 0.9689
-5.6299 -6.3658 -1.5973 0.9660
-5.6054 -7.6077 -1.7762 0.9623
-5.6086 -9.2330 -2.0305 0.9570
-4.5822 -11.8975 -2.3964 0.9494
-3.5051 -12.2581 -2.3964 0.9494
-2.4002 -12.5215 -2.3964 0.9494
-0.1481 -13.2971 -2.4995 0.9473
2.2118 -13.1127 -2.4995 0.9473
3.3701 -12.8637 -2.4995 0.9473
4.5017 -12.5127 -2.4995 0.9473
6.4669 -11.2010 -2.4310 0.9487
7.3317 -10.4294 -2.3962 0.9494
9.0647 -8.9642 -2.3962 0.9494
10.4802 -7.1943 -2.3893 0.9496
12.7163 -1.9996 -2.4195 0.9490
12.8438 -0.8598 -2.4195 0.9490
12.8694 0.2868 -2.4195 0.9490
12.6146 2.5640 -2.4195 0.9490
11.9601 4.7600 -2.4195 0.9490
11.4890 5.8056 -2.4195 0.9490
10.9267 6.8052 -2.4195 0.9490
10.1786 7.6761 -2.3962 0.9494
9.4550 8.5515 -2.3962 0.9494
8.6563 9.3591 -2.3962 0.9494
6.8598 10.7456 -2.3962 0.9494
6.1293 11.8011 -2.4995 0.9473
3.9398 12.7009 -2.4995 0.9473
0.4444 13.2905 -2.4995 0.9473
-0.7403 13.2773 -2.4995 0.9473
-1.8400 12.6159 -2.3964 0.9494
-2.9556 12.4021 -2.3964 0.9494
-4.0477 12.0898 -2.3964 0.9494
-5.5131 8.2262 -1.8613 0.9605
-8.9903 11.1274 -2.6889 0.9434
-11.9343 8.5898 -2.7638 0.9419
-13.2765 7.8637 -2.9004 0.9391
-15.9539 5.9413 -3.1999 0.9331
-5.6040 -6.9362 -1.8849 0.9642
-5.4483 -9.9419 -2.3964 0.9547
-2.6281 -11.0281 -2.3964 0.9547
-1.6361 -11.2182 -2.3964 0.9547
-0.6583 -11.8062 -2.4995 0.9528
0.3951 -11.8180 -2.4995 0.9528
1.4454 -11.7359 -2.4995 0.9528
4.4946 -10.9371 -2.4995 0.9528
5.4503 -10.4936 -2.4995 0.9528
7.6973 -8.3222 -2.3962 0.9547
8.4075 -7.6041 -2.3962 0.9547
9.6225 -5.9929 -2.3962 0.9547
10.1177 -5.1127 -2.3962 0.9547
11.4436 -0.2550 -2.4195 0.9543
11.4208 0.7645 -2.4195 0.9543
10.8131 3.7547 -2.4195 0.9543
10.3354 4.6569 -2.3962 0.9547
7.3189 8.6569 -2.3962 0.9547
6.5194 9.2739 -2.3962 0.9547
5.9123 10.2404 -2.4995 0.9528
4.0030 11.1264 -2.4995 0.9528
2.9968 11.4385 -2.4995 0.9528
1.9668 11.6599 -2.4995 0.9528
-1.1836 11.7652 -2.4995 0.9528
-2.1342 11.1342 -2.3964 0.9547
-3.1168 10.9000 -2.3964 0.9547
-4.0746 10.5794 -2.3964 0.9547
-7.3593 12.1151 -2.9963 0.9437
-8.0514 10.9275 -2.8691 0.9460
-10.9803 8.6711 -2.9575 0.9444
-12.8558 6.8601 -3.0802 0.9422
-13.7173 5.8166 -3.1495 0.9409
-15.5348 5.0093 -3.4503 0.9354
-5.9554 -4.7029 -1.6040 0.9695
-5.6070 -5.3031 -1.6313 0.9689
-5.6028 -6.3352 -1.7877 0.9660
-5.6054 -7.6076 -1.9975 0.9621
-5.6086 -9.2330 -2.2835 0.9568
-5.0000 -10.1747 -2.3964 0.9547
-4.0746 -10.5794 -2.3964 0.9547
-3.1168 -10.9000 -2.3964 0.9547
-2.1343 -11.1342 -2.3964 0.9547
-1.1836 -11.7652 -2.4995 0.9528
-0.1317 -11.8239 -2.4995 0.9528
0.9212 -11.7887 -2.4995 0.9528
1.9668 -11.6599 -2.4995 0.9528
2.9968 -11.4386 -2.4995 0.9528
4.0030 -11.1264 -2.4995 0.9528
4.9774 -10.7260 -2.4995 0.9528
5.9123 -10.2404 -2.4995 0.9528
8.7379 -7.2220 -2.3962 0.9547
10.4872 -3.6416 -2.3466 0.9556
11.2170 2.2799 -2.4195 0.9543
10.9696 3.2693 -2.4195 0.9543
10.6351 4.2327 -2.4195 0.9543
9.6225 5.9929 -2.3962 0.9547
7.6973 8.3222 -2.3962 0.9547
6.9260 8.9743 -2.3962 0.9547
6.3626 9.9668 -2.4995 0.9528
3.5033 11.2937 -2.4995 0.9528
2.4842 11.5607 -2.4995 0.9528
1.4454 11.7359 -2.4995 0.9528
-2.6281 11.0280 -2.3964 0.9547
-3.5992 10.7504 -2.3964 0.9547
-5.4483 9.9419 -2.3964 0.9547
-9.4992 9.8221 -2.8883 0.9457
-13.2924 6.3492 -3.1138 0.9416
-14.3762 5.3537 -3.2427 0.9392
-5.6692 -4.0804 -1.6416 0.9717
-5.6040 -6.9362 -2.0957 0.9640
-5.6069 -8.3660 -2.3669 0.9595
-4.9002 -8.9417 -2.3964 0.9590
-4.0849 -9.3424 -2.3964 0.9590
-3.2372 -9.6689 -2.3964 0.9590
-1.5348 -10.5237 -2.4995 0.9572
0.3554 -10.6291 -2.4995 0.9572
1.3000 -10.5553 -2.4995 0.9572
2.2343 -10.3977 -2.4995 0.9572
4.9020 -9.4379 -2.4995 0.9572
5.7225 -8.9642 -2.4995 0.9572
8.1404 -6.1389 -2.3962 0.9590
8.6545 -5.3901 -2.3962 0.9590
9.4730 -3.7702 -2.3962 0.9590
9.7710 -2.9121 -2.3962 0.9590
9.9914 -2.0308 -2.3962 0.9590
10.1325 -1.1335 -2.3962 0.9590
10.1932 -0.2271 -2.3962 0.9590
10.1730 0.6810 -2.3962 0.9590
10.0720 1.5838 -2.3962 0.9590
9.8910 2.4739 -2.3962 0.9590
8.8860 4.9992 -2.3962 0.9590
8.4058 5.7702 -2.3962 0.9590
7.2495 7.1692 -2.3962 0.9590
5.3175 9.2102 -2.4995 0.9572
4.4767 9.6470 -2.4995 0.9572
2.6953 10.2879 -2.4995 0.9572
0.8285 10.6027 -2.4995 0.9572
-0.1185 10.6344 -2.4995 0.9572
-1.0645 10.5816 -2.4995 0.9572
-1.9195 10.0141 -2.3964 0.9590
-2.8032 9.8035 -2.3964 0.9590
-4.4970 9.1512 -2.3964 0.9590
-5.2937 8.7146 -2.3964 0.9590
-8.5219 9.6358 -3.0232 0.9485
-9.4029 8.8932 -3.0418 0.9482
-10.1135 7.9865 -3.0287 0.9484
-17.9017 4.0560 -4.3140 0.9274
-5.8453 -3.8238 -1.6416 0.9717
-5.5990 -4.4215 -1.6767 0.9711
-5.6008 -5.2972 -1.8118 0.9688
-5.6054 -7.6076 -2.2209 0.9619
-5.2937 -8.7146 -2.3964 0.9590
-3.6647 -9.5151 -2.3964 0.9590
-2.8032 -9.8035 -2.3964 0.9590
-1.0645 -10.5816 -2.4995 0.9572
0.8285 -10.6027 -2.4995 0.9572
1.7689 -10.4869 -2.4995 0.9572
2.6953 -10.2878 -2.4995 0.9572
3.6003 -10.0071 -2.4995 0.9572
4.4767 -9.6470 -2.4995 0.9572
5.3175 -9.2102 -2.4995 0.9572
6.1162 -8.7004 -2.4995 0.9572
6.5826 -7.7860 -2.3962 0.9590
6.7930 -3.0608 -1.7511 0.9698
9.8910 -2.4739 -2.3962 0.9590
10.0720 -1.5838 -2.3962 0.9590
10.1325 1.1335 -2.3962 0.9590
9.9914 2.0309 -2.3962 0.9590
9.7710 2.9121 -2.3962 0.9590
9.4730 3.7702 -2.3962 0.9590
9.0999 4.5984 -2.3962 0.9590
7.5617 6.8391 -2.3962 0.9590
6.9230 7.4850 -2.3962 0.9590
6.4630 8.3743 -2.4861 0.9575
5.7225 8.9642 -2.4995 0.9572
2.2343 10.3977 -2.4995 0.9572
0.3554 10.6291 -2.4995 0.9572
-0.5921 10.6186 -2.4995 0.9572
-2.3637 9.9186 -2.3964 0.9590
-4.9002 8.9418 -2.3964 0.9590
-7.9605 9.8529 -2.9770 0.9493
-8.9890 9.2946 -3.0389 0.9483
-9.7410 8.4234 -3.0266 0.9485
-5.5009 3.9593 -1.5929 0.9725
-11.3537 6.7248 -3.1013 0.9472
-12.1211 5.7898 -3.1570 0.9463
-13.2173 4.9222 -3.3148 0.9437
-5.5968 -3.3150 -1.6842 0.9735
-5.5982 -4.0294 -1.7859 0.9719
-5.6017 -5.7922 -2.0863 0.9673
-5.6040 -6.9362 -2.3088 0.9638
-4.4480 -8.1165 -2.3964 0.9625
-2.9384 -8.7766 -2.3964 0.9625
-2.1456 -9.0033 -2.3964 0.9625
0.3226 -9.6482 -2.4995 0.9609
7.8558 -4.8926 -2.3962 0.9625
9.1974 -1.0289 -2.3962 0.9625
9.1425 1.4376 -2.3962 0.9625
8.9782 2.2456 -2.3962 0.9625
8.7427 3.0358 -2.3962 0.9625
8.4378 3.8019 -2.3962 0.9625
8.0659 4.5378 -2.3962 0.9625
7.6300 5.2377 -2.3962 0.9625
7.1336 5.8961 -2.3962 0.9625
6.5805 6.5076 -2.3962 0.9625
4.8268 8.3602 -2.4995 0.9609
-3.3265 8.6370 -2.3964 0.9625
-4.8051 7.9103 -2.3964 0.9625
-5.4901 7.4512 -2.3964 0.9625
-7.8183 8.8403 -3.0557 0.9524
-5.5142 2.3382 -1.5508 0.9756
-12.8563 4.1456 -3.4975 0.9457
-15.2206 3.4486 -4.0408 0.9376
-5.8372 -2.4752 -1.6416 0.9741
-5.5962 -2.9862 -1.6423 0.9741
-5.5975 -3.6617 -1.7319 0.9727
-5.4901 -7.4512 -2.3964 0.9625
-4.0820 -8.3066 -2.3964 0.9625
-1.7424 -9.0899 -2.3964 0.9625
-0.9663 -9.6051 -2.4995 0.9609
1.6057 -9.5191 -2.4995 0.9609
3.2680 -9.0836 -2.4995 0.9609
4.0635 -8.7567 -2.4995 0.9609
5.5517 -7.8974 -2.4995 0.9609
6.2326 -7.3720 -2.4995 0.9609
7.6300 -5.2377 -2.3962 0.9625
8.0659 -4.5378 -2.3962 0.9625
8.7427 -3.0358 -2.3962 0.9625
8.9782 -2.2456 -2.3962 0.9625
9.2341 -0.6181 -2.3962 0.9625
9.0693 1.8434 -2.3962 0.9625
8.5988 3.4222 -2.3962 0.9625
8.2601 4.1740 -2.3962 0.9625
7.8558 4.8926 -2.3962 0.9625
5.8980 7.6423 -2.4995 0.9609
3.6694 8.9290 -2.4995 0.9609
1.1800 9.5812 -2.4995 0.9609
0.3226 9.6482 -2.4995 0.9609
-1.3932 9.5525 -2.4995 0.9609
-2.1456 9.0033 -2.3964 0.9625
-3.7079 8.4802 -2.3964 0.9625
-5.5071 6.8163 -2.2689 0.9644
-8.2245 8.5040 -3.0631 0.9523
-9.7850 7.0428 -3.1215 0.9514
-10.5444 6.2455 -3.1731 0.9506
-13.4966 3.6971 -3.6233 0.9438
-5.5018 -0.9912 -1.5826 0.9770
-5.5944 -2.0834 -1.6900 0.9755
-5.5968 -3.3150 -1.8415 0.9733
-5.5999 -4.8424 -2.0958 0.9697
-5.6017 -5.7922 -2.2811 0.9671
-5.3199 -6.5845 -2.3964 0.9654
-3.3913 -7.7561 -2.3964 0.9654
-0.4915 -8.8155 -2.4995 0.9640
0.2950 -8.8243 -2.4995 0.9640
1.0793 -8.7630 -2.4995 0.9640
1.8549 -8.6321 -2.4995 0.9640
2.6159 -8.4328 -2.4995 0.9640
3.3561 -8.1665 -2.4995 0.9640
5.3944 -6.9897 -2.4995 0.9640
5.9951 -6.4818 -2.4995 0.9640
6.4630 -5.8454 -2.4670 0.9644
6.7581 -5.0965 -2.3962 0.9654
7.1849 -4.4748 -2.3962 0.9654
7.5547 -3.8175 -2.3962 0.9654
8.4456 0.5654 -2.3962 0.9654
8.3617 1.3148 -2.3962 0.9654
8.2115 2.0538 -2.3962 0.9654
7.3771 4.1503 -2.3962 0.9654
6.2779 6.2083 -2.4995 0.9640
5.7004 6.7424 -2.4995 0.9640
5.0776 7.2230 -2.4995 0.9640
2.9889 8.3079 -2.4995 0.9640
2.2376 8.5410 -2.4995 0.9640
1.4686 8.7062 -2.4995 0.9640
-0.8838 8.7848 -2.4995 0.9640
-1.5943 8.3172 -2.3974 0.9654
-3.0424 7.8994 -2.3964 0.9654
-3.7334 7.5972 -2.3964 0.9654
-7.9410 7.5105 -3.0942 0.9556
-5.5207 3.6114 -1.8676 0.9729
-11.9331 3.8479 -3.5495 0.9492
-5.5014 1.2464 -1.5969 0.9768
-5.6915 -1.8353 -1.6929 0.9754
-5.5962 -2.9862 -1.7957 0.9740
-5.5975 -3.6617 -1.8936 0.9726
-5.6008 -5.2972 -2.1824 0.9685
-5.6028 -6.3352 -2.3942 0.9655
-2.3272 -8.1388 -2.3964 0.9654
-1.5936 -8.3137 -2.3964 0.9654
0.6878 -8.8024 -2.4995 0.9640
1.4686 -8.7062 -2.4995 0.9640
2.9889 -8.3079 -2.4995 0.9640
4.4146 -7.6463 -2.4995 0.9640
5.0776 -7.2230 -2.4995 0.9640
5.7004 -6.7424 -2.4995 0.9640
6.9785 -4.7904 -2.3962 0.9654
7.3771 -4.1503 -2.3962 0.9654
6.7821 -3.0559 -2.1059 0.9695
8.3617 -1.3148 -2.3962 0.9654
8.4456 -0.5654 -2.3962 0.9654
8.4624 0.1886 -2.3962 0.9654
8.4120 0.9410 -2.3962 0.9654
7.1849 4.4748 -2.3962 0.9654
6.4630 5.8454 -2.4670 0.9644
5.9951 6.4818 -2.4995 0.9640
5.3944 6.9897 -2.4995 0.9640
4.7508 7.4421 -2.4995 0.9640
4.0696 7.8354 -2.4995 0.9640
3.3561 8.1665 -2.4995 0.9640
2.6159 8.4328 -2.4995 0.9640
1.0793 8.7630 -2.4995 0.9640
0.2950 8.8243 -2.4995 0.9640
-0.4915 8.8155 -2.4995 0.9640
-1.2742 8.7368 -2.4995 0.9640
-1.9624 8.2344 -2.3964 0.9654
-2.6875 8.0271 -2.3964 0.9654
-3.3913 7.7561 -2.3964 0.9654
-4.7127 7.0319 -2.3964 0.9654
-5.3199 6.5845 -2.3964 0.9654
-7.5728 7.8302 -3.0838 0.9557
-5.5079 4.7629 -2.0614 0.9702
-10.5747 5.0511 -3.3176 0.9524
-11.4396 4.2602 -3.4557 0.9505
-5.5088 -0.0000 -1.6944 0.9772
-18.9034 -1.6893 -5.8375 0.9236
-5.5968 -3.3150 -2.0008 0.9731
-5.5999 -4.8424 -2.2771 0.9695
-5.4163 -5.6005 -2.3964 0.9679
-4.8964 -6.0603 -2.3964 0.9679
-3.1213 -7.1386 -2.3964 0.9679
-2.4735 -7.3881 -2.3964 0.9679
-1.8062 -7.5789 -2.3964 0.9679
-0.4524 -8.1137 -2.4995 0.9666
0.9933 -8.0654 -2.4995 0.9666
1.7073 -7.9450 -2.4995 0.9666
3.7456 -7.2116 -2.4995 0.9666
5.5178 -5.9658 -2.4995 0.9666
6.4630 -4.8740 -2.4898 0.9667
6.9533 -3.5137 -2.3962 0.9679
7.4661 -2.2252 -2.3962 0.9679
7.6345 -1.5518 -2.3962 0.9679
7.5578 1.8903 -2.3962 0.9679
7.1029 3.2004 -2.3962 0.9679
6.4712 4.4422 -2.4142 0.9677
6.2637 5.1771 -2.4995 0.9666
4.6734 6.6480 -2.4995 0.9666
4.0632 7.0376 -2.4995 0.9666
3.4206 7.3713 -2.4995 0.9666
0.6331 8.1016 -2.4995 0.9666
-0.0905 8.1258 -2.4995 0.9666
-2.8002 7.2706 -2.3964 0.9679
-4.0449 6.6589 -2.3964 0.9679
-8.2427 6.5092 -3.2305 0.9570
-8.8998 5.8220 -3.2711 0.9565
-10.3709 4.3976 -3.4648 0.9540
-11.1667 3.6008 -3.6088 0.9521
-5.5014 1.2464 -1.7350 0.9767
-18.8666 0.8413 -5.8087 0.9240
-5.5950 -2.3725 -1.8692 0.9749
-5.5962 -2.9862 -1.9510 0.9738
-5.6008 -5.2972 -2.3711 0.9683
-4.6216 -6.2724 -2.3964 0.9679
-2.1420 -7.4909 -2.3964 0.9679
-0.8134 -8.0855 -2.4995 0.9666
0.6331 -8.1016 -2.4995 0.9666
2.0595 -7.8610 -2.4995 0.9666
2.7510 -7.6465 -2.4995 0.9666
5.2466 -6.2057 -2.4995 0.9666
6.2637 -5.1771 -2.4995 0.9666
6.4712 -4.4422 -2.4142 0.9677
7.6961 -1.2102 -2.3962 0.9679
7.7732 -0.5204 -2.3962 0.9679
7.7423 0.8661 -2.3962 0.9679
7.4661 2.2251 -2.3962 0.9679
6.6130 4.1186 -2.3962 0.9679
5.5178 5.9658 -2.4995 0.9666
4.9649 6.4332 -2.4995 0.9666
3.7456 7.2116 -2.4995 0.9666
3.0889 7.5164 -2.4995 0.9666
0.2715 8.1218 -2.4995 0.9666
-0.4524 8.1137 -2.4995 0.9666
-1.8061 7.5789 -2.3964 0.9679
-4.3376 6.4721 -2.3964 0.9679
-8.5779 6.1740 -3.2507 0.9567
-9.2271 5.4652 -3.2985 0.9561
-11.7826 3.2276 -3.7576 0.9502
-14.1256 2.5448 -4.4147 0.9417
-18.7729 1.6776 -5.7972 0.9242
-18.5669 0.0000 -6.1718 0.9247
-18.5283 -1.6557 -6.1835 0.9246
-5.5944 -2.0834 -1.9844 0.9752
-5.5956 -2.6728 -2.0613 0.9742
-5.5968 -3.3150 -2.1623 0.9730
-5.4532 -4.7155 -2.3964 0.9701
-5.0118 -5.1822 -2.3964 0.9701
-3.4646 -6.3221 -2.3964 0.9701
0.2513 -7.5152 -2.4995 0.9688
4.0460 -6.3380 -2.4995 0.9688
5.1057 -5.5202 -2.4995 0.9688
6.0036 -4.5275 -2.4995 0.9688
6.3827 -3.9752 -2.4995 0.9688
6.6978 -2.6656 -2.3962 0.9701
6.9085 -2.0589 -2.3962 0.9701
6.9933 1.7492 -2.3962 0.9701
6.8099 2.3646 -2.3962 0.9701
6.4630 3.6360 -2.4650 0.9692
6.1993 4.2556 -2.4995 0.9688
5.7959 4.7904 -2.4995 0.9688
4.8547 5.7422 -2.4995 0.9688
4.3244 6.1515 -2.4995 0.9688
3.7597 6.5120 -2.4995 0.9688
3.1652 6.8208 -2.4995 0.9688
2.5455 7.0754 -2.4995 0.9688
1.9057 7.2739 -2.4995 0.9688
1.2507 7.4146 -2.4995 0.9688
0.5858 7.4965 -2.4995 0.9688
-0.0838 7.5189 -2.4995 0.9688
-0.7527 7.4816 -2.4995 0.9688
-1.4156 7.3849 -2.4995 0.9688
-1.9820 6.9314 -2.3964 0.9701
-3.1796 6.4702 -2.3964 0.9701
-4.2764 5.8039 -2.3964 0.9701
-4.7760 5.4003 -2.3964 0.9701
-5.2377 4.9538 -2.3964 0.9701
-7.7603 6.1282 -3.2869 0.9592
-8.3894 5.4881 -3.3324 0.9586
-9.8078 4.1589 -3.5412 0.9561
-10.5665 3.4073 -3.6905 0.9543
-15.8507 2.1317 -5.3163 0.9348
-18.5157 0.8256 -6.1608 0.9248
-5.5950 -2.3725 -2.0201 0.9747
-5.5962 -2.9862 -2.1085 0.9736
-5.5990 -4.4215 -2.3715 0.9704
-5.2377 -4.9538 -2.3964 0.9701
-0.7527 -7.4816 -2.4995 0.9688
-0.0838 -7.5189 -2.4995 0.9688
0.5858 -7.4965 -2.4995 0.9688
1.9057 -7.2739 -2.4995 0.9688
2.5455 -7.0754 -2.4995 0.9688
3.1652 -6.8208 -2.4995 0.9688
4.8547 -5.7422 -2.4995 0.9688
6.1993 -4.2556 -2.4995 0.9688
6.4630 -3.6360 -2.4650 0.9692
6.5724 -2.9614 -2.3962 0.9701
6.8099 -2.3646 -2.3962 0.9701
7.1213 -1.1198 -2.3962 0.9701
7.1641 0.8014 -2.3962 0.9701
7.0643 1.4359 -2.3962 0.9701
6.9085 2.0589 -2.3962 0.9701
5.5768 5.0439 -2.4995 0.9688
4.0460 6.3380 -2.4995 0.9688
3.4659 6.6730 -2.4995 0.9688
2.8582 6.9550 -2.4995 0.9688
0.9192 7.4630 -2.4995 0.9688
0.2513 7.5152 -2.4995 0.9688
-1.0852 7.4406 -2.4995 0.9688
-2.8882 6.6054 -2.3964 0.9701
-4.0136 5.9887 -2.3964 0.9701
-4.5307 5.6077 -2.3964 0.9701
-5.0118 5.1822 -2.3964 0.9701
-8.0806 5.8161 -3.3095 0.9589
-9.4580 4.5177 -3.4841 0.9568
-5.5084 2.0513 -1.9539 0.9755
-11.1047 3.0419 -3.8273 0.9526
-12.7522 2.2974 -4.3072 0.9468
-18.5245 1.6554 -6.1822 0.9246
-18.4518 0.0000 -6.5985 0.9246
-5.5968 -3.3150 -2.3262 0.9727
-5.0689 -4.3832 -2.3964 0.9719
-4.6586 -4.8170 -2.3964 0.9719
-4.2114 -5.2125 -2.3964 0.9719
-2.6846 -6.1399 -2.3964 0.9719
-2.1275 -6.3545 -2.3964 0.9719
-1.5837 -6.6455 -2.4430 0.9714
-0.3891 -6.9786 -2.4995 0.9707
1.4684 -6.8335 -2.4995 0.9707
3.2216 -6.2027 -2.4995 0.9707
4.2703 -5.5332 -2.4995 0.9707
5.1837 -4.6884 -2.4995 0.9707
5.9329 -3.6950 -2.4995 0.9707
6.6751 -0.7467 -2.4019 0.9719
5.7624 3.9557 -2.4995 0.9707
5.3875 4.4529 -2.4995 0.9707
4.9697 4.9147 -2.4995 0.9707
4.5126 5.3375 -2.4995 0.9707
4.0196 5.7180 -2.4995 0.9707
3.4947 6.0530 -2.4995 0.9707
2.3661 6.5768 -2.4995 0.9707
1.7714 6.7613 -2.4995 0.9707
1.1626 6.8921 -2.4995 0.9707
-0.0779 6.9890 -2.4995 0.9707
-2.4085 6.2534 -2.3964 0.9719
-2.9555 6.0142 -2.3964 0.9719
-4.4394 5.0197 -2.3964 0.9719
-4.8686 4.6046 -2.3964 0.9719
-8.6417 4.6113 -3.5028 0.9592
-9.2974 3.9424 -3.6114 0.9580
-5.5014 1.2464 -2.0172 0.9763
-13.0746 1.7584 -4.7177 0.9455
-5.6915 -1.8353 -2.1385 0.9749
-5.5962 -2.9862 -2.2683 0.9734
-5.2591 -4.1531 -2.3964 0.9719
-4.8686 -4.6047 -2.3964 0.9719
-2.9555 -6.0142 -2.3964 0.9719
-2.4085 -6.2534 -2.3964 0.9719
-1.8423 -6.4430 -2.3964 0.9719
-0.6996 -6.9544 -2.4995 0.9707
-0.0779 -6.9890 -2.4995 0.9707
0.5445 -6.9682 -2.4995 0.9707
1.1626 -6.8921 -2.4995 0.9707
1.7714 -6.7613 -2.4995 0.9707
4.5126 -5.3375 -2.4995 0.9707
4.9697 -4.9147 -2.4995 0.9707
5.3875 -4.4529 -2.4995 0.9707
6.4630 -2.2442 -2.4466 0.9714
6.6991 0.1493 -2.3962 0.9719
6.6751 0.7467 -2.4019 0.9719
6.4711 1.9286 -2.4147 0.9717
6.2382 3.1523 -2.4995 0.9707
5.1837 4.6884 -2.4995 0.9707
2.6568 6.4648 -2.4995 0.9707
2.0708 6.6756 -2.4995 0.9707
1.4684 6.8335 -2.4995 0.9707
0.8544 6.9371 -2.4995 0.9707
-1.0087 6.9163 -2.4995 0.9707
-1.5837 6.6455 -2.4431 0.9714
-2.1275 6.3545 -2.3964 0.9719
-3.2205 5.8766 -2.3964 0.9719
-4.2114 5.2125 -2.3964 0.9719
-8.9710 4.2851 -3.5553 0.9586
-9.6226 3.5835 -3.6720 0.9573
-11.7594 2.1186 -4.2729 0.9505
-5.5087 0.4922 -1.9778 0.9768
-5.5206 -0.0000 -2.1156 0.9766
-5.5944 -2.0834 -2.2877 0.9748
-5.5956 -2.6728 -2.3764 0.9738
-4.3473 -4.4950 -2.3964 0.9736
-3.4814 -5.1946 -2.3964 0.9736
-1.9853 -5.9298 -2.3964 0.9736
-1.5120 -6.3447 -2.4995 0.9724
0.2179 -6.5187 -2.4995 0.9724
1.3703 -6.3768 -2.4995 0.9724
2.4792 -6.0328 -2.4995 0.9724
3.5096 -5.4976 -2.4995 0.9724
3.9849 -5.1634 -2.4995 0.9724
4.4287 -4.7883 -2.4995 0.9724
4.8373 -4.3751 -2.4995 0.9724
5.2075 -3.9272 -2.4995 0.9724
5.5364 -3.4481 -2.4995 0.9724
5.8213 -2.9416 -2.4995 0.9724
6.0600 -2.4118 -2.4995 0.9724
6.2507 -1.8629 -2.4995 0.9724
6.3917 -1.2992 -2.4995 0.9724
6.4630 -0.7230 -2.4922 0.9725
6.4630 -0.1440 -2.4773 0.9727
6.4630 0.4327 -2.4823 0.9726
6.3274 1.5826 -2.4995 0.9724
5.3773 3.6913 -2.4995 0.9724
5.0274 4.1553 -2.4995 0.9724
4.2110 4.9808 -2.4995 0.9724
3.7510 5.3358 -2.4995 0.9724
2.2080 6.1372 -2.4995 0.9724
1.6530 6.3094 -2.4995 0.9724
1.0849 6.4315 -2.4995 0.9724
0.5081 6.5025 -2.4995 0.9724
-0.0727 6.5220 -2.4995 0.9724
-0.6529 6.4896 -2.4995 0.9724
-1.7192 6.0124 -2.3964 0.9736
-3.2465 5.3446 -2.3964 0.9736
-3.7094 5.0344 -2.3964 0.9736
-4.1427 4.6843 -2.3964 0.9736
-4.9076 3.8755 -2.3964 0.9736
-9.5768 3.0881 -3.8561 0.9578
-5.5014 1.2464 -2.1617 0.9761
-11.8375 1.5920 -4.5772 0.9501
-18.5164 -0.8257 -7.1029 0.9237
-5.6915 -1.8353 -2.2917 0.9747
-4.9076 -3.8755 -2.3964 0.9736
-4.5432 -4.2969 -2.3964 0.9736
-3.2465 -5.3445 -2.3964 0.9736
-2.2475 -5.8355 -2.3964 0.9736
-1.7192 -6.0124 -2.3964 0.9736
-1.2279 -6.4057 -2.4995 0.9724
-0.6529 -6.4896 -2.4995 0.9724
-0.0727 -6.5220 -2.4995 0.9724
1.0849 -6.4315 -2.4995 0.9724
1.6530 -6.3094 -2.4995 0.9724
2.2080 -6.1372 -2.4995 0.9724
2.7455 -5.9164 -2.4995 0.9724
3.2612 -5.6485 -2.4995 0.9724
3.7510 -5.3358 -2.4995 0.9724
5.0274 -4.1553 -2.4995 0.9724
5.6845 -3.1980 -2.4995 0.9724
6.4432 -1.0131 -2.4995 0.9724
6.4630 -0.4326 -2.4823 0.9726
6.3917 1.2992 -2.4995 0.9724
5.8213 2.9416 -2.4995 0.9724
5.5364 3.4481 -2.4995 0.9724
4.8373 4.3751 -2.4995 0.9724
4.4287 4.7883 -2.4995 0.9724
3.9850 5.1635 -2.4995 0.9724
3.0063 5.7882 -2.4995 0.9724
2.4792 6.0328 -2.4995 0.9724
0.7973 6.4734 -2.4995 0.9724
-1.5120 6.3447 -2.4995 0.9724
-2.5052 5.7296 -2.3964 0.9736
-3.0052 5.4839 -2.3964 0.9736
-3.4814 5.1946 -2.3964 0.9736
-3.9299 4.8641 -2.3964 0.9736
-4.3473 4.4950 -2.3964 0.9736
-5.0754 3.6530 -2.3964 0.9736
-5.3804 3.1868 -2.3964 0.9736
-8.5243 4.0717 -3.6202 0.9603
-9.1462 3.4061 -3.7402 0.9591
-5.5086 0.9924 -2.1450 0.9763
-14.0872 1.2588 -5.4200 0.9412
-1.6200 -0.2919 -0.6737 0.9929
-1.6035 -0.4392 -0.6804 0.9928
-4.4290 -3.8299 -2.3964 0.9750
-4.0705 -4.2089 -2.3964 0.9750
-3.6797 -4.5545 -2.3964 0.9750
-3.2598 -4.8639 -2.3964 0.9750
-2.8139 -5.1347 -2.3964 0.9750
-1.8589 -5.5523 -2.3964 0.9750
-1.4158 -5.9407 -2.4995 0.9740
0.2041 -6.1037 -2.4995 0.9740
0.7465 -6.0613 -2.4995 0.9740
1.2830 -5.9708 -2.4995 0.9740
1.8094 -5.8329 -2.4995 0.9740
2.8149 -5.4197 -2.4995 0.9740
3.2861 -5.1476 -2.4995 0.9740
4.1468 -4.4834 -2.4995 0.9740
4.8760 -3.6771 -2.4995 0.9740
5.4507 -2.7544 -2.4995 0.9740
5.6742 -2.2583 -2.4995 0.9740
6.0692 -0.6790 -2.4995 0.9740
6.1056 -0.1361 -2.4995 0.9740
6.0935 0.4079 -2.4995 0.9740
5.5680 2.5088 -2.4995 0.9740
5.3226 2.9944 -2.4995 0.9740
5.0349 3.4563 -2.4995 0.9740
3.0535 5.2889 -2.4995 0.9740
2.0674 5.7465 -2.4995 0.9740
1.5478 5.9077 -2.4995 0.9740
0.4758 6.0885 -2.4995 0.9740
-0.0680 6.1067 -2.4995 0.9740
-1.6097 5.6296 -2.3964 0.9750
-2.5824 5.2550 -2.3964 0.9750
-3.0398 5.0043 -2.3964 0.9750
-3.4732 4.7139 -2.3964 0.9750
-4.2540 4.0234 -2.3964 0.9750
-5.1658 2.7565 -2.3964 0.9750
-5.3906 2.2858 -2.3964 0.9750
-1.5889 0.5124 -0.6833 0.9928
-18.1904 0.8111 -7.4523 0.9243
-5.5089 -0.2457 -2.2569 0.9764
-1.6146 -0.3658 -0.6776 0.9929
-1.5889 -0.5124 -0.6833 0.9928
-4.2540 -4.0234 -2.3964 0.9750
-3.4732 -4.7138 -2.3964 0.9750
-3.0399 -5.0043 -2.3964 0.9750
-2.1044 -5.4640 -2.3964 0.9750
-1.6097 -5.6296 -2.3964 0.9750
-1.1497 -5.9979 -2.4995 0.9740
1.0158 -6.0220 -2.4995 0.9740
1.5478 -5.9077 -2.4995 0.9740
2.0674 -5.7465 -2.4995 0.9740
3.9429 -4.6637 -2.4995 0.9740
4.3424 -4.2942 -2.4995 0.9740
4.7073 -3.8907 -2.4995 0.9740
5.3226 -2.9945 -2.4995 0.9740
5.5680 -2.5088 -2.4995 0.9740
5.7692 -2.0033 -2.4995 0.9740
6.0935 -0.4079 -2.4995 0.9740
5.9847 1.2164 -2.4995 0.9740
5.8527 1.7443 -2.4995 0.9740
5.6742 2.2583 -2.4995 0.9740
5.4507 2.7544 -2.4995 0.9740
5.1839 3.2286 -2.4995 0.9740
4.8760 3.6771 -2.4995 0.9740
4.5293 4.0965 -2.4995 0.9740
3.7312 4.8347 -2.4995 0.9740
2.3214 5.6487 -2.4995 0.9740
1.8094 5.8329 -2.4995 0.9740
0.2041 6.1037 -2.4995 0.9740
-1.4157 5.9407 -2.4995 0.9740
-1.8589 5.5523 -2.3964 0.9750
-2.3457 5.3648 -2.3964 0.9750
-3.6797 4.5545 -2.3964 0.9750
-4.0705 4.2089 -2.3964 0.9750
-5.2834 2.5237 -2.3964 0.9750
-1.5266 0.0000 -0.6653 0.9934
-1.5001 -0.4109 -0.6779 0.9932
-5.1529 -1.9190 -2.3964 0.9763
-4.7310 -2.8022 -2.3964 0.9763
-4.1592 -3.5966 -2.3964 0.9763
-2.2029 -5.0381 -2.3964 0.9763
-1.7457 -5.2141 -2.3964 0.9763
-1.3295 -5.5789 -2.4995 0.9753
-0.8277 -5.6751 -2.4995 0.9753
-0.3193 -5.7263 -2.4995 0.9753
0.7011 -5.6922 -2.4995 0.9753
1.6992 -5.4777 -2.4995 0.9753
2.1800 -5.3047 -2.4995 0.9753
2.6435 -5.0896 -2.4995 0.9753
3.0860 -4.8341 -2.4995 0.9753
3.5040 -4.5403 -2.4995 0.9753
5.1187 -2.5866 -2.4995 0.9753
5.3287 -2.1208 -2.4995 0.9753
5.6202 -1.1424 -2.4995 0.9753
5.6996 -0.6376 -2.4995 0.9753
5.7337 -0.1278 -2.4995 0.9753
5.7224 0.3831 -2.4995 0.9753
5.6656 0.8909 -2.4995 0.9753
5.4178 1.8813 -2.4995 0.9753
4.9984 2.8121 -2.4995 0.9753
4.7283 3.2458 -2.4995 0.9753
4.0779 4.0327 -2.4995 0.9753
2.8676 4.9668 -2.4995 0.9753
2.4141 5.2023 -2.4995 0.9753
1.9415 5.3965 -2.4995 0.9753
0.9539 5.6553 -2.4995 0.9753
0.4468 5.7177 -2.4995 0.9753
-0.0639 5.7348 -2.4995 0.9753
-0.5741 5.7063 -2.4995 0.9753
-1.0797 5.6326 -2.4995 0.9753
-1.9762 5.1312 -2.3964 0.9763
-2.8547 4.6995 -2.3964 0.9763
-4.6015 3.0102 -2.3964 0.9763
-4.8512 2.5887 -2.3964 0.9763
-1.4861 0.4792 -0.6805 0.9932
-1.5029 0.3405 -0.6716 0.9933
-1.5259 -0.0680 -0.6657 0.9934
-1.4861 -0.4792 -0.6805 0.9932
-5.0623 -2.1466 -2.3964 0.9763
-4.3153 -3.4078 -2.3964 0.9763
-3.9949 -3.7783 -2.3964 0.9763
-3.6427 -4.1189 -2.3964 0.9763
-2.4251 -4.9349 -2.3964 0.9763
-1.0797 -5.6326 -2.4995 0.9753
-0.5741 -5.7064 -2.4995 0.9753
0.9539 -5.6553 -2.4995 0.9753
1.4535 -5.5479 -2.4995 0.9753
2.8676 -4.9668 -2.4995 0.9753
3.7028 -4.3797 -2.4995 0.9753
4.0779 -4.0327 -2.4995 0.9753
4.9984 -2.8121 -2.4995 0.9753
5.4178 -1.8813 -2.4995 0.9753
5.3287 2.1207 -2.4995 0.9753
4.2535 3.8471 -2.4995 0.9753
3.8942 4.2104 -2.4995 0.9753
3.5040 4.5403 -2.4995 0.9753
3.0860 4.8341 -2.4995 0.9753
2.1800 5.3047 -2.4995 0.9753
1.6992 5.4777 -2.4995 0.9753
1.2049 5.6072 -2.4995 0.9753
0.1916 5.7320 -2.4995 0.9753
-0.3193 5.7263 -2.4995 0.9753
-1.7457 5.2142 -2.3964 0.9763
-2.2029 5.0381 -2.3964 0.9763
-3.0612 4.5677 -2.3964 0.9763
-3.4556 4.2771 -2.3964 0.9763
-3.8226 3.9526 -2.3964 0.9763
-4.1592 3.5966 -2.3964 0.9763
-4.4628 3.2121 -2.3964 0.9763
-4.9617 2.3700 -2.3964 0.9763
-1.5001 0.4109 -0.6779 0.9932
-1.5015 0.2705 -0.6649 0.9934
-1.4172 -0.1266 -0.6586 0.9937
-4.8516 -1.8068 -2.3964 0.9774
-4.6715 -2.2314 -2.3964 0.9774
-4.4544 -2.6383 -2.3964 0.9774
-3.9160 -3.3863 -2.3964 0.9774
-3.5991 -3.7214 -2.3964 0.9774
-2.8822 -4.3006 -2.3964 0.9774
-2.0740 -4.7435 -2.3964 0.9774
-1.6436 -4.9093 -2.3964 0.9774
-1.2518 -5.2527 -2.4995 0.9765
-0.3006 -5.3914 -2.4995 0.9765
1.5998 -5.1574 -2.4995 0.9765
2.9055 -4.5514 -2.4995 0.9765
3.2991 -4.2748 -2.4995 0.9765
3.6665 -3.9642 -2.4995 0.9765
5.0170 -1.9967 -2.4995 0.9765
5.1749 -1.5423 -2.4995 0.9765
5.3877 0.3607 -2.4995 0.9765
5.3342 0.8388 -2.4995 0.9765
5.2384 1.3102 -2.4995 0.9765
5.1010 1.7713 -2.4995 0.9765
4.9231 2.2182 -2.4995 0.9765
4.1621 3.4401 -2.4995 0.9765
3.8394 3.7969 -2.4995 0.9765
2.2730 4.8981 -2.4995 0.9765
0.8981 5.3246 -2.4995 0.9765
-1.4845 5.1917 -2.4995 0.9765
-2.2022 2.9889 -1.7185 0.9838
-3.7613 3.5574 -2.3964 0.9774
-4.0630 3.2085 -2.3964 0.9774
-4.5675 2.4373 -2.3964 0.9774
-4.7663 2.0211 -2.3964 0.9774
-1.3967 0.3165 -0.6629 0.9937
-1.4099 0.1896 -0.6585 0.9937
-1.4212 0.0634 -0.6585 0.9937
-1.3890 -0.4479 -0.6755 0.9936
-4.7663 -2.0211 -2.3964 0.9774
-4.5675 -2.4373 -2.3964 0.9774
-3.4297 -3.8780 -2.3964 0.9774
-3.0709 -4.1679 -2.3964 0.9774
-2.6878 -4.4247 -2.3964 0.9774
-2.2833 -4.6464 -2.3964 0.9774
-1.0165 -5.3032 -2.4995 0.9765
-0.0602 -5.3995 -2.4995 0.9765
0.8981 -5.3246 -2.4995 0.9765
2.2730 -4.8981 -2.4995 0.9765
2.6999 -4.6763 -2.4995 0.9765
3.4863 -4.1236 -2.4995 0.9765
4.1621 -3.4401 -2.4995 0.9765
4.4518 -3.0560 -2.4995 0.9765
5.3985 0.1203 -2.4995 0.9765
5.3663 0.6003 -2.4995 0.9765
5.2916 1.0756 -2.4995 0.9765
5.1749 1.5423 -2.4995 0.9765
5.0171 1.9967 -2.4995 0.9765
4.3113 3.2513 -2.4995 0.9765
4.0048 3.6221 -2.4995 0.9765
3.2991 4.2748 -2.4995 0.9765
2.9055 4.5514 -2.4995 0.9765
2.0525 4.9945 -2.4995 0.9765
1.5998 5.1573 -2.4995 0.9765
0.6601 5.3593 -2.4995 0.9765
0.1804 5.3968 -2.4995 0.9765
-0.3006 5.3914 -2.4995 0.9765
-0.7793 5.3433 -2.4995 0.9765
-2.4880 4.5400 -2.3964 0.9774
-2.0669 3.0840 -1.7185 0.9838
-3.9160 3.3863 -2.3964 0.9774
-4.4544 2.6383 -2.3964 0.9774
-4.6715 2.2314 -2.3964 0.9774
-1.3993 0.2521 -0.6581 0.9938
-1.4172 0.1266 -0.6586 0.9937
-1.3367 0.0000 -0.6557 0.9941
-1.3159 -0.2371 -0.6559 0.9941
-1.3061 -0.3578 -0.6642 0.9940
-1.2931 -0.4815 -0.6768 0.9939
-3.9651 -2.8539 -2.3964 0.9785
-3.3963 -3.5117 -2.3964 0.9785
-2.3478 -4.2842 -2.3964 0.9785
-1.1812 -4.9567 -2.4995 0.9776
-0.2837 -5.0876 -2.4995 0.9776
0.6229 -5.0573 -2.4995 0.9776
1.5097 -4.8668 -2.4995 0.9776
2.3487 -4.5220 -2.4995 0.9776
3.1132 -4.0339 -2.4995 0.9776
3.7791 -3.4180 -2.4995 0.9776
4.0683 -3.0681 -2.4995 0.9776
4.3253 -2.6938 -2.4995 0.9776
4.5479 -2.2981 -2.4995 0.9776
5.0640 -0.5665 -2.4995 0.9776
5.0943 -0.1135 -2.4995 0.9776
5.0842 0.3404 -2.4995 0.9776
5.0337 0.7915 -2.4995 0.9776
4.9433 1.2364 -2.4995 0.9776
4.8136 1.6714 -2.4995 0.9776
4.2010 2.8838 -2.4995 0.9776
3.9276 3.2463 -2.4995 0.9776
3.6231 3.5830 -2.4995 0.9776
3.2898 3.8912 -2.4995 0.9776
1.2914 4.9292 -2.4995 0.9776
0.8475 5.0246 -2.4995 0.9776
-2.1815 2.9608 -1.8040 0.9837
-4.0883 2.6745 -2.3964 0.9785
-4.4977 1.9072 -2.3964 0.9785
-1.3251 0.1782 -0.6559 0.9941
-1.3355 0.0596 -0.6558 0.9941
-1.3355 -0.0596 -0.6558 0.9941
-4.3101 -2.2999 -2.3964 0.9785
-4.0883 -2.6744 -2.3964 0.9785
-3.5493 -3.3570 -2.3964 0.9785
-3.2365 -3.6595 -2.3964 0.9785
-2.8979 -3.9331 -2.3964 0.9785
-1.4009 -4.8992 -2.4995 0.9776
0.3970 -5.0800 -2.4995 0.9776
1.2914 -4.9292 -2.4995 0.9776
1.7250 -4.7947 -2.4995 0.9776
2.5478 -4.4129 -2.4995 0.9776
2.9304 -4.1686 -2.4995 0.9776
3.2898 -3.8912 -2.4995 0.9776
4.2010 -2.8838 -2.4995 0.9776
4.4410 -2.4985 -2.4995 0.9776
4.6457 -2.0933 -2.4995 0.9776
5.0337 -0.7915 -2.4995 0.9776
5.0943 0.1135 -2.4995 0.9776
4.9934 1.0150 -2.4995 0.9776
4.8833 1.4554 -2.4995 0.9776
4.7344 1.8842 -2.4995 0.9776
4.3253 2.6938 -2.4995 0.9776
4.0683 3.0681 -2.4995 0.9776
2.7418 4.2950 -2.4995 0.9776
2.3487 4.5220 -2.4995 0.9776
1.9369 4.7131 -2.4995 0.9776
1.5097 4.8668 -2.4995 0.9776
0.6229 5.0573 -2.4995 0.9776
-0.2837 5.0876 -2.4995 0.9776
-0.7354 5.0422 -2.4995 0.9776
-1.5829 4.7280 -2.4457 0.9780
-2.3478 4.2842 -2.3964 0.9785
-3.3963 3.5117 -2.3964 0.9785
-4.2034 2.4897 -2.3964 0.9785
-4.4083 2.1057 -2.3964 0.9785
-1.2931 0.4815 -0.6768 0.9939
-1.3061 0.3578 -0.6642 0.9940
-1.3159 0.2371 -0.6559 0.9941
-1.3317 0.1190 -0.6558 0.9941
-1.2624 0.0000 -0.6549 0.9943
-1.2576 -0.1124 -0.6550 0.9943
-1.2283 -0.3365 -0.6607 0.9943
-1.2162 -0.4529 -0.6733 0.9942
-4.1682 -1.9910 -2.3964 0.9794
-3.7491 -2.6985 -2.3964 0.9794
-2.0470 -3.0543 -1.9075 0.9836
-1.1169 -4.6868 -2.4995 0.9785
-0.6953 -4.7676 -2.4995 0.9785
-0.2682 -4.8105 -2.4995 0.9785
0.1610 -4.8153 -2.4995 0.9785
1.0122 -4.7105 -2.4995 0.9785
1.8314 -4.4564 -2.4995 0.9785
2.2207 -4.2757 -2.4995 0.9785
2.5925 -4.0611 -2.4995 0.9785
2.9436 -3.8142 -2.4995 0.9785
3.2715 -3.5371 -2.4995 0.9785
3.5733 -3.2318 -2.4995 0.9785
3.8468 -2.9010 -2.4995 0.9785
4.4765 -1.7816 -2.4995 0.9785
4.6173 -1.3761 -2.4995 0.9785
4.7215 -0.9597 -2.4995 0.9785
4.8168 -0.1073 -2.4995 0.9785
4.8072 0.3218 -2.4995 0.9785
4.5514 1.5804 -2.4995 0.9785
4.3927 1.9793 -2.4995 0.9785
4.1991 2.3624 -2.4995 0.9785
3.9722 2.7267 -2.4995 0.9785
2.7708 3.9415 -2.4995 0.9785
1.6310 4.5336 -2.4995 0.9785
0.8014 4.7509 -2.4995 0.9785
-0.4823 4.7938 -2.4995 0.9785
-1.3246 4.6323 -2.4995 0.9785
-1.6602 4.3106 -2.3964 0.9794
-2.0373 4.1458 -2.3964 0.9794
-2.1783 2.9565 -1.9051 0.9836
-3.3560 3.1741 -2.3964 0.9794
-3.6252 2.8628 -2.3964 0.9794
-4.0754 2.1747 -2.3964 0.9794
-4.2527 1.8033 -2.3964 0.9794
-1.2514 0.1683 -0.6551 0.9943
-1.2613 0.0562 -0.6550 0.9943
-1.2613 -0.0562 -0.6550 0.9943
-1.2514 -0.1683 -0.6551 0.9943
-1.2222 -0.3941 -0.6662 0.9942
-4.2528 -1.8033 -2.3964 0.9794
-4.0754 -2.1747 -2.3964 0.9794
-3.8656 -2.5288 -2.3964 0.9794
-3.6252 -2.8628 -2.3964 0.9794
-2.7401 -3.7188 -2.3964 0.9794
-2.3982 -3.9480 -2.3964 0.9794
-1.3246 -4.6324 -2.4995 0.9785
0.3753 -4.8034 -2.4995 0.9785
1.6310 -4.5335 -2.4995 0.9785
2.0281 -4.3704 -2.4995 0.9785
2.4090 -4.1725 -2.4995 0.9785
2.7708 -3.9415 -2.4995 0.9785
3.4258 -3.3878 -2.4995 0.9785
3.7137 -3.0695 -2.4995 0.9785
4.5514 -1.5804 -2.4995 0.9785
4.7595 -0.7484 -2.4995 0.9785
4.8072 -0.3218 -2.4995 0.9785
4.8168 0.1073 -2.4995 0.9785
4.7881 0.5356 -2.4995 0.9785
4.7215 0.9597 -2.4995 0.9785
4.4765 1.7816 -2.4995 0.9785
3.8468 2.9010 -2.4995 0.9785
3.5733 3.2318 -2.4995 0.9785
2.5925 4.0611 -2.4995 0.9785
1.8314 4.4564 -2.4995 0.9785
0.5889 4.7819 -2.4995 0.9785
0.1610 4.8153 -2.4995 0.9785
-0.2682 4.8105 -2.4995 0.9785
-1.5296 4.5687 -2.4995 0.9785
-2.2199 4.0509 -2.3964 0.9794
-2.9030 3.5931 -2.3964 0.9794
-3.4941 3.0215 -2.3964 0.9794
-3.7491 2.6985 -2.3964 0.9794
-3.9744 2.3541 -2.3964 0.9794
-1.2162 0.4529 -0.6733 0.9942
-1.2283 0.3365 -0.6607 0.9943
-1.1577 -0.3171 -0.6575 0.9945
-3.5512 -2.5560 -2.3964 0.9802
-3.0417 -3.1451 -2.3964 0.9802
-2.7497 -3.4034 -2.3964 0.9802
-2.1027 -3.8370 -2.3964 0.9802
-1.4488 -4.3275 -2.4995 0.9794
0.9588 -4.4617 -2.4995 0.9794
2.4556 -3.8466 -2.4995 0.9794
3.3846 -3.0612 -2.4995 0.9794
3.6436 -2.7478 -2.4995 0.9794
3.8737 -2.4126 -2.4995 0.9794
4.0731 -2.0582 -2.4995 0.9794
4.2401 -1.6875 -2.4995 0.9794
4.3735 -1.3034 -2.4995 0.9794
4.4721 -0.9090 -2.4995 0.9794
4.5353 -0.5073 -2.4995 0.9794
4.5534 0.3048 -2.4995 0.9794
4.5082 0.7089 -2.4995 0.9794
4.3111 1.4970 -2.4995 0.9794
3.9773 2.2376 -2.4995 0.9794
3.7624 2.5827 -2.4995 0.9794
3.2449 3.2089 -2.4995 0.9794
2.9464 3.4850 -2.4995 0.9794
2.6245 3.7334 -2.4995 0.9794
2.2818 3.9522 -2.4995 0.9794
1.9210 4.1396 -2.4995 0.9794
1.5449 4.2941 -2.4995 0.9794
1.1566 4.4146 -2.4995 0.9794
-0.0508 4.5633 -2.4995 0.9794
-0.4568 4.5406 -2.4995 0.9794
-1.2546 4.3877 -2.4995 0.9794
-1.9297 3.9268 -2.3964 0.9802
-2.8986 3.2775 -2.3964 0.9802
-3.8601 2.0598 -2.3964 0.9802
-1.1411 0.4838 -0.6788 0.9944
-1.1840 0.1592 -0.6543 0.9946
-1.1933 -0.0532 -0.6542 0.9946
-1.1840 -0.1592 -0.6543 0.9946
-3.6615 -2.3952 -2.3964 0.9802
-3.1788 -3.0065 -2.3964 0.9802
-2.2715 -3.7395 -2.3964 0.9802
-1.5888 -4.1252 -2.4212 0.9800
-0.8591 -4.4820 -2.4995 0.9794
-0.4568 -4.5406 -2.4995 0.9794
1.1566 -4.4146 -2.4995 0.9794
1.5449 -4.2941 -2.4995 0.9794
2.2818 -3.9522 -2.4995 0.9794
2.9464 -3.4850 -2.4995 0.9794
3.9773 -2.2376 -2.4995 0.9794
4.1607 -1.8747 -2.4995 0.9794
4.4272 -1.1073 -2.4995 0.9794
4.5624 0.1017 -2.4995 0.9794
4.4721 0.9090 -2.4995 0.9794
4.2401 1.6875 -2.4995 0.9794
4.0731 2.0582 -2.4995 0.9794
3.8737 2.4126 -2.4995 0.9794
0.9588 4.4617 -2.4995 0.9794
-0.2541 4.5565 -2.4995 0.9794
-0.6586 4.5158 -2.4995 0.9794
-2.1027 3.8370 -2.3964 0.9802
-2.0325 3.0326 -1.9995 0.9835
-2.7497 3.4033 -2.3964 0.9802
-3.3096 2.8619 -2.3964 0.9802
-1.1756 0.2118 -0.6543 0.9946
-1.1276 -0.1008 -0.6536 0.9948
-1.0827 -0.4032 -0.6671 0.9947
-3.7453 -1.7890 -2.3964 0.9810
-3.3688 -2.4247 -2.3964 0.9810
-3.1396 -2.7149 -2.3964 0.9810
-1.6628 -3.8030 -2.3964 0.9810
-1.3744 -4.1053 -2.4995 0.9802
-1.0036 -4.2113 -2.4995 0.9802
-0.6248 -4.2839 -2.4995 0.9802
0.1447 -4.3268 -2.4995 0.9802
0.9095 -4.2326 -2.4995 0.9802
1.9954 -3.8419 -2.4995 0.9802
2.6450 -3.4273 -2.4995 0.9802
2.9396 -3.1782 -2.4995 0.9802
3.2108 -2.9040 -2.4995 0.9802
3.4565 -2.6067 -2.4995 0.9802
4.0224 -1.6009 -2.4995 0.9802
4.1489 -1.2365 -2.4995 0.9802
4.2425 -0.8623 -2.4995 0.9802
4.3024 -0.4813 -2.4995 0.9802
3.9471 1.7784 -2.4995 0.9802
3.5692 2.4501 -2.4995 0.9802
3.3370 2.7581 -2.4995 0.9802
2.4897 3.5417 -2.4995 0.9802
2.1646 3.7492 -2.4995 0.9802
1.8223 3.9270 -2.4995 0.9802
0.7201 4.2689 -2.4995 0.9802
-0.0482 4.3289 -2.4995 0.9802
-0.4333 4.3075 -2.4995 0.9802
-0.8150 4.2518 -2.4995 0.9802
-1.1902 4.1624 -2.4995 0.9802
-1.5560 4.0400 -2.4995 0.9802
-2.1718 2.9476 -2.1138 0.9832
-2.7497 3.1092 -2.3964 0.9810
-3.0156 2.8521 -2.3964 0.9810
-3.6619 1.9541 -2.3964 0.9810
-1.0769 0.4566 -0.6753 0.9946
-1.0870 0.3505 -0.6594 0.9947
-1.1039 0.2501 -0.6535 0.9948
-1.1220 0.1509 -0.6536 0.9948
-1.1309 0.0504 -0.6536 0.9948
-1.1309 -0.0504 -0.6536 0.9948
-1.1039 -0.2501 -0.6535 0.9948
-1.0870 -0.3505 -0.6594 0.9947
-3.4735 -2.2722 -2.3964 0.9810
-3.0156 -2.8521 -2.3964 0.9810
-2.4621 -3.3416 -2.3964 0.9810
-1.8306 -3.7252 -2.3964 0.9810
-0.8150 -4.2518 -2.4995 0.9802
0.7201 -4.2689 -2.4995 0.9802
1.0972 -4.1879 -2.4995 0.9802
2.1646 -3.7492 -2.4995 0.9802
2.7951 -3.3060 -2.4995 0.9802
3.9471 -1.7785 -2.4995 0.9802
4.0897 -1.4201 -2.4995 0.9802
4.2767 -0.6725 -2.4995 0.9802
4.3196 -0.2891 -2.4995 0.9802
4.3024 0.4813 -2.4995 0.9802
4.1489 1.2365 -2.4995 0.9802
3.8639 1.9525 -2.4995 0.9802
3.6748 2.2887 -2.4995 0.9802
3.4565 2.6067 -2.4995 0.9802
3.2108 2.9040 -2.4995 0.9802
2.9396 3.1782 -2.4995 0.9802
2.6450 3.4272 -2.4995 0.9802
1.6456 4.0043 -2.4995 0.9802
1.2826 4.1348 -2.4995 0.9802
-0.6248 4.2839 -2.4995 0.9802
-1.3744 4.1053 -2.4995 0.9802
-1.6628 3.8030 -2.3964 0.9810
-1.9947 3.6399 -2.3964 0.9810
-2.0281 3.0261 -2.1032 0.9833
-2.6085 3.2286 -2.3964 0.9810
-2.8855 2.9836 -2.3964 0.9810
-3.3688 2.4247 -2.3964 0.9810
-3.5712 2.1153 -2.3964 0.9810
-1.1141 0.2007 -0.6536 0.9948
