ply
format ascii 1.0
element vertex 1400
property float32 x
property float32 y
property float32 z
property float32 I
end_header
7.0664 -15.2277 2.9601 0.9341
7.0656 -15.2261 2.1858 0.9345
12.0285 15.5858 2.5637 0.9237
12.0285 15.5858 2.1141 0.9239
11.4502 16.2882 1.6854 0.9232
7.0649 -15.2245 1.4208 0.9348
7.0644 -15.2234 1.0407 0.9350
11.4575 16.2986 0.7856 0.9233
12.0353 15.5945 0.7767 0.9242
17.7860 -0.3963 0.3005 0.9313
11.4575 16.2986 0.3365 0.9234
-18.7716 6.0530 0.3332 0.9241
17.9263 0.3995 0.3029 0.9308
12.0353 15.5945 0.3327 0.9242
-18.6283 6.9372 0.3358 0.9236
17.7860 -0.3963 -0.1002 0.9313
18.1395 1.2143 -0.1024 0.9299
-18.5777 5.9905 -0.1099 0.9249
7.0622 -15.2186 -0.0945 0.9351
17.6476 -1.1814 -0.0996 0.9317
-18.4155 6.8580 -0.1106 0.9244
17.7860 -0.3964 -0.5009 0.9313
12.8979 15.2557 -0.5625 0.9232
7.0614 -15.2170 -0.4724 0.9351
17.7860 -0.3963 -0.9022 0.9312
-18.1034 5.8376 -0.9647 0.9266
7.0607 -15.2154 -0.8507 0.9350
17.6476 -1.1814 -0.8970 0.9316
17.9263 0.3995 -0.9093 0.9307
10.5382 -13.6547 -1.2647 0.9332
17.7860 -0.3964 -1.3044 0.9311
11.4575 16.2986 -1.4608 0.9232
-9.2971 15.3051 -1.3130 0.9307
-11.3850 12.8732 -1.2601 0.9334
-17.8329 7.5617 -1.4202 0.9253
7.0599 -15.2137 -1.2298 0.9349
17.6476 -1.1814 -1.2969 0.9315
17.9263 0.3995 -1.3147 0.9306
12.0353 15.5945 -1.4443 0.9240
-9.1828 16.7565 -1.4010 0.9262
-12.1043 12.5157 -1.2766 0.9325
-13.3592 11.5521 -1.2950 0.9316
-16.0412 9.5012 -1.3670 0.9280
10.4619 -16.3884 -1.8666 0.9248
10.4675 -13.5632 -1.6448 0.9335
10.5261 -7.9381 -1.2657 0.9484
17.7860 -0.3963 -1.7080 0.9310
-10.9101 12.3362 -1.5811 0.9360
-11.9171 11.2711 -1.5748 0.9362
-13.5469 10.6979 -1.6572 0.9330
-14.5928 9.5462 -1.6741 0.9323
-18.0236 7.6426 -1.8795 0.9243
10.4649 -14.8866 -1.7470 0.9295
10.6058 -12.5446 -1.5771 0.9361
10.5246 -8.6988 -1.3109 0.9466
17.9263 0.3995 -1.7214 0.9305
-8.7813 16.0238 -1.7542 0.9292
-9.0503 13.5039 -1.5607 0.9368
-11.1027 11.4802 -1.5333 0.9378
-14.4105 10.3721 -1.7046 0.9311
-17.5997 8.4066 -1.8725 0.9246
-17.4632 6.5033 -1.7890 0.9279
-5.6582 -10.3248 -1.3985 0.9537
10.4675 -13.5632 -2.0351 0.9333
10.4757 -9.4747 -1.6778 0.9447
10.5254 -7.9376 -1.5659 0.9483
10.5356 -3.1400 -1.3059 0.9567
17.7860 -0.3963 -2.1133 0.9308
-8.2438 16.7757 -2.2203 0.9275
-8.5678 14.1045 -1.9603 0.9357
-9.3850 12.7374 -1.8794 0.9383
-10.4714 11.8402 -1.8776 0.9383
-13.0382 10.2961 -1.9734 0.9353
-17.7686 7.5345 -2.2926 0.9252
-17.6043 5.6766 -2.1972 0.9282
7.0204 -15.1286 -1.9811 0.9350
10.4649 -14.8865 -2.1615 0.9293
10.4928 -8.6725 -1.6170 0.9466
10.5366 -2.6354 -1.2902 0.9572
17.6476 -1.1814 -2.1010 0.9312
12.0353 15.5945 -2.3399 0.9237
-8.4107 15.3476 -2.0789 0.9319
-8.7125 13.0000 -1.8589 0.9389
-10.7448 11.1101 -1.8359 0.9396
-13.7341 9.8852 -2.0101 0.9341
-17.3414 6.4580 -2.1981 0.9282
-5.6106 -10.2380 -1.6542 0.9539
-5.6157 -12.8435 -1.9861 0.9449
-5.3717 -16.0444 -2.3973 0.9339
-0.9825 -17.6199 -2.5004 0.9312
0.5897 -17.6374 -2.5004 0.9312
2.1572 -17.5149 -2.5004 0.9312
5.2285 -16.8550 -2.5004 0.9312
6.4719 -15.7484 -2.4125 0.9335
7.7982 -15.0142 -2.3972 0.9339
10.4788 -7.9024 -1.8596 0.9484
10.4840 -5.2978 -1.6644 0.9537
10.5356 -3.1400 -1.5577 0.9566
17.0449 1.1410 -2.4205 0.9333
16.1379 5.6037 -2.4205 0.9333
15.5751 7.0178 -2.4205 0.9333
14.8886 8.3762 -2.4205 0.9333
14.0840 9.6681 -2.4205 0.9333
12.1467 12.0121 -2.4205 0.9333
8.4593 14.6519 -2.3972 0.9339
7.1216 15.3467 -2.3972 0.9339
5.9741 16.6053 -2.5004 0.9312
2.9353 17.4015 -2.5004 0.9312
-0.1966 17.6462 -2.5004 0.9312
-1.6936 16.8347 -2.3973 0.9339
-4.6516 16.2677 -2.3973 0.9339
-8.2402 13.5653 -2.2489 0.9379
-9.1044 12.3566 -2.1747 0.9399
-11.1430 10.5389 -2.1732 0.9399
-5.6129 -11.4220 -1.8032 0.9499
-5.6192 -14.5899 -2.2153 0.9388
-4.6516 -16.2677 -2.3973 0.9339
-3.1853 -16.6172 -2.3973 0.9339
-1.6936 -16.8347 -2.3973 0.9339
1.3748 -17.5937 -2.5004 0.9312
4.4724 -17.0711 -2.5004 0.9312
5.9741 -16.6053 -2.5004 0.9312
7.1216 -15.3467 -2.3972 0.9339
9.7298 -13.8408 -2.3972 0.9339
10.4739 -10.3579 -2.0872 0.9422
10.4773 -8.6597 -1.9260 0.9466
10.4828 -5.8975 -1.7042 0.9526
10.5694 -4.7623 -1.6426 0.9542
16.7408 3.4027 -2.4205 0.9333
15.2470 7.7046 -2.4205 0.9333
13.6393 10.2859 -2.4205 0.9333
12.6697 11.4591 -2.4205 0.9333
11.5995 12.5412 -2.4205 0.9333
6.4719 15.7484 -2.4125 0.9335
5.2285 16.8550 -2.5004 0.9312
2.1572 17.5150 -2.5004 0.9312
0.5897 17.6374 -2.5004 0.9312
-0.9825 17.6199 -2.5004 0.9312
-3.9223 16.4588 -2.3973 0.9339
-8.0674 14.7211 -2.3785 0.9344
-10.4075 10.7613 -2.1212 0.9413
-12.0047 10.3808 -2.2487 0.9379
-16.7867 8.0184 -2.6359 0.9276
-17.2429 6.4213 -2.6071 0.9284
-5.6493 -5.8413 -1.3387 0.9676
-5.6157 -12.8436 -2.3092 0.9448
-3.3735 -14.1559 -2.3973 0.9427
-2.1002 -14.4000 -2.3973 0.9427
1.8553 -15.0643 -2.5004 0.9403
3.1888 -14.8394 -2.5004 0.9403
4.4969 -14.4967 -2.5004 0.9403
5.7693 -14.0389 -2.5004 0.9403
6.7071 -12.9135 -2.3972 0.9427
8.8904 -11.5197 -2.3972 0.9427
10.4815 -6.5280 -2.0342 0.9512
10.4840 -5.2978 -1.9351 0.9535
10.4862 -4.1734 -1.8593 0.9553
10.4883 -3.1259 -1.8029 0.9566
14.6018 -1.6335 -2.4205 0.9422
14.6892 -0.3273 -2.4205 0.9422
14.5145 2.2823 -2.4205 0.9422
13.8799 4.8196 -2.4205 0.9422
12.8054 7.2042 -2.4205 0.9422
12.1134 8.3154 -2.4205 0.9422
10.3465 10.2319 -2.3972 0.9427
9.3948 11.1122 -2.3972 0.9427
8.3684 11.9043 -2.3972 0.9427
7.2757 12.6019 -2.3972 0.9427
5.1382 14.2820 -2.5004 0.9403
2.5246 14.9667 -2.5004 0.9403
1.1824 15.1320 -2.5004 0.9403
-0.1691 15.1772 -2.5004 0.9403
-2.7396 14.2921 -2.3973 0.9427
-4.0008 13.9916 -2.3973 0.9427
-7.9267 13.0491 -2.5152 0.9400
-9.7880 11.0674 -2.4340 0.9419
-12.2072 9.6399 -2.5625 0.9389
-5.6483 -5.3421 -1.2807 0.9690
-5.9144 -8.0271 -1.6426 0.9604
-5.6129 -11.4220 -2.0966 0.9497
-5.2302 -13.5800 -2.3973 0.9427
-4.0008 -13.9916 -2.3973 0.9427
-2.7396 -14.2921 -2.3973 0.9427
1.1824 -15.1320 -2.5004 0.9403
2.5246 -14.9667 -2.5004 0.9403
5.1382 -14.2820 -2.5004 0.9403
6.3890 -13.7679 -2.5004 0.9403
7.2757 -12.6019 -2.3972 0.9427
9.3948 -11.1122 -2.3972 0.9427
10.4828 -5.8975 -1.9815 0.9524
10.4851 -4.7244 -1.8945 0.9544
10.4872 -3.6416 -1.8289 0.9560
14.6892 0.3273 -2.4205 0.9422
14.0808 4.1965 -2.4205 0.9422
13.1137 6.6266 -2.4205 0.9422
12.4718 7.7675 -2.4205 0.9422
11.7310 8.8467 -2.4205 0.9422
10.8970 9.8557 -2.4205 0.9422
5.7693 14.0389 -2.5004 0.9403
3.1888 14.8394 -2.5004 0.9403
1.8554 15.0643 -2.5004 0.9403
-2.1002 14.4000 -2.3973 0.9427
-3.3735 14.1559 -2.3973 0.9427
-9.4886 11.7441 -2.4873 0.9406
-10.0888 10.4317 -2.3907 0.9429
-12.4888 8.9888 -2.5349 0.9395
-13.7554 8.1473 -2.6337 0.9372
-16.0577 7.6701 -2.9316 0.9304
-5.8650 -5.0716 -1.4574 0.9689
-5.6493 -5.8413 -1.5274 0.9675
-5.6040 -6.9362 -1.6761 0.9644
-5.6069 -8.3660 -1.8930 0.9598
-5.6106 -10.2380 -2.1944 0.9536
-5.1097 -11.6862 -2.3973 0.9494
-4.0493 -12.0946 -2.3973 0.9494
-2.9567 -12.4070 -2.3973 0.9494
-1.8407 -12.6209 -2.3973 0.9494
-0.7406 -13.2823 -2.5004 0.9473
0.4445 -13.2955 -2.5004 0.9473
5.0566 -12.3045 -2.5004 0.9473
7.7921 -10.0965 -2.3972 0.9494
10.1826 -7.6791 -2.3972 0.9494
10.4815 -6.5280 -2.3210 0.9510
10.4883 -3.1259 -2.0571 0.9564
12.7213 2.0003 -2.4205 0.9489
12.1651 4.2242 -2.4205 0.9489
11.2234 6.3142 -2.4205 0.9489
9.0683 8.9678 -2.3972 0.9494
7.3346 10.4336 -2.3972 0.9494
4.5034 12.5175 -2.5004 0.9473
2.2127 13.1176 -2.5004 0.9473
-0.1482 13.3021 -2.5004 0.9473
-1.3316 13.2361 -2.5004 0.9473
-3.5065 12.2630 -2.3973 0.9494
-7.1107 14.4699 -3.0304 0.9365
-7.6341 12.5674 -2.7639 0.9419
-5.5005 6.2195 -1.5606 0.9668
-11.6856 9.2280 -2.7987 0.9412
-14.1828 7.5682 -3.0216 0.9367
-15.3266 6.4990 -3.1291 0.9345
-17.1695 5.5365 -3.3908 0.9292
-5.6483 -5.3421 -1.4613 0.9689
-5.6304 -6.3664 -1.5975 0.9660
-5.6054 -7.6077 -1.7762 0.9623
-5.6129 -11.4220 -2.3921 0.9495
-4.5841 -11.9022 -2.3973 0.9494
-2.4011 -12.5264 -2.3973 0.9494
1.0364 -13.2625 -2.5004 0.9473
3.3714 -12.8686 -2.5004 0.9473
5.5997 -12.0670 -2.5004 0.9473
8.2341 -9.7393 -2.3972 0.9494
9.0683 -8.9678 -2.3972 0.9494
9.8305 -8.1251 -2.3972 0.9494
10.4828 -5.8975 -2.2608 0.9522
10.4851 -4.7244 -2.1616 0.9543
10.4872 -3.6416 -2.0866 0.9558
12.8489 -0.8601 -2.4205 0.9489
12.8744 0.2869 -2.4205 0.9489
12.7978 1.4316 -2.4205 0.9489
12.3412 3.6781 -2.4205 0.9489
10.1827 7.6791 -2.3972 0.9494
5.0566 12.3045 -2.5004 0.9473
3.9413 12.7057 -2.5004 0.9473
2.7948 13.0060 -2.5004 0.9473
0.4445 13.2955 -2.5004 0.9473
-1.8407 12.6210 -2.3973 0.9494
-4.0493 12.0946 -2.3973 0.9494
-5.5141 8.2276 -1.8617 0.9605
-9.7868 10.1195 -2.6461 0.9443
-11.2363 9.7164 -2.7921 0.9413
-14.7032 7.0231 -3.0627 0.9358
-18.9057 5.1788 -3.6845 0.9233
-5.6666 -4.9001 -1.5835 0.9698
-5.6069 -8.3660 -2.1288 0.9597
-5.4505 -9.9458 -2.3973 0.9547
-4.5436 -10.3915 -2.3973 0.9547
-3.6007 -10.7546 -2.3973 0.9547
0.3953 -11.8225 -2.5004 0.9528
1.4460 -11.7404 -2.5004 0.9528
2.4852 -11.5651 -2.5004 0.9528
4.4963 -10.9412 -2.5004 0.9528
5.4523 -10.4976 -2.5004 0.9528
8.4108 -7.6071 -2.3972 0.9547
9.6263 -5.9953 -2.3972 0.9547
10.1217 -5.1147 -2.3972 0.9547
10.4862 -4.1734 -2.3857 0.9549
10.4883 -3.1258 -2.3134 0.9562
10.4902 -2.1322 -2.2628 0.9572
11.3799 -1.2730 -2.4205 0.9543
11.4481 -0.2551 -2.4205 0.9543
11.3119 1.7787 -2.4205 0.9543
10.8173 3.7562 -2.4205 0.9543
10.3395 4.6588 -2.3972 0.9547
9.8838 5.5605 -2.3972 0.9547
9.3497 6.4182 -2.3972 0.9547
6.5220 9.2776 -2.3972 0.9547
4.9793 10.7301 -2.5004 0.9528
4.0045 11.1307 -2.5004 0.9528
2.9979 11.4429 -2.5004 0.9528
1.9675 11.6643 -2.5004 0.9528
0.9215 11.7932 -2.5004 0.9528
-1.1840 11.7697 -2.5004 0.9528
-2.1351 11.1386 -2.3973 0.9547
-3.1180 10.9044 -2.3973 0.9547
-4.0762 10.5836 -2.3973 0.9547
-5.5077 6.2276 -1.7574 0.9666
-15.5385 5.0105 -3.4511 0.9354
-5.6075 -5.3036 -1.6315 0.9689
-5.6028 -6.3352 -1.7877 0.9660
-5.6054 -7.6076 -1.9975 0.9621
-5.6086 -9.2330 -2.2835 0.9568
-3.1180 -10.9044 -2.3973 0.9547
-2.1351 -11.1386 -2.3973 0.9547
-0.1318 -11.8284 -2.5004 0.9528
0.9215 -11.7932 -2.5004 0.9528
1.9675 -11.6643 -2.5004 0.9528
2.9979 -11.4429 -2.5004 0.9528
4.0045 -11.1306 -2.5004 0.9528
6.5220 -9.2776 -2.3972 0.9547
7.3218 -8.6603 -2.3972 0.9547
9.3497 -6.4182 -2.3972 0.9547
9.8838 -5.5605 -2.3972 0.9547
10.3395 -4.6588 -2.3972 0.9547
10.4893 -2.6236 -2.2855 0.9568
11.4253 -0.7648 -2.4205 0.9543
11.4481 0.2551 -2.4205 0.9543
11.2214 2.2808 -2.4205 0.9543
10.9739 3.2706 -2.4205 0.9543
10.1217 5.1147 -2.3972 0.9547
9.6263 5.9953 -2.3972 0.9547
6.9288 8.9779 -2.3972 0.9547
6.3650 9.9706 -2.5004 0.9528
5.4523 10.4976 -2.5004 0.9528
3.5047 11.2980 -2.5004 0.9528
2.4852 11.5651 -2.5004 0.9528
1.4460 11.7404 -2.5004 0.9528
0.3953 11.8225 -2.5004 0.9528
-0.6586 11.8107 -2.5004 0.9528
-5.4505 9.9458 -2.3973 0.9547
-7.7374 11.5450 -2.9377 0.9448
-8.4481 10.4564 -2.8415 0.9465
-9.5000 9.8229 -2.8886 0.9457
-10.5527 9.1253 -2.9490 0.9446
-13.2959 6.3509 -3.1147 0.9415
-14.3795 5.3550 -3.2435 0.9392
-17.5711 4.8132 -3.8510 0.9282
-6.0133 -3.5617 -1.6426 0.9717
-5.6724 -4.0828 -1.6426 0.9717
-5.6040 -6.9362 -2.0957 0.9640
-5.6069 -8.3660 -2.3669 0.9595
-4.0865 -9.3461 -2.3973 0.9590
-3.2384 -9.6727 -2.3973 0.9590
-2.3647 -9.9226 -2.3973 0.9590
-0.5923 -10.6226 -2.5004 0.9572
0.3555 -10.6332 -2.5004 0.9572
1.3005 -10.5593 -2.5004 0.9572
3.1521 -10.1614 -2.5004 0.9572
4.0440 -9.8405 -2.5004 0.9572
4.9038 -9.4416 -2.5004 0.9572
7.5647 -6.8419 -2.3972 0.9590
8.6579 -5.3922 -2.3972 0.9590
9.1035 -4.6002 -2.3972 0.9590
9.7749 -2.9132 -2.3972 0.9590
10.1365 -1.1339 -2.3972 0.9590
10.1972 -0.2272 -2.3972 0.9590
10.1770 0.6813 -2.3972 0.9590
10.0760 1.5844 -2.3972 0.9590
8.8895 5.0012 -2.3972 0.9590
7.8620 6.4981 -2.3972 0.9590
6.5853 7.7891 -2.3972 0.9590
4.4784 9.6506 -2.5004 0.9572
3.6016 10.0109 -2.5004 0.9572
2.6963 10.2918 -2.5004 0.9572
1.7696 10.4909 -2.5004 0.9572
-1.0649 10.5857 -2.5004 0.9572
-5.2958 8.7180 -2.3973 0.9590
-9.4052 8.8954 -3.0425 0.9482
-10.1160 7.9885 -3.0294 0.9484
-5.5269 3.6155 -1.5522 0.9732
-11.7420 6.2657 -3.1280 0.9468
-13.9372 4.4942 -3.4417 0.9416
-17.9046 4.0566 -4.3146 0.9273
-5.8487 -3.8260 -1.6426 0.9717
-5.5990 -4.4215 -1.6767 0.9711
-5.6028 -6.3352 -1.9877 0.9658
-5.2958 -8.7180 -2.3973 0.9590
-4.4988 -9.1548 -2.3973 0.9590
-3.6661 -9.5189 -2.3973 0.9590
-1.0649 -10.5857 -2.5004 0.9572
-0.1185 -10.6384 -2.5004 0.9572
0.8288 -10.6068 -2.5004 0.9572
2.6963 -10.2918 -2.5004 0.9572
5.3195 -9.2137 -2.5004 0.9572
6.5853 -7.7891 -2.3972 0.9590
8.8895 -5.0012 -2.3972 0.9590
6.7937 -3.0611 -1.7513 0.9698
9.6354 -3.3458 -2.3972 0.9590
9.8950 -2.4749 -2.3972 0.9590
10.1366 1.1339 -2.3972 0.9590
9.9954 2.0316 -2.3972 0.9590
8.6579 5.3922 -2.3972 0.9590
8.1436 6.1414 -2.3972 0.9590
7.5647 6.8418 -2.3972 0.9590
6.4630 8.3743 -2.4861 0.9575
4.9038 9.4415 -2.5004 0.9572
3.1521 10.1614 -2.5004 0.9572
2.2352 10.4017 -2.5004 0.9572
1.3005 10.5593 -2.5004 0.9572
0.3555 10.6332 -2.5004 0.9572
-0.5923 10.6226 -2.5004 0.9572
-4.0865 9.3461 -2.3973 0.9590
-7.9620 9.8547 -2.9775 0.9493
-8.9916 9.2973 -3.0398 0.9482
-11.3563 6.7264 -3.1020 0.9472
-12.1243 5.7913 -3.1579 0.9463
-15.4033 4.2194 -3.7535 0.9365
-5.9451 -2.2140 -1.6426 0.9741
-5.5982 -4.0294 -1.7859 0.9719
-5.6017 -5.7922 -2.0863 0.9673
-5.6040 -6.9362 -2.3088 0.9638
-4.4497 -8.1198 -2.3973 0.9625
-2.9396 -8.7801 -2.3973 0.9625
-2.1464 -9.0069 -2.3973 0.9625
-1.3937 -9.5561 -2.5004 0.9609
-0.5376 -9.6423 -2.5004 0.9609
0.3227 -9.6519 -2.5004 0.9609
1.1805 -9.5848 -2.5004 0.9609
2.0289 -9.4417 -2.5004 0.9609
2.8612 -9.2237 -2.5004 0.9609
3.6708 -8.9324 -2.5004 0.9609
6.4630 -6.9877 -2.4645 0.9614
6.8666 -6.2104 -2.3972 0.9625
8.8728 -2.6444 -2.3972 0.9625
9.0729 -1.8442 -2.3972 0.9625
9.2562 -0.2063 -2.3972 0.9625
9.2378 0.6184 -2.3972 0.9625
9.1461 1.4382 -2.3972 0.9625
8.0691 4.5396 -2.3972 0.9625
6.5831 6.5102 -2.3972 0.9625
4.0651 8.7600 -2.5004 0.9609
2.4475 9.3420 -2.5004 0.9609
0.7523 9.6279 -2.5004 0.9609
-0.1076 9.6567 -2.5004 0.9609
-3.3278 8.6404 -2.3973 0.9625
-4.8070 7.9135 -2.3973 0.9625
-5.4923 7.4542 -2.3973 0.9625
-7.8206 8.8429 -3.0565 0.9524
-8.6130 8.1461 -3.0695 0.9522
-10.1929 6.6679 -3.1537 0.9509
-5.5970 -2.9866 -1.6426 0.9741
-5.5975 -3.6617 -1.7319 0.9727
-5.6008 -5.2972 -1.9960 0.9686
-4.8070 -7.9135 -2.3973 0.9625
-0.1076 -9.6567 -2.5004 0.9609
0.7523 -9.6279 -2.5004 0.9609
1.6063 -9.5227 -2.5004 0.9609
3.2693 -9.0870 -2.5004 0.9609
4.0651 -8.7600 -2.5004 0.9609
5.5538 -7.9004 -2.5004 0.9609
6.2350 -7.3748 -2.5004 0.9609
6.5831 -6.5102 -2.3972 0.9625
7.1364 -5.8984 -2.3972 0.9625
8.9818 -2.2465 -2.3972 0.9625
9.2562 0.2063 -2.3972 0.9625
9.2011 1.0293 -2.3972 0.9625
9.0729 1.8441 -2.3972 0.9625
8.2634 4.1756 -2.3972 0.9625
7.3921 5.5746 -2.3972 0.9625
6.8666 6.2104 -2.3972 0.9625
6.4630 6.9877 -2.4645 0.9614
5.9003 7.6452 -2.5004 0.9609
5.1964 8.1400 -2.5004 0.9609
4.4513 8.5702 -2.5004 0.9609
3.6708 8.9324 -2.5004 0.9609
1.1805 9.5848 -2.5004 0.9609
-2.1464 9.0069 -2.3973 0.9625
-2.9396 8.7801 -2.3973 0.9625
-3.7094 8.4836 -2.3973 0.9625
-4.4497 8.1198 -2.3973 0.9625
-5.5077 6.8170 -2.2692 0.9644
-8.2268 8.5065 -3.0640 0.9523
-8.9844 7.7691 -3.0753 0.9521
-9.7874 7.0445 -3.1223 0.9514
-13.4997 3.6980 -3.6241 0.9438
-5.5018 -0.9912 -1.5826 0.9770
-5.5944 -2.0834 -1.6900 0.9755
-5.5956 -2.6728 -1.7555 0.9746
-5.5968 -3.3150 -1.8415 0.9733
-5.5999 -4.8424 -2.0958 0.9697
-5.6017 -5.7922 -2.2811 0.9671
-5.3220 -6.5871 -2.3973 0.9654
-4.0698 -7.4264 -2.3973 0.9654
-3.3926 -7.7591 -2.3973 0.9654
-2.6886 -8.0303 -2.3973 0.9654
-1.9631 -8.2377 -2.3973 0.9654
-1.2747 -8.7401 -2.5004 0.9639
-0.4917 -8.8189 -2.5004 0.9639
1.8556 -8.6354 -2.5004 0.9639
3.3573 -8.1696 -2.5004 0.9639
4.0711 -7.8383 -2.5004 0.9639
5.3964 -6.9923 -2.5004 0.9639
6.4630 -5.8454 -2.4670 0.9644
7.5577 -3.8191 -2.3972 0.9654
7.8676 -3.1312 -2.3972 0.9654
8.1151 -2.4186 -2.3972 0.9654
8.4153 -0.9414 -2.3972 0.9654
8.4489 0.5656 -2.3972 0.9654
8.3650 1.3154 -2.3972 0.9654
8.2148 2.0546 -2.3972 0.9654
7.9993 2.7777 -2.3972 0.9654
6.9812 4.7923 -2.3972 0.9654
6.5270 5.3947 -2.3972 0.9654
5.7025 6.7450 -2.5004 0.9639
4.4163 7.6492 -2.5004 0.9639
3.7179 8.0119 -2.5004 0.9639
-0.8841 8.7882 -2.5004 0.9639
-1.5944 8.3180 -2.3977 0.9654
-2.3282 8.1421 -2.3973 0.9654
-3.0436 7.9025 -2.3973 0.9654
-3.7349 7.6003 -2.3973 0.9654
-4.3965 7.2377 -2.3973 0.9654
-5.0233 6.8176 -2.3973 0.9654
-7.2023 8.1438 -3.0777 0.9558
-7.9428 7.5122 -3.0949 0.9556
-8.7786 6.9324 -3.1666 0.9546
-10.1647 5.4241 -3.2616 0.9532
-11.0016 4.6651 -3.3829 0.9515
-11.9358 3.8488 -3.5503 0.9492
-5.5014 1.2464 -1.5969 0.9768
-5.5015 0.7398 -1.5715 0.9772
-5.5016 -0.2454 -1.5590 0.9774
-5.6915 -1.8353 -1.6929 0.9754
-5.5950 -2.3725 -1.7204 0.9751
-5.5962 -2.9862 -1.7957 0.9740
-5.5990 -4.4215 -2.0197 0.9708
-5.6028 -6.3352 -2.3942 0.9655
-5.0233 -6.8177 -2.3973 0.9654
-3.7349 -7.6003 -2.3973 0.9654
-3.0436 -7.9025 -2.3973 0.9654
-2.3282 -8.1421 -2.3973 0.9654
-0.8841 -8.7882 -2.5004 0.9639
0.6881 -8.8057 -2.5004 0.9639
1.4691 -8.7095 -2.5004 0.9639
2.9901 -8.3111 -2.5004 0.9639
4.4163 -7.6492 -2.5004 0.9639
5.0796 -7.2258 -2.5004 0.9639
5.7025 -6.7450 -2.5004 0.9639
7.3801 -4.1520 -2.3972 0.9654
8.3650 -1.3154 -2.3972 0.9654
7.5577 3.8191 -2.3972 0.9654
7.1878 4.4766 -2.3972 0.9654
5.9974 6.4843 -2.5004 0.9639
5.3964 6.9923 -2.5004 0.9639
4.7526 7.4449 -2.5004 0.9639
3.3573 8.1696 -2.5004 0.9639
0.2951 8.8276 -2.5004 0.9639
-1.2747 8.7401 -2.5004 0.9639
-2.6885 8.0303 -2.3973 0.9654
-3.3926 7.7591 -2.3973 0.9654
-4.7146 7.0346 -2.3973 0.9654
-7.5750 7.8325 -3.0847 0.9557
-9.1343 6.5745 -3.1860 0.9543
-11.4420 4.2611 -3.4565 0.9505
-5.5014 0.9911 -1.5825 0.9770
-18.9057 -1.6895 -5.8382 0.9236
-5.5968 -3.3150 -2.0008 0.9731
-5.5982 -4.0294 -2.1215 0.9715
-4.8983 -6.0627 -2.3973 0.9679
-4.3393 -6.4746 -2.3973 0.9679
-3.1225 -7.1414 -2.3973 0.9679
-1.8069 -7.5819 -2.3973 0.9679
-0.4526 -8.1168 -2.5004 0.9666
0.9937 -8.0685 -2.5004 0.9666
1.7079 -7.9480 -2.5004 0.9666
3.0901 -7.5192 -2.5004 0.9666
3.7470 -7.2144 -2.5004 0.9666
4.3743 -6.8522 -2.5004 0.9666
4.9668 -6.4357 -2.5004 0.9666
5.5199 -5.9681 -2.5004 0.9666
6.0292 -5.4531 -2.5004 0.9666
6.6156 -4.1202 -2.3972 0.9679
6.9560 -3.5150 -2.3972 0.9679
7.4691 -2.2260 -2.3972 0.9679
7.7763 0.5205 -2.3972 0.9679
7.6991 1.2106 -2.3972 0.9679
5.7803 5.7162 -2.5004 0.9666
4.0647 7.0403 -2.5004 0.9666
2.0603 7.8640 -2.5004 0.9666
1.3522 8.0162 -2.5004 0.9666
0.6333 8.1047 -2.5004 0.9666
-0.0906 8.1289 -2.5004 0.9666
-1.5304 7.9840 -2.5004 0.9666
-2.1428 7.4939 -2.3973 0.9679
-3.4376 6.9953 -2.3973 0.9679
-4.0465 6.6615 -2.3973 0.9679
-4.6234 6.2749 -2.3973 0.9679
-7.4664 7.0617 -3.1610 0.9579
-8.2446 6.5107 -3.2312 0.9570
-8.9018 5.8233 -3.2718 0.9565
-9.6109 5.1285 -3.3507 0.9554
-5.5014 1.2464 -1.7350 0.9767
-18.8674 0.8413 -5.8090 0.9240
-5.5950 -2.3725 -1.8692 0.9749
-5.5962 -2.9862 -1.9510 0.9738
-5.5975 -3.6617 -2.0573 0.9724
-5.5990 -4.4215 -2.1944 0.9706
-5.6008 -5.2972 -2.3711 0.9683
-2.8013 -7.2734 -2.3973 0.9679
-0.8137 -8.0886 -2.5004 0.9666
0.6333 -8.1047 -2.5004 0.9666
2.0603 -7.8640 -2.5004 0.9666
2.7520 -7.6494 -2.5004 0.9666
4.0647 -7.0403 -2.5004 0.9666
5.2486 -6.2080 -2.5004 0.9666
6.2661 -5.1791 -2.5004 0.9666
6.7821 -3.0559 -2.2880 0.9693
7.3625 -2.5565 -2.3972 0.9679
7.5608 -1.8911 -2.3972 0.9679
7.6991 -1.2106 -2.3972 0.9679
7.7763 -0.5205 -2.3972 0.9679
7.7454 0.8664 -2.3972 0.9679
7.4691 2.2260 -2.3972 0.9679
7.2413 2.8820 -2.3972 0.9679
6.6156 4.1202 -2.3972 0.9679
6.0292 5.4531 -2.5004 0.9666
5.5199 5.9681 -2.5004 0.9666
4.3743 6.8522 -2.5004 0.9666
3.0901 7.5192 -2.5004 0.9666
2.4086 7.7644 -2.5004 0.9666
-0.4526 8.1168 -2.5004 0.9666
-2.4745 7.3910 -2.3973 0.9679
-4.8983 6.0627 -2.3973 0.9679
-5.4185 5.6027 -2.3973 0.9679
-7.8572 6.7943 -3.1949 0.9575
-8.5799 6.1754 -3.2515 0.9567
-9.2289 5.4663 -3.2992 0.9561
-9.9910 4.7723 -3.4056 0.9547
-10.7707 4.0111 -3.5351 0.9530
-11.7849 3.2282 -3.7583 0.9501
-18.7734 1.6776 -5.7973 0.9242
-5.5944 -2.0834 -1.9844 0.9752
-5.5968 -3.3150 -2.1623 0.9730
-5.4553 -4.7174 -2.3973 0.9701
-4.0152 -5.9911 -2.3973 0.9701
-1.6719 -7.0156 -2.3973 0.9701
1.5804 -7.3544 -2.5004 0.9688
2.8593 -6.9576 -2.5004 0.9688
4.0476 -6.3404 -2.5004 0.9688
5.1076 -5.5223 -2.5004 0.9688
6.0058 -4.5292 -2.5004 0.9688
6.4724 -3.2706 -2.4105 0.9699
6.7004 -2.6667 -2.3972 0.9701
7.0671 -1.4364 -2.3972 0.9701
7.1669 -0.8017 -2.3972 0.9701
7.2098 -0.1607 -2.3972 0.9701
7.1955 0.4817 -2.3972 0.9701
6.5750 2.9626 -2.3972 0.9701
6.2016 4.2572 -2.5004 0.9688
5.3486 5.2893 -2.5004 0.9688
4.3260 6.1538 -2.5004 0.9688
3.7611 6.5145 -2.5004 0.9688
3.1664 6.8234 -2.5004 0.9688
1.9064 7.2766 -2.5004 0.9688
1.2512 7.4175 -2.5004 0.9688
-0.0838 7.5218 -2.5004 0.9688
-1.9828 6.9342 -2.3973 0.9701
-2.5921 6.7302 -2.3973 0.9701
-4.2781 5.8063 -2.3973 0.9701
-4.7779 5.4024 -2.3973 0.9701
-5.2398 4.9557 -2.3973 0.9701
-7.7621 6.1296 -3.2877 0.9592
-8.3911 5.4892 -3.3331 0.9586
-10.5684 3.4079 -3.6911 0.9543
-5.5014 1.2464 -1.8750 0.9765
-15.8565 2.1325 -5.3183 0.9348
-5.5088 0.2456 -1.8330 0.9770
-5.5962 -2.9862 -2.1085 0.9736
-5.2398 -4.9557 -2.3973 0.9701
-4.7779 -5.4024 -2.3973 0.9701
-4.2781 -5.8063 -2.3973 0.9701
-1.9828 -6.9342 -2.3973 0.9701
-1.4161 -7.3877 -2.5004 0.9688
-0.7529 -7.4845 -2.5004 0.9688
-0.0838 -7.5218 -2.5004 0.9688
1.2512 -7.4175 -2.5004 0.9688
3.7611 -6.5145 -2.5004 0.9688
4.8566 -5.7444 -2.5004 0.9688
5.3486 -5.2893 -2.5004 0.9688
5.7981 -4.7923 -2.5004 0.9688
6.2016 -4.2572 -2.5004 0.9688
7.1241 -1.1202 -2.3972 0.9701
7.2098 0.1607 -2.3972 0.9701
7.1669 0.8017 -2.3972 0.9701
6.9112 2.0598 -2.3972 0.9701
6.4724 3.2706 -2.4105 0.9699
6.0058 4.5292 -2.5004 0.9688
5.5789 5.0458 -2.5004 0.9688
5.1076 5.5223 -2.5004 0.9688
4.5958 5.9550 -2.5004 0.9688
4.0476 6.3404 -2.5004 0.9688
3.4672 6.6755 -2.5004 0.9688
1.5804 7.3544 -2.5004 0.9688
0.2514 7.5180 -2.5004 0.9688
-0.4188 7.5106 -2.5004 0.9688
-1.0856 7.4435 -2.5004 0.9688
-1.6719 7.0156 -2.3973 0.9701
-2.2897 6.8390 -2.3973 0.9701
-2.8893 6.6080 -2.3973 0.9701
-4.5325 5.6099 -2.3973 0.9701
-5.4553 4.7174 -2.3973 0.9701
-8.0824 5.8174 -3.3102 0.9589
-9.4599 4.5186 -3.4848 0.9568
-5.5084 2.0513 -1.9539 0.9755
-11.1069 3.0425 -3.8280 0.9526
-18.4520 0.0000 -6.5986 0.9246
-18.4631 -1.6499 -6.6289 0.9243
-5.5944 -2.0834 -2.1348 0.9750
-5.5956 -2.6728 -2.2176 0.9740
-5.4410 -3.9162 -2.3973 0.9719
-5.0709 -4.3849 -2.3973 0.9719
-4.6605 -4.8189 -2.3973 0.9719
-3.7322 -5.5689 -2.3973 0.9719
-3.2217 -5.8789 -2.3973 0.9719
-2.6857 -6.1423 -2.3973 0.9719
-2.1283 -6.3570 -2.3973 0.9719
-1.5839 -6.6462 -2.4433 0.9714
-0.3893 -6.9813 -2.5004 0.9707
0.2336 -6.9882 -2.5004 0.9707
0.8547 -6.9397 -2.5004 0.9707
2.0716 -6.6782 -2.5004 0.9707
2.6578 -6.4673 -2.5004 0.9707
3.7623 -5.8936 -2.5004 0.9707
4.7477 -5.1331 -2.5004 0.9707
5.5826 -4.2100 -2.5004 0.9707
6.4713 -1.9287 -2.4148 0.9717
6.5691 -1.3352 -2.3972 0.9719
6.6753 -0.7468 -2.4020 0.9719
6.7017 -0.1493 -2.3972 0.9719
6.6884 0.4477 -2.3972 0.9719
6.6220 1.0413 -2.3972 0.9719
6.3749 2.8724 -2.5004 0.9707
6.0939 3.4284 -2.5004 0.9707
5.3895 4.4546 -2.5004 0.9707
4.9716 4.9166 -2.5004 0.9707
4.5143 5.3396 -2.5004 0.9707
4.0211 5.7202 -2.5004 0.9707
3.4961 6.0553 -2.5004 0.9707
2.9432 6.3425 -2.5004 0.9707
2.3670 6.5793 -2.5004 0.9707
1.7720 6.7638 -2.5004 0.9707
1.1630 6.8947 -2.5004 0.9707
0.5447 6.9709 -2.5004 0.9707
-0.0779 6.9917 -2.5004 0.9707
-0.6999 6.9570 -2.5004 0.9707
-1.3163 6.8671 -2.5004 0.9707
-2.9567 6.0166 -2.3973 0.9719
-3.4804 5.7296 -2.3973 0.9719
-3.9766 5.3971 -2.3973 0.9719
-4.8705 4.6065 -2.3973 0.9719
-5.2612 4.1547 -2.3973 0.9719
-8.6434 4.6122 -3.5035 0.9592
-9.2992 3.9432 -3.6121 0.9580
-10.0531 3.2417 -3.7773 0.9561
-5.5014 1.2464 -2.0172 0.9763
-18.4318 0.8219 -6.5979 0.9246
-18.6341 -2.5061 -6.7237 0.9232
-5.6915 -1.8353 -2.1385 0.9749
-5.2612 -4.1547 -2.3973 0.9719
-4.8705 -4.6065 -2.3973 0.9719
-4.4412 -5.0217 -2.3973 0.9719
-3.9766 -5.3971 -2.3973 0.9719
-2.9567 -6.0166 -2.3973 0.9719
-1.8430 -6.4455 -2.3973 0.9719
-1.3163 -6.8671 -2.5004 0.9707
-0.6999 -6.9570 -2.5004 0.9707
-0.0779 -6.9917 -2.5004 0.9707
2.9432 -6.3425 -2.5004 0.9707
3.4961 -6.0554 -2.5004 0.9707
5.3895 -4.4545 -2.5004 0.9707
5.7646 -3.9572 -2.5004 0.9707
6.4631 -2.2442 -2.4466 0.9714
6.5031 -1.6265 -2.3972 0.9719
6.4713 1.9286 -2.4148 0.9717
6.4630 2.5722 -2.4875 0.9709
6.2406 3.1535 -2.5004 0.9707
5.1857 4.6902 -2.5004 0.9707
4.7477 5.1331 -2.5004 0.9707
4.2720 5.5354 -2.5004 0.9707
3.7623 5.8936 -2.5004 0.9707
2.0716 6.6782 -2.5004 0.9707
1.4690 6.8361 -2.5004 0.9707
0.8547 6.9397 -2.5004 0.9707
-0.3893 6.9813 -2.5004 0.9707
-1.5839 6.6462 -2.4433 0.9714
-2.6857 6.1423 -2.3973 0.9719
-3.7322 5.5689 -2.3973 0.9719
-4.2131 5.2146 -2.3973 0.9719
-4.6605 4.8189 -2.3973 0.9719
-5.0709 4.3850 -2.3973 0.9719
-5.4410 3.9162 -2.3973 0.9719
-11.7616 2.1189 -4.2738 0.9505
-5.5956 -2.6728 -2.3764 0.9738
-5.0774 -3.6545 -2.3973 0.9736
-3.4828 -5.1967 -2.3973 0.9736
0.2180 -6.5212 -2.5004 0.9724
3.0075 -5.7904 -2.5004 0.9724
3.5109 -5.4997 -2.5004 0.9724
3.9865 -5.1654 -2.5004 0.9724
4.4304 -4.7901 -2.5004 0.9724
4.8392 -4.3768 -2.5004 0.9724
5.2095 -3.9287 -2.5004 0.9724
6.0623 -2.4128 -2.5004 0.9724
6.4456 1.0135 -2.5004 0.9724
6.3298 1.5832 -2.5004 0.9724
6.1638 2.1403 -2.5004 0.9724
5.6867 3.1993 -2.5004 0.9724
5.3793 3.6927 -2.5004 0.9724
5.0293 4.1568 -2.5004 0.9724
2.7465 5.9186 -2.5004 0.9724
1.0853 6.4339 -2.5004 0.9724
0.5083 6.5050 -2.5004 0.9724
-0.0727 6.5244 -2.5004 0.9724
-0.6531 6.4921 -2.5004 0.9724
-2.2484 5.8378 -2.3973 0.9736
-3.2478 5.3467 -2.3973 0.9736
-4.5450 4.2986 -2.3973 0.9736
-5.5192 2.9451 -2.3973 0.9736
-9.5785 3.0887 -3.8568 0.9578
-5.5014 1.2464 -2.1617 0.9761
-11.8410 1.5925 -4.5785 0.9501
-5.6915 -1.8353 -2.2917 0.9747
-5.5950 -2.3725 -2.3289 0.9743
-5.5192 -2.9451 -2.3973 0.9736
-5.2352 -3.4247 -2.3973 0.9736
-4.5450 -4.2986 -2.3973 0.9736
-4.1444 -4.6861 -2.3973 0.9736
-3.7108 -5.0364 -2.3973 0.9736
-2.2484 -5.8378 -2.3973 0.9736
0.5083 -6.5050 -2.5004 0.9724
3.2624 -5.6507 -2.5004 0.9724
4.2126 -4.9827 -2.5004 0.9724
5.0293 -4.1568 -2.5004 0.9724
5.3793 -3.6927 -2.5004 0.9724
5.6867 -3.1993 -2.5004 0.9724
5.9488 -2.6804 -2.5004 0.9724
6.4456 -1.0135 -2.5004 0.9724
6.4630 -0.4326 -2.4823 0.9726
6.4630 0.1440 -2.4773 0.9727
5.5385 3.4494 -2.5004 0.9724
4.4304 4.7901 -2.5004 0.9724
3.9865 5.1654 -2.5004 0.9724
3.5109 5.4997 -2.5004 0.9724
1.9332 6.2319 -2.5004 0.9724
1.3708 6.3792 -2.5004 0.9724
0.2180 6.5212 -2.5004 0.9724
-0.3633 6.5147 -2.5004 0.9724
-1.5126 6.3471 -2.5004 0.9724
-1.9861 5.9322 -2.3973 0.9736
-2.5062 5.7319 -2.3973 0.9736
-3.0064 5.4860 -2.3973 0.9736
-3.4828 5.1967 -2.3973 0.9736
-3.9315 4.8661 -2.3973 0.9736
-4.3490 4.4968 -2.3973 0.9736
-8.5260 4.0725 -3.6209 0.9603
-5.5086 0.9924 -2.1450 0.9763
-5.2855 -2.5247 -2.3973 0.9750
-5.0398 -2.9851 -2.3973 0.9750
-4.4307 -3.8314 -2.3973 0.9750
-2.8150 -5.1368 -2.3973 0.9750
-2.3467 -5.3669 -2.3973 0.9750
-1.8597 -5.5545 -2.3973 0.9750
-0.8817 -6.0455 -2.5004 0.9739
0.2041 -6.1060 -2.5004 0.9739
0.7468 -6.0636 -2.5004 0.9739
2.3222 -5.6509 -2.5004 0.9739
3.7327 -4.8366 -2.5004 0.9739
5.4528 -2.7554 -2.5004 0.9739
5.9870 -1.2169 -2.5004 0.9739
6.0715 -0.6792 -2.5004 0.9739
6.0353 0.9490 -2.5004 0.9739
5.5701 2.5098 -2.5004 0.9739
5.0369 3.4576 -2.5004 0.9739
4.7091 3.8922 -2.5004 0.9739
3.9444 4.6655 -2.5004 0.9739
3.5135 4.9980 -2.5004 0.9739
1.5483 5.9100 -2.5004 0.9739
1.0162 6.0243 -2.5004 0.9739
0.4759 6.0909 -2.5004 0.9739
-0.0681 6.1090 -2.5004 0.9739
-0.6115 6.0787 -2.5004 0.9739
-1.1501 6.0002 -2.5004 0.9739
-1.6104 5.6318 -2.3973 0.9750
-2.1052 5.4662 -2.3973 0.9750
-2.5834 5.2571 -2.3973 0.9750
-3.0411 5.0063 -2.3973 0.9750
-4.2556 4.0250 -2.3973 0.9750
-4.5970 3.6302 -2.3973 0.9750
-4.9019 3.2066 -2.3973 0.9750
-5.1678 2.7576 -2.3973 0.9750
-1.6146 0.3658 -0.6776 0.9929
-1.6301 0.2192 -0.6732 0.9929
-18.1983 0.8115 -7.4555 0.9243
-1.6301 -0.2192 -0.6732 0.9929
-1.5889 -0.5124 -0.6833 0.9928
-5.3927 -2.2867 -2.3973 0.9750
-4.9019 -3.2066 -2.3973 0.9750
-4.2556 -4.0250 -2.3973 0.9750
-3.8805 -4.3878 -2.3973 0.9750
-3.4746 -4.7157 -2.3973 0.9750
-2.1052 -5.4661 -2.3973 0.9750
1.0162 -6.0243 -2.5004 0.9739
2.5717 -5.5418 -2.5004 0.9739
3.5135 -4.9980 -2.5004 0.9739
3.9444 -4.6655 -2.5004 0.9739
4.3440 -4.2959 -2.5004 0.9739
5.3246 -2.9956 -2.5004 0.9739
5.7714 -2.0040 -2.5004 0.9739
6.1079 0.1361 -2.5004 0.9739
6.0715 0.6792 -2.5004 0.9739
5.8549 1.7450 -2.5004 0.9739
5.4528 2.7554 -2.5004 0.9739
5.1859 3.2298 -2.5004 0.9739
4.5311 4.0981 -2.5004 0.9739
4.1483 4.4851 -2.5004 0.9739
3.2874 5.1496 -2.5004 0.9739
2.3222 5.6509 -2.5004 0.9739
1.8101 5.8351 -2.5004 0.9739
1.2835 5.9731 -2.5004 0.9739
0.7468 6.0636 -2.5004 0.9739
-0.3401 6.0999 -2.5004 0.9739
-1.4163 5.9430 -2.5004 0.9739
-3.2611 4.8658 -2.3973 0.9750
-4.0721 4.2105 -2.3973 0.9750
-4.4307 3.8314 -2.3973 0.9750
-5.0398 2.9851 -2.3973 0.9750
-1.6200 0.2919 -0.6737 0.9929
-1.6390 0.1465 -0.6735 0.9929
-1.5266 0.0000 -0.6653 0.9934
-1.5015 -0.2705 -0.6649 0.9934
-4.1609 -3.5980 -2.3973 0.9763
-3.8241 -3.9541 -2.3973 0.9763
-3.4570 -4.2788 -2.3973 0.9763
-3.0625 -4.5695 -2.3973 0.9763
-2.6436 -4.8239 -2.3973 0.9763
-1.3300 -5.5811 -2.5004 0.9753
-0.8280 -5.6773 -2.5004 0.9753
-0.3194 -5.7284 -2.5004 0.9753
0.1917 -5.7341 -2.5004 0.9753
1.2054 -5.6093 -2.5004 0.9753
2.1808 -5.3067 -2.5004 0.9753
3.0872 -4.8360 -2.5004 0.9753
3.5053 -4.5420 -2.5004 0.9753
4.2551 -3.8485 -2.5004 0.9753
4.8701 -3.0331 -2.5004 0.9753
5.1207 -2.5876 -2.5004 0.9753
5.6224 -1.1428 -2.5004 0.9753
5.7018 -0.6379 -2.5004 0.9753
5.7359 -0.1278 -2.5004 0.9753
5.7245 0.3832 -2.5004 0.9753
5.5659 1.3921 -2.5004 0.9753
5.4199 1.8820 -2.5004 0.9753
5.2309 2.3569 -2.5004 0.9753
5.0003 2.8131 -2.5004 0.9753
4.4223 3.6552 -2.5004 0.9753
4.0795 4.0343 -2.5004 0.9753
3.2995 4.6936 -2.5004 0.9753
2.4150 5.2043 -2.5004 0.9753
1.4540 5.5500 -2.5004 0.9753
0.9543 5.6574 -2.5004 0.9753
0.4470 5.7199 -2.5004 0.9753
-0.5743 5.7085 -2.5004 0.9753
-1.0801 5.6348 -2.5004 0.9753
-1.5773 5.5163 -2.5004 0.9753
-1.9770 5.1332 -2.3973 0.9763
-2.4261 4.9369 -2.3973 0.9763
-2.8559 4.7014 -2.3973 0.9763
-3.2630 4.4285 -2.3973 0.9763
-3.6442 4.1205 -2.3973 0.9763
-4.3170 3.4091 -2.3973 0.9763
-4.8531 2.5897 -2.3973 0.9763
-1.4861 0.4792 -0.6805 0.9932
-1.5133 0.2035 -0.6654 0.9934
-1.5259 0.0680 -0.6657 0.9934
-1.5259 -0.0680 -0.6657 0.9934
-1.5133 -0.2035 -0.6654 0.9934
-1.5029 -0.3405 -0.6716 0.9933
-1.4861 -0.4792 -0.6805 0.9932
-4.8531 -2.5897 -2.3973 0.9763
-4.6033 -3.0114 -2.3973 0.9763
-3.9965 -3.7798 -2.3973 0.9763
-3.6442 -4.1205 -2.3973 0.9763
-3.2630 -4.4285 -2.3973 0.9763
-2.8559 -4.7014 -2.3973 0.9763
-2.4261 -4.9369 -2.3973 0.9763
-1.9770 -5.1332 -2.3973 0.9763
-1.5773 -5.5163 -2.5004 0.9753
-0.0639 -5.7370 -2.5004 0.9753
0.9543 -5.6574 -2.5004 0.9753
1.9423 -5.3986 -2.5004 0.9753
2.4150 -5.2043 -2.5004 0.9753
2.8687 -4.9687 -2.5004 0.9753
3.2995 -4.6936 -2.5004 0.9753
3.7042 -4.3813 -2.5004 0.9753
4.0795 -4.0343 -2.5004 0.9753
4.4223 -3.6552 -2.5004 0.9753
4.7301 -3.2470 -2.5004 0.9753
5.6677 -0.8912 -2.5004 0.9753
5.7359 0.1278 -2.5004 0.9753
5.4984 1.6387 -2.5004 0.9753
5.3307 2.1216 -2.5004 0.9753
4.8701 3.0331 -2.5004 0.9753
4.5808 3.4545 -2.5004 0.9753
4.2551 3.8485 -2.5004 0.9753
3.8957 4.2120 -2.5004 0.9753
2.1808 5.3067 -2.5004 0.9753
1.6998 5.4797 -2.5004 0.9753
1.2054 5.6093 -2.5004 0.9753
0.7013 5.6943 -2.5004 0.9753
-1.3300 5.5811 -2.5004 0.9753
-1.7464 5.2162 -2.3973 0.9763
-2.2037 5.0401 -2.3973 0.9763
-2.6436 4.8239 -2.3973 0.9763
-3.0624 4.5695 -2.3973 0.9763
-4.7329 2.8033 -2.3973 0.9763
-5.1549 1.9197 -2.3973 0.9763
-1.5215 0.1360 -0.6657 0.9934
-1.4219 0.0000 -0.6582 0.9938
-1.3993 -0.2521 -0.6581 0.9938
-1.3946 -0.3820 -0.6693 0.9936
-3.2548 -4.0286 -2.3973 0.9774
-1.6443 -4.9112 -2.3973 0.9774
-0.3007 -5.3935 -2.5004 0.9765
0.1805 -5.3988 -2.5004 0.9765
1.6004 -5.1593 -2.5004 0.9765
2.0533 -4.9964 -2.5004 0.9765
2.9066 -4.5532 -2.5004 0.9765
3.6679 -3.9657 -2.5004 0.9765
4.3129 -3.2525 -2.5004 0.9765
4.8212 -2.4363 -2.5004 0.9765
5.2936 -1.0760 -2.5004 0.9765
5.3684 -0.6005 -2.5004 0.9765
5.3898 0.3608 -2.5004 0.9765
5.1030 1.7719 -2.5004 0.9765
4.9250 2.2191 -2.5004 0.9765
4.7079 2.6486 -2.5004 0.9765
4.4535 3.0571 -2.5004 0.9765
4.1637 3.4414 -2.5004 0.9765
3.8409 3.7983 -2.5004 0.9765
2.2738 4.9000 -2.5004 0.9765
1.8287 5.0829 -2.5004 0.9765
1.3690 5.2255 -2.5004 0.9765
0.8985 5.3266 -2.5004 0.9765
-0.0602 5.4015 -2.5004 0.9765
-0.5407 5.3747 -2.5004 0.9765
-1.4851 5.1937 -2.5004 0.9765
-1.8614 4.8331 -2.3973 0.9774
-2.2842 4.6482 -2.3973 0.9774
-2.6889 4.4265 -2.3973 0.9774
-3.4311 3.8796 -2.3973 0.9774
-3.7628 3.5588 -2.3973 0.9774
-4.3341 2.8353 -2.3973 0.9774
-4.7682 2.0219 -2.3973 0.9774
-1.4099 -0.1896 -0.6585 0.9937
-4.3341 -2.8353 -2.3973 0.9774
-3.7628 -3.5588 -2.3973 0.9774
-3.0722 -4.1696 -2.3973 0.9774
-2.6889 -4.4264 -2.3973 0.9774
-0.5407 -5.3747 -2.5004 0.9765
-0.0602 -5.4015 -2.5004 0.9765
1.8287 -5.0829 -2.5004 0.9765
2.2738 -4.9000 -2.5004 0.9765
2.7009 -4.6781 -2.5004 0.9765
3.8409 -3.7983 -2.5004 0.9765
4.1637 -3.4414 -2.5004 0.9765
4.4535 -3.0572 -2.5004 0.9765
4.7079 -2.6487 -2.5004 0.9765
5.2404 -1.3107 -2.5004 0.9765
5.3363 -0.8391 -2.5004 0.9765
5.3898 -0.3608 -2.5004 0.9765
5.4005 0.1204 -2.5004 0.9765
4.8213 2.4363 -2.5004 0.9765
4.5853 2.8557 -2.5004 0.9765
4.0063 3.6235 -2.5004 0.9765
3.6679 3.9657 -2.5004 0.9765
3.3004 4.2764 -2.5004 0.9765
2.4898 4.7938 -2.5004 0.9765
2.0533 4.9964 -2.5004 0.9765
1.6004 5.1593 -2.5004 0.9765
1.1349 5.2813 -2.5004 0.9765
-1.6443 4.9112 -2.3973 0.9774
-2.0749 4.7454 -2.3973 0.9774
-2.4890 4.5419 -2.3973 0.9774
-2.0680 3.0857 -1.7195 0.9838
-3.2548 4.0286 -2.3973 0.9774
-3.9176 3.3877 -2.3973 0.9774
-4.8535 1.8075 -2.3973 0.9774
-1.3946 0.3820 -0.6693 0.9936
-1.3993 0.2521 -0.6581 0.9938
-1.3317 -0.1190 -0.6558 0.9941
-1.3061 -0.3578 -0.6642 0.9940
-4.4100 -2.1065 -2.3973 0.9785
-4.2051 -2.4907 -2.3973 0.9785
-3.3976 -3.5131 -2.3973 0.9785
-3.0715 -3.8016 -2.3973 0.9785
-2.0470 -3.0543 -1.8036 0.9838
-2.3488 -4.2859 -2.3973 0.9785
-1.9580 -4.4780 -2.3973 0.9785
-1.1817 -4.9586 -2.5004 0.9775
-0.7357 -5.0441 -2.5004 0.9775
-0.2838 -5.0896 -2.5004 0.9775
0.1703 -5.0946 -2.5004 0.9775
0.6231 -5.0593 -2.5004 0.9775
1.5103 -4.8686 -2.5004 0.9775
3.7806 -3.4193 -2.5004 0.9775
4.0699 -3.0693 -2.5004 0.9775
4.5496 -2.2990 -2.5004 0.9775
5.0861 0.3405 -2.5004 0.9775
5.0356 0.7918 -2.5004 0.9775
4.2026 2.8849 -2.5004 0.9775
2.5487 4.4146 -2.5004 0.9775
2.1457 4.6239 -2.5004 0.9775
0.8479 5.0265 -2.5004 0.9775
-0.0568 5.0972 -2.5004 0.9775
-1.4014 4.9011 -2.5004 0.9775
-1.7711 4.5986 -2.4173 0.9783
-2.1555 4.3863 -2.3973 0.9785
-3.8356 3.0289 -2.3973 0.9785
-4.0899 2.6755 -2.3973 0.9785
-4.3118 2.3009 -2.3973 0.9785
-4.4995 1.9079 -2.3973 0.9785
-1.3003 0.4193 -0.6702 0.9939
-1.3251 0.1782 -0.6559 0.9941
-1.3355 0.0596 -0.6558 0.9941
-1.3251 -0.1782 -0.6559 0.9941
-1.3003 -0.4193 -0.6702 0.9939
-4.4995 -1.9079 -2.3973 0.9785
-4.3118 -2.3009 -2.3973 0.9785
-4.0899 -2.6755 -2.3973 0.9785
-3.8356 -3.0289 -2.3973 0.9785
-3.5508 -3.3583 -2.3973 0.9785
-3.2378 -3.6610 -2.3973 0.9785
-2.8991 -3.9346 -2.3973 0.9785
-1.4014 -4.9011 -2.5004 0.9775
-0.0568 -5.0971 -2.5004 0.9775
0.3971 -5.0820 -2.5004 0.9775
0.8479 -5.0265 -2.5004 0.9775
1.2919 -4.9311 -2.5004 0.9775
1.7256 -4.7965 -2.5004 0.9775
2.5487 -4.4146 -2.5004 0.9775
3.2911 -3.8927 -2.5004 0.9775
3.6245 -3.5843 -2.5004 0.9775
4.2026 -2.8849 -2.5004 0.9775
4.9451 -1.2369 -2.5004 0.9775
5.0356 -0.7918 -2.5004 0.9775
5.0962 0.1136 -2.5004 0.9775
5.0659 0.5667 -2.5004 0.9775
4.8851 1.4559 -2.5004 0.9775
4.7362 1.8849 -2.5004 0.9775
4.5496 2.2990 -2.5004 0.9775
4.0699 3.0693 -2.5004 0.9775
3.4612 3.7422 -2.5004 0.9775
3.1144 4.0354 -2.5004 0.9775
2.3496 4.5237 -2.5004 0.9775
1.5103 4.8686 -2.5004 0.9775
0.1703 5.0946 -2.5004 0.9775
-0.2838 5.0896 -2.5004 0.9775
-1.1817 4.9586 -2.5004 0.9775
-4.2051 2.4907 -2.3973 0.9785
-4.4100 2.1065 -2.3973 0.9785
-1.3061 0.3578 -0.6642 0.9940
-1.3159 0.2371 -0.6559 0.9941
-1.2624 0.0000 -0.6549 0.9943
-1.2162 -0.4529 -0.6733 0.9942
-4.1698 -1.9918 -2.3973 0.9794
-3.4955 -3.0226 -2.3973 0.9794
-2.9042 -3.5945 -2.3973 0.9794
-2.0470 -3.0543 -1.9075 0.9836
-2.2208 -4.0525 -2.3973 0.9794
-1.8513 -4.2341 -2.3973 0.9794
-1.1173 -4.6885 -2.5004 0.9785
0.5892 -4.7837 -2.5004 0.9785
1.0126 -4.7123 -2.5004 0.9785
1.8321 -4.4581 -2.5004 0.9785
2.2216 -4.2773 -2.5004 0.9785
2.5935 -4.0626 -2.5004 0.9785
2.9448 -3.8157 -2.5004 0.9785
3.2727 -3.5384 -2.5004 0.9785
3.8482 -2.9021 -2.5004 0.9785
4.0912 -2.5480 -2.5004 0.9785
4.3018 -2.1738 -2.5004 0.9785
4.7900 -0.5358 -2.5004 0.9785
4.7613 0.7487 -2.5004 0.9785
4.5532 1.5810 -2.5004 0.9785
4.3944 1.9800 -2.5004 0.9785
4.2007 2.3633 -2.5004 0.9785
3.1118 3.6807 -2.5004 0.9785
2.4099 4.1741 -2.5004 0.9785
0.3755 4.8052 -2.5004 0.9785
-0.0537 4.8195 -2.5004 0.9785
-0.4824 4.7956 -2.5004 0.9785
-1.3251 4.6341 -2.5004 0.9785
-2.1784 2.9565 -1.9051 0.9836
-3.0614 3.4616 -2.3973 0.9794
-3.8672 2.5298 -2.3973 0.9794
-4.2544 1.8040 -2.3973 0.9794
-1.2222 0.3941 -0.6662 0.9942
-1.2316 0.2790 -0.6551 0.9943
-1.2613 -0.0562 -0.6550 0.9943
-1.2316 -0.2790 -0.6551 0.9943
-1.2222 -0.3941 -0.6662 0.9942
-4.2544 -1.8040 -2.3973 0.9794
-3.8672 -2.5298 -2.3973 0.9794
-3.6267 -2.8639 -2.3973 0.9794
-3.3574 -3.1754 -2.3973 0.9794
-3.0614 -3.4616 -2.3973 0.9794
-2.7412 -3.7203 -2.3973 0.9794
-0.9074 -4.7337 -2.5004 0.9785
-0.4824 -4.7956 -2.5004 0.9785
1.2215 -4.6625 -2.5004 0.9785
2.0288 -4.3720 -2.5004 0.9785
2.4099 -4.1741 -2.5004 0.9785
2.7719 -3.9430 -2.5004 0.9785
3.1118 -3.6807 -2.5004 0.9785
3.4271 -3.3891 -2.5004 0.9785
3.9737 -2.7278 -2.5004 0.9785
4.2007 -2.3633 -2.5004 0.9785
4.3944 -1.9800 -2.5004 0.9785
4.5532 -1.5810 -2.5004 0.9785
4.7613 -0.7487 -2.5004 0.9785
4.8186 0.1074 -2.5004 0.9785
4.7900 0.5358 -2.5004 0.9785
4.7233 0.9600 -2.5004 0.9785
4.6191 1.3766 -2.5004 0.9785
4.0912 2.5480 -2.5004 0.9785
3.8482 2.9021 -2.5004 0.9785
2.9448 3.8157 -2.5004 0.9785
1.4280 4.6034 -2.5004 0.9785
0.1611 4.8171 -2.5004 0.9785
-0.6956 4.7694 -2.5004 0.9785
-1.1173 4.6885 -2.5004 0.9785
-1.5302 4.5705 -2.5004 0.9785
-2.0368 3.0391 -1.8980 0.9836
-3.2126 3.3218 -2.3973 0.9794
-3.4955 3.0227 -2.3973 0.9794
-4.1698 1.9918 -2.3973 0.9794
-1.2576 0.1124 -0.6550 0.9943
-3.7660 -2.2306 -2.3973 0.9802
-3.5526 -2.5570 -2.3973 0.9802
-3.3109 -2.8630 -2.3973 0.9802
-3.0429 -3.1463 -2.3973 0.9802
-2.7508 -3.4047 -2.3973 0.9802
-2.0404 -3.0445 -2.0074 0.9834
-2.1035 -3.8385 -2.3973 0.9802
-1.7704 -4.0490 -2.4204 0.9800
-1.4494 -4.3291 -2.5004 0.9794
-0.6589 -4.5175 -2.5004 0.9794
-0.2542 -4.5582 -2.5004 0.9794
0.5581 -4.5311 -2.5004 0.9794
2.4565 -3.8481 -2.5004 0.9794
2.7893 -3.6142 -2.5004 0.9794
3.0999 -3.3515 -2.5004 0.9794
3.6450 -2.7488 -2.5004 0.9794
4.0746 -2.0590 -2.5004 0.9794
4.4738 -0.9093 -2.5004 0.9794
4.5370 -0.5075 -2.5004 0.9794
4.5551 0.3049 -2.5004 0.9794
4.5099 0.7091 -2.5004 0.9794
4.3127 1.4975 -2.5004 0.9794
3.5189 2.9085 -2.5004 0.9794
3.2461 3.2101 -2.5004 0.9794
2.6255 3.7348 -2.5004 0.9794
2.2827 3.9537 -2.5004 0.9794
1.9217 4.1412 -2.5004 0.9794
1.5455 4.2957 -2.5004 0.9794
1.1570 4.4163 -2.5004 0.9794
0.7593 4.5017 -2.5004 0.9794
0.3557 4.5514 -2.5004 0.9794
-1.9305 3.9284 -2.3973 0.9802
-2.1751 2.9521 -2.0084 0.9834
-2.8997 3.2788 -2.3973 0.9802
-3.1801 3.0077 -2.3973 0.9802
-3.4351 2.7127 -2.3973 0.9802
-1.1515 0.3713 -0.6626 0.9945
-1.1840 0.1592 -0.6543 0.9946
-1.1933 0.0532 -0.6542 0.9946
-1.1933 -0.0532 -0.6542 0.9946
-1.1515 -0.3713 -0.6626 0.9945
-1.1411 -0.4838 -0.6788 0.9944
-3.6629 -2.3962 -2.3973 0.9802
-3.1801 -3.0077 -2.3973 0.9802
-2.5964 -3.5239 -2.3973 0.9802
-1.5889 -4.1256 -2.4214 0.9800
-1.2551 -4.3894 -2.5004 0.9794
-0.8595 -4.4837 -2.5004 0.9794
-0.4570 -4.5424 -2.5004 0.9794
-0.0509 -4.5650 -2.5004 0.9794
0.7593 -4.5017 -2.5004 0.9794
1.5455 -4.2958 -2.5004 0.9794
2.2827 -3.9537 -2.5004 0.9794
2.9475 -3.4863 -2.5004 0.9794
3.2461 -3.2101 -2.5004 0.9794
3.9789 -2.2385 -2.5004 0.9794
4.5099 -0.7091 -2.5004 0.9794
4.5642 0.1017 -2.5004 0.9794
4.2417 1.6882 -2.5004 0.9794
3.6450 2.7488 -2.5004 0.9794
3.3859 3.0623 -2.5004 0.9794
2.7893 3.6142 -2.5004 0.9794
2.4565 3.8480 -2.5004 0.9794
2.1043 4.0514 -2.5004 0.9794
1.3526 4.3603 -2.5004 0.9794
0.9591 4.4634 -2.5004 0.9794
-0.2542 4.5582 -2.5004 0.9794
-0.6589 4.5175 -2.5004 0.9794
-1.0583 4.4409 -2.5004 0.9794
-1.4494 4.3291 -2.5004 0.9794
-3.0429 3.1464 -2.3973 0.9802
-3.3109 2.8630 -2.3973 0.9802
-3.5526 2.5570 -2.3973 0.9802
-3.7660 2.2306 -2.3973 0.9802
-3.9496 1.8866 -2.3973 0.9802
-1.1899 0.1063 -0.6543 0.9946
-1.1141 -0.2007 -0.6536 0.9948
-1.0934 -0.2995 -0.6545 0.9948
-1.0827 -0.4032 -0.6671 0.9947
-2.0404 -3.0445 -2.1160 0.9832
-1.9955 -3.6414 -2.3973 0.9810
-0.6250 -4.2855 -2.5004 0.9802
-0.2411 -4.3242 -2.5004 0.9802
0.5294 -4.2984 -2.5004 0.9802
1.2831 -4.1364 -2.5004 0.9802
2.3304 -3.6505 -2.5004 0.9802
3.2120 -2.9051 -2.5004 0.9802
3.8654 -1.9533 -2.5004 0.9802
4.0239 -1.6015 -2.5004 0.9802
4.3040 -0.4815 -2.5004 0.9802
4.3298 -0.0965 -2.5004 0.9802
4.3212 0.2893 -2.5004 0.9802
4.2015 1.0509 -2.5004 0.9802
3.9486 1.7791 -2.5004 0.9802
3.7745 2.1235 -2.5004 0.9802
3.0794 3.0453 -2.5004 0.9802
2.7961 3.3073 -2.5004 0.9802
2.1654 3.7506 -2.5004 0.9802
1.0976 4.1895 -2.5004 0.9802
0.7204 4.2705 -2.5004 0.9802
-0.0482 4.3306 -2.5004 0.9802
-1.1907 4.1640 -2.5004 0.9802
-1.5565 4.0415 -2.5004 0.9802
-1.8313 3.7267 -2.3973 0.9810
-2.7508 3.1104 -2.3973 0.9810
-3.2587 2.5734 -2.3973 0.9810
-3.4749 2.2731 -2.3973 0.9810
-1.0769 0.4566 -0.6753 0.9946
-1.0870 0.3505 -0.6594 0.9947
-1.1039 0.2501 -0.6535 0.9948
-1.1309 -0.0504 -0.6536 0.9948
-1.1039 -0.2501 -0.6535 0.9948
-1.0769 -0.4566 -0.6753 0.9946
-3.6634 -1.9548 -2.3973 0.9810
-3.2587 -2.5734 -2.3973 0.9810
-2.4631 -3.3429 -2.3973 0.9810
-1.5566 -4.0415 -2.5004 0.9802
-0.8153 -4.2534 -2.5004 0.9802
-0.4335 -4.3091 -2.5004 0.9802
-0.0482 -4.3306 -2.5004 0.9802
1.4661 -4.0752 -2.5004 0.9802
1.8230 -3.9285 -2.5004 0.9802
2.1654 -3.7506 -2.5004 0.9802
2.4907 -3.5430 -2.5004 0.9802
2.7961 -3.3073 -2.5004 0.9802
3.0794 -3.0453 -2.5004 0.9802
3.3382 -2.7591 -2.5004 0.9802
3.5706 -2.4511 -2.5004 0.9802
3.7745 -2.1235 -2.5004 0.9802
3.9486 -1.7791 -2.5004 0.9802
4.3212 -0.2893 -2.5004 0.9802
4.3298 0.0965 -2.5004 0.9802
4.3040 0.4815 -2.5004 0.9802
3.8654 1.9533 -2.5004 0.9802
3.2120 2.9051 -2.5004 0.9802
2.9407 3.1794 -2.5004 0.9802
2.6460 3.4286 -2.5004 0.9802
2.3304 3.6504 -2.5004 0.9802
1.9962 3.8434 -2.5004 0.9802
1.2831 4.1364 -2.5004 0.9802
0.9099 4.2342 -2.5004 0.9802
0.5294 4.2984 -2.5004 0.9802
-0.2411 4.3242 -2.5004 0.9802
-1.0040 4.2129 -2.5004 0.9802
-1.3750 4.1068 -2.5004 0.9802
-1.6635 3.8045 -2.3973 0.9810
-1.9955 3.6414 -2.3973 0.9810
-2.6095 3.2299 -2.3973 0.9810
-3.1409 2.7160 -2.3973 0.9810
-3.5727 2.1161 -2.3973 0.9810
-3.7468 1.7897 -2.3973 0.9810
-1.0827 0.4032 -0.6671 0.9947
-1.0934 0.2995 -0.6545 0.9948
-1.1141 0.2007 -0.6536 0.9948
