ply
format ascii 1.0
element vertex 1418
property float32 x
property float32 y
property float32 z
property float32 I
end_header
7.0663 -15.2275 2.5717 0.9343
7.0656 -15.2259 1.8024 0.9347
11.4503 16.2883 1.6855 0.9232
12.0285 15.5858 1.6666 0.9240
12.7208 15.0462 1.2218 0.9241
11.4502 16.2882 1.2346 0.9233
7.0648 -15.2243 1.0408 0.9349
11.9964 15.5442 1.2176 0.9243
11.4575 16.2986 0.7856 0.9233
7.0642 -15.2230 0.6617 0.9350
12.0353 15.5945 0.7767 0.9242
7.0635 -15.2214 0.2835 0.9351
17.7860 -0.3963 -0.1002 0.9313
-18.7000 6.0300 -0.1106 0.9244
7.0627 -15.2198 -0.0945 0.9351
17.9263 0.3995 -0.1010 0.9308
17.7860 -0.3964 -0.5009 0.9313
11.4575 16.2986 -0.5610 0.9234
-18.5119 5.9693 -0.5477 0.9251
7.0620 -15.2182 -0.4724 0.9351
17.9263 0.3995 -0.5049 0.9308
-18.2603 5.8882 -0.9730 0.9260
7.0612 -15.2166 -0.8507 0.9350
17.6476 -1.1814 -0.8970 0.9316
17.9263 0.3995 -0.9093 0.9307
-18.1675 6.7656 -0.9832 0.9253
17.7860 -0.3964 -1.3044 0.9311
-18.0531 5.8213 -1.3908 0.9267
7.0605 -15.2150 -1.2299 0.9349
17.9263 0.3995 -1.3147 0.9306
-17.8594 8.5307 -1.4512 0.9237
-17.9571 6.6873 -1.4050 0.9260
17.7860 -0.3963 -1.7080 0.9310
-9.1839 15.1188 -1.6983 0.9314
-12.2356 11.5724 -1.6169 0.9346
-14.1294 11.1579 -1.7285 0.9302
-15.0646 9.8548 -1.7283 0.9302
-17.3003 9.2317 -1.8826 0.9242
-17.8360 7.5631 -1.8599 0.9251
-17.9503 5.7882 -1.8107 0.9270
7.0597 -15.2133 -1.6102 0.9348
17.6476 -1.1813 -1.6981 0.9314
17.9263 0.3995 -1.7214 0.9305
-11.5472 11.9397 -1.5947 0.9354
-13.2252 11.4363 -1.6786 0.9322
-17.6771 8.4436 -1.8808 0.9243
10.4619 -16.3884 -2.3096 0.9247
10.5261 -7.9381 -1.5661 0.9483
17.7860 -0.3963 -2.1133 0.9308
-8.4916 17.2799 -2.2871 0.9254
-8.8230 14.5246 -2.0187 0.9338
-9.6456 13.0911 -1.9316 0.9366
-13.3693 10.5576 -2.0236 0.9337
-14.4606 9.4597 -2.0526 0.9328
-17.8349 5.7510 -2.2260 0.9273
-5.7064 -14.8163 -1.8860 0.9380
7.0260 -15.1406 -1.9827 0.9350
17.9263 0.3995 -2.1299 0.9303
12.0353 15.5945 -2.3399 0.9237
-8.6647 15.8111 -2.1417 0.9299
-10.4706 12.9596 -1.9791 0.9351
-11.0251 11.3998 -1.8838 0.9381
-15.1684 8.9843 -2.0941 0.9314
-5.6236 -16.7968 -2.5098 0.9309
0.6569 -19.6468 -2.7853 0.9237
5.8241 -18.7752 -2.7853 0.9237
7.1951 -17.5083 -2.6820 0.9264
10.1854 -15.9552 -2.6820 0.9264
10.4720 -11.3222 -2.1852 0.9396
10.4757 -9.4747 -2.0013 0.9445
17.7860 -0.3963 -2.5207 0.9306
18.8618 2.9659 -2.7054 0.9258
17.4081 7.8437 -2.7054 0.9258
15.7415 10.8060 -2.7054 0.9258
14.7173 12.1641 -2.7054 0.9258
13.5762 13.4258 -2.7054 0.9258
9.4645 16.3931 -2.6820 0.9264
7.9679 17.1704 -2.6820 0.9264
6.4692 17.9815 -2.7077 0.9257
3.2697 19.3840 -2.7853 0.9237
1.5314 19.5980 -2.7853 0.9237
-0.2190 19.6566 -2.7853 0.9237
-8.4875 13.9724 -2.3164 0.9361
-11.4318 10.8121 -2.2295 0.9384
-12.9306 10.2112 -2.3345 0.9356
-15.8448 8.4551 -2.5447 0.9300
-17.5074 5.6454 -2.6064 0.9284
-5.2044 -18.2008 -2.6822 0.9264
-3.5637 -18.5917 -2.6822 0.9264
-1.8948 -18.8351 -2.6822 0.9264
-0.2190 -19.6566 -2.7853 0.9237
3.2697 -19.3840 -2.7853 0.9237
4.9820 -19.0160 -2.7853 0.9237
6.4692 -17.9815 -2.7077 0.9257
10.4649 -14.8865 -2.5783 0.9291
10.4781 -8.6604 -1.9261 0.9466
10.5346 -3.6580 -1.5801 0.9559
19.0888 0.4254 -2.7054 0.9258
18.7110 3.8032 -2.7054 0.9258
17.7402 7.0604 -2.7054 0.9258
16.2073 10.0940 -2.7054 0.9258
12.9647 14.0172 -2.7054 0.9258
11.6656 15.1155 -2.7054 0.9258
10.1854 15.9552 -2.6820 0.9264
8.7249 16.7984 -2.6820 0.9264
5.8241 18.7752 -2.7853 0.9237
4.1299 19.2191 -2.7853 0.9237
2.4029 19.5104 -2.7853 0.9237
-1.0944 19.6273 -2.7853 0.9237
-2.7320 18.7320 -2.6822 0.9264
-7.9051 18.0794 -2.7958 0.9234
-10.1049 12.5069 -2.2782 0.9371
-10.6789 11.0420 -2.1765 0.9398
-12.3255 10.6583 -2.3088 0.9363
-14.5693 8.6295 -2.3993 0.9339
-17.2930 8.2602 -2.7154 0.9255
-5.6127 -10.2419 -1.9240 0.9538
-5.6157 -12.8436 -2.3092 0.9448
-2.3497 -16.1111 -2.6822 0.9361
-0.9413 -16.8811 -2.7853 0.9338
0.5650 -16.8979 -2.7853 0.9338
2.0667 -16.7805 -2.7853 0.9338
3.5521 -16.5300 -2.7853 0.9338
8.7603 -13.7228 -2.6820 0.9361
9.9469 -12.8886 -2.6820 0.9361
10.4720 -11.3222 -2.5407 0.9394
10.4788 -7.9024 -2.1621 0.9482
10.4840 -5.2978 -1.9351 0.9535
10.8169 -4.3050 -1.9179 0.9539
16.4180 -0.3659 -2.7054 0.9356
16.2227 2.5509 -2.7054 0.9356
15.9313 3.9847 -2.7054 0.9356
15.5134 5.3868 -2.7054 0.9356
14.9724 6.7462 -2.7054 0.9356
13.5390 9.2940 -2.7054 0.9356
8.1403 14.0994 -2.6820 0.9361
6.8531 14.7679 -2.6820 0.9361
-0.1884 16.9063 -2.7853 0.9338
-1.6297 16.1998 -2.6822 0.9361
-3.0651 15.9904 -2.6822 0.9361
-7.0062 18.1912 -3.2114 0.9240
-9.0534 12.2873 -2.5143 0.9400
-10.0433 11.3561 -2.4975 0.9404
-12.5173 9.8848 -2.6275 0.9374
-17.4332 5.6215 -3.0176 0.9284
-5.6192 -14.5899 -2.5756 0.9386
-4.4762 -15.6541 -2.6822 0.9361
-3.0651 -15.9904 -2.6822 0.9361
-0.1883 -16.9063 -2.7853 0.9338
4.2849 -16.3554 -2.7853 0.9338
5.7236 -15.9091 -2.7853 0.9338
10.4699 -12.3838 -2.6715 0.9364
10.4739 -10.3579 -2.4267 0.9420
10.4773 -8.6597 -2.2393 0.9464
10.4802 -7.1943 -2.0941 0.9498
10.4828 -5.8975 -1.9815 0.9524
10.6671 -4.8064 -1.9274 0.9537
16.0930 3.2710 -2.7054 0.9356
15.7380 4.6904 -2.7054 0.9356
15.2580 6.0725 -2.7054 0.9356
13.9396 8.6817 -2.7054 0.9356
13.1116 9.8879 -2.7054 0.9356
12.1795 11.0157 -2.7054 0.9356
11.1507 12.0560 -2.7054 0.9356
9.9469 12.8886 -2.6820 0.9361
8.7603 13.7228 -2.6820 0.9361
7.5041 14.4480 -2.6820 0.9361
6.4266 15.6383 -2.7853 0.9338
3.5521 16.5300 -2.7853 0.9338
2.0667 16.7805 -2.7853 0.9338
-0.9413 16.8811 -2.7853 0.9338
-3.7744 15.8380 -2.6822 0.9361
-5.1691 15.4392 -2.6822 0.9361
-5.5065 12.5937 -2.2643 0.9458
-7.9834 14.5679 -2.7366 0.9349
-8.4138 12.5542 -2.4897 0.9406
-10.3519 10.7038 -2.4531 0.9414
-14.0816 8.3406 -2.6962 0.9358
-16.5420 7.9015 -3.0200 0.9284
-5.6106 -10.2380 -2.1944 0.9536
-5.6157 -12.8436 -2.6348 0.9445
-4.5305 -13.5318 -2.6822 0.9436
-3.3081 -13.8813 -2.6822 0.9436
-0.8250 -14.7955 -2.7853 0.9415
0.4952 -14.8102 -2.7853 0.9415
4.3904 -14.1532 -2.7853 0.9415
5.6326 -13.7062 -2.7853 0.9415
6.5770 -12.6630 -2.6820 0.9436
7.6780 -12.0274 -2.6820 0.9436
8.7180 -11.2963 -2.6820 0.9436
9.6889 -10.4755 -2.6820 0.9436
10.4757 -9.4747 -2.6549 0.9441
10.4815 -6.5280 -2.3210 0.9510
10.4840 -5.2978 -2.2079 0.9533
10.4862 -4.1734 -2.1214 0.9551
10.4883 -3.1259 -2.0571 0.9564
10.4902 -2.1322 -2.0121 0.9574
14.3040 -1.6002 -2.7054 0.9431
14.3896 -0.3207 -2.7054 0.9431
14.2185 2.2357 -2.7054 0.9431
13.9631 3.4924 -2.7054 0.9431
13.5968 4.7213 -2.7054 0.9431
13.1226 5.9128 -2.7054 0.9431
11.8663 8.1458 -2.7054 0.9431
11.0942 9.1696 -2.7054 0.9431
8.2062 11.6734 -2.6820 0.9436
7.1346 12.3575 -2.6820 0.9436
6.2376 13.4418 -2.7853 0.9415
5.0165 13.9436 -2.7853 0.9415
3.7555 14.3347 -2.7853 0.9415
1.1544 14.7735 -2.7853 0.9415
-0.1651 14.8176 -2.7853 0.9415
-1.4833 14.7441 -2.7853 0.9415
-2.6864 14.0149 -2.6822 0.9436
-3.9232 13.7202 -2.6822 0.9436
-5.1288 13.3165 -2.6822 0.9436
-8.7985 11.9414 -2.7880 0.9414
-9.7374 11.0102 -2.7627 0.9419
-10.7405 10.1583 -2.7787 0.9416
-14.6065 7.7943 -3.1119 0.9348
-16.5060 6.9992 -3.3699 0.9296
-17.5080 5.6456 -3.4577 0.9279
-5.6129 -11.4220 -2.3921 0.9495
-5.1288 -13.3165 -2.6822 0.9436
-1.4833 -14.7441 -2.7853 0.9415
1.1544 -14.7735 -2.7853 0.9415
2.4648 -14.6121 -2.7853 0.9415
3.7555 -14.3347 -2.7853 0.9415
7.1346 -12.3575 -2.6820 0.9436
8.2062 -11.6734 -2.6820 0.9436
10.4773 -8.6597 -2.5549 0.9462
10.4828 -5.8975 -2.2608 0.9522
10.4851 -4.7244 -2.1616 0.9543
10.4872 -3.6416 -2.0866 0.9558
13.4060 -2.1080 -2.5508 0.9463
14.3610 -0.9613 -2.7054 0.9431
14.3040 1.6001 -2.7054 0.9431
14.1048 2.8669 -2.7054 0.9431
13.3730 5.3223 -2.7054 0.9431
12.8462 6.4914 -2.7054 0.9431
12.2174 7.6091 -2.7054 0.9431
11.4917 8.6663 -2.7054 0.9431
9.6889 10.4755 -2.6820 0.9436
8.7180 11.2963 -2.6820 0.9436
7.6780 12.0274 -2.6820 0.9436
5.6327 13.7062 -2.7853 0.9415
4.3904 14.1532 -2.7853 0.9415
3.1132 14.4878 -2.7853 0.9415
-4.5305 13.5318 -2.6822 0.9436
-5.5061 12.5928 -2.5833 0.9456
-7.6782 14.0110 -3.0031 0.9370
-9.4215 11.6612 -2.8178 0.9408
-10.0420 10.3834 -2.7151 0.9429
-11.5310 9.9712 -2.8654 0.9398
-13.6594 8.0905 -2.9840 0.9374
-15.8486 7.5703 -3.3013 0.9310
-5.6069 -8.3660 -2.1288 0.9597
-5.6106 -10.2380 -2.4678 0.9534
-5.0835 -11.6263 -2.6822 0.9494
-4.0285 -12.0326 -2.6822 0.9494
2.7683 -12.8827 -2.7853 0.9476
6.0735 -11.6936 -2.7853 0.9476
8.6154 -9.3149 -2.6820 0.9494
10.1305 -7.6398 -2.6820 0.9494
10.4815 -6.5280 -2.6101 0.9508
10.4840 -5.2978 -2.4830 0.9531
10.4883 -3.1258 -2.3134 0.9562
12.7954 -0.2851 -2.7054 0.9490
12.7700 0.8548 -2.7054 0.9490
12.6432 1.9880 -2.7054 0.9490
12.0904 4.1982 -2.7054 0.9490
11.6687 5.2577 -2.7054 0.9490
11.1545 6.2754 -2.7054 0.9490
9.0218 8.9219 -2.6820 0.9494
7.2970 10.3801 -2.6820 0.9494
5.5465 11.9525 -2.7853 0.9476
4.4607 12.3987 -2.7853 0.9476
3.3395 12.7466 -2.7853 0.9476
2.1917 12.9932 -2.7853 0.9476
-0.1468 13.1759 -2.7853 0.9476
-2.3888 12.4622 -2.6822 0.9494
-3.4885 12.2001 -2.6822 0.9494
-5.5964 11.3883 -2.6822 0.9494
-7.5867 12.4895 -3.0889 0.9420
-8.5404 11.5911 -3.0434 0.9428
-12.3151 8.0562 -3.1107 0.9416
-14.8942 6.3157 -3.4197 0.9360
-5.6483 -5.3421 -1.6433 0.9687
-5.6054 -7.6076 -1.9975 0.9621
-5.5964 -11.3883 -2.6822 0.9494
-4.5605 -11.8412 -2.6822 0.9494
-3.4885 -12.2001 -2.6822 0.9494
-1.3189 -13.1106 -2.7853 0.9476
-0.1468 -13.1759 -2.7853 0.9476
1.0265 -13.1367 -2.7853 0.9476
4.4607 -12.3987 -2.7853 0.9476
5.5465 -11.9525 -2.7853 0.9476
8.1919 -9.6894 -2.6820 0.9494
9.0218 -8.9219 -2.6820 0.9494
9.7801 -8.0835 -2.6820 0.9494
10.4607 -7.1809 -2.6820 0.9494
10.4828 -5.8975 -2.5424 0.9520
10.4872 -3.6416 -2.3466 0.9556
10.4893 -2.6236 -2.2855 0.9568
12.6432 -1.9880 -2.7054 0.9490
12.5421 2.5493 -2.7054 0.9490
11.4229 5.7723 -2.7054 0.9490
8.6154 9.3149 -2.6820 0.9494
2.7683 12.8826 -2.7853 0.9476
0.4403 13.1694 -2.7853 0.9476
-0.7336 13.1563 -2.7853 0.9476
-2.9416 12.3434 -2.6822 0.9494
-4.0285 12.0326 -2.6822 0.9494
-5.0835 11.6262 -2.6822 0.9494
-7.9554 11.8702 -3.0205 0.9433
-5.5004 6.8079 -1.8500 0.9649
-11.1741 9.6627 -3.1226 0.9414
-11.8475 8.5273 -3.0856 0.9421
-15.4891 5.7682 -3.4938 0.9347
-18.3993 5.0401 -4.0325 0.9250
-5.6040 -6.9362 -2.0957 0.9640
-5.4847 -10.0082 -2.6822 0.9542
-2.6457 -11.1016 -2.6822 0.9542
-1.6471 -11.2931 -2.6822 0.9542
-0.6598 -11.8328 -2.7853 0.9525
0.3960 -11.8446 -2.7853 0.9525
1.4487 -11.7623 -2.7853 0.9525
3.5112 -11.3191 -2.7853 0.9525
4.5047 -10.9616 -2.7853 0.9525
5.4625 -10.5172 -2.7853 0.9525
6.3769 -9.9893 -2.7853 0.9525
6.9723 -9.0343 -2.6820 0.9542
8.4636 -7.6549 -2.6820 0.9542
9.1114 -6.8712 -2.6820 0.9542
10.1853 -5.1469 -2.6820 0.9542
10.4862 -4.1734 -2.6525 0.9547
10.4883 -3.1259 -2.5721 0.9560
10.4902 -2.1322 -2.5159 0.9570
11.4397 -1.2797 -2.7054 0.9538
11.5082 -0.2565 -2.7054 0.9538
11.1670 2.7931 -2.7054 0.9538
10.4045 4.6880 -2.6820 0.9542
9.9459 5.5955 -2.6820 0.9542
9.4084 6.4585 -2.6820 0.9542
8.7962 7.2703 -2.6820 0.9542
6.5629 9.3359 -2.6820 0.9542
4.9886 10.7501 -2.7853 0.9525
0.9233 11.8152 -2.7853 0.9525
-1.1862 11.7917 -2.7853 0.9525
-2.1485 11.2085 -2.6822 0.9542
-3.1376 10.9728 -2.6822 0.9542
-5.0334 10.2426 -2.6822 0.9542
-5.5072 9.0660 -2.4930 0.9573
-7.9952 10.8512 -3.1678 0.9461
-10.0799 9.5335 -3.2608 0.9446
-10.8624 8.5780 -3.2530 0.9447
-15.0480 4.8523 -3.7160 0.9371
-5.6483 -5.3421 -1.8272 0.9686
-5.6028 -6.3352 -1.9877 0.9658
-5.6054 -7.6076 -2.2209 0.9619
-5.0334 -10.2426 -2.6822 0.9542
-4.1018 -10.6500 -2.6822 0.9542
-3.1376 -10.9728 -2.6822 0.9542
-2.1485 -11.2085 -2.6822 0.9542
0.9233 -11.8152 -2.7853 0.9525
4.9886 -10.7501 -2.7853 0.9525
5.9256 -10.2634 -2.7853 0.9525
6.5629 -9.3359 -2.6820 0.9542
8.1142 -8.0243 -2.6820 0.9542
8.7962 -7.2703 -2.6820 0.9542
10.4872 -3.6416 -2.6091 0.9554
11.5082 0.2564 -2.7054 0.9538
11.2804 2.2928 -2.7054 0.9538
11.0315 3.2877 -2.7054 0.9538
10.6951 4.2566 -2.7054 0.9538
10.1853 5.1468 -2.6820 0.9542
9.1114 6.8712 -2.6820 0.9542
7.7487 8.3778 -2.6820 0.9542
6.3769 9.9893 -2.7853 0.9525
5.4625 10.5172 -2.7853 0.9525
4.5047 10.9616 -2.7853 0.9525
2.4898 11.5867 -2.7853 0.9525
0.3960 11.8446 -2.7853 0.9525
-0.6598 11.8328 -2.7853 0.9525
-1.6470 11.2931 -2.6822 0.9542
-2.6457 11.1016 -2.6822 0.9542
-4.5721 10.4567 -2.6822 0.9542
-8.3977 10.3940 -3.1405 0.9466
-5.5006 5.6875 -1.8596 0.9680
-10.4423 9.0298 -3.2445 0.9449
-11.3320 8.1563 -3.2814 0.9442
-13.0823 6.2489 -3.4074 0.9422
-16.5594 4.5361 -4.0352 0.9319
-5.6052 -4.8470 -1.9186 0.9698
-5.6040 -6.9362 -2.3088 0.9638
-5.6069 -8.3660 -2.6076 0.9592
-2.4015 -10.0771 -2.6822 0.9581
-1.5525 -10.6448 -2.7853 0.9565
-0.5989 -10.7408 -2.7853 0.9565
0.3595 -10.7515 -2.7853 0.9565
3.1872 -10.2745 -2.7853 0.9565
4.0890 -9.9500 -2.7853 0.9565
5.7884 -9.0674 -2.7853 0.9565
6.4630 -8.3743 -2.7389 0.9572
8.2705 -6.2371 -2.6820 0.9581
8.7928 -5.4762 -2.6820 0.9581
9.6245 -3.8304 -2.6820 0.9581
10.1511 -2.0633 -2.6820 0.9581
10.3356 0.6919 -2.6820 0.9581
9.7855 3.3979 -2.6820 0.9581
9.4443 4.2554 -2.6820 0.9581
9.0280 5.0791 -2.6820 0.9581
6.1866 8.8005 -2.7853 0.9565
4.5282 9.7580 -2.7853 0.9565
3.6417 10.1223 -2.7853 0.9565
-2.8480 9.9601 -2.6822 0.9581
-3.7232 9.6671 -2.6822 0.9581
-4.5689 9.2974 -2.6822 0.9581
-5.3782 8.8538 -2.6822 0.9581
-8.4886 9.5981 -3.3176 0.9484
-10.0599 7.9442 -3.3189 0.9484
-10.9231 7.1455 -3.3796 0.9475
-11.6434 6.2131 -3.4170 0.9469
-12.4844 5.2938 -3.5110 0.9455
-17.4757 3.9595 -4.6395 0.9286
-5.6008 -5.2972 -1.9960 0.9686
-5.3782 -8.8538 -2.6822 0.9581
-3.7232 -9.6671 -2.6822 0.9581
-1.0768 -10.7034 -2.7853 0.9565
-0.1198 -10.7568 -2.7853 0.9565
0.8381 -10.7248 -2.7853 0.9565
3.6417 -10.1223 -2.7853 0.9565
4.5282 -9.7580 -2.7853 0.9565
5.3787 -9.3162 -2.7853 0.9565
6.1866 -8.8005 -2.7853 0.9565
9.0280 -5.0791 -2.6820 0.9581
10.0491 -2.5135 -2.6820 0.9581
10.2330 -1.6090 -2.6820 0.9581
10.3561 0.2308 -2.6820 0.9581
10.2945 1.1516 -2.6820 0.9581
9.9272 2.9586 -2.6820 0.9581
9.2453 4.6719 -2.6820 0.9581
8.7928 5.4762 -2.6820 0.9581
7.0336 7.6046 -2.6820 0.9581
5.7884 9.0674 -2.7853 0.9565
4.9584 9.5466 -2.7853 0.9565
1.3150 10.6768 -2.7853 0.9565
-2.4015 10.0771 -2.6822 0.9581
-4.1502 9.4917 -2.6822 0.9581
-5.5069 8.2168 -2.5611 0.9600
-7.9362 9.8227 -3.2696 0.9492
-9.6911 8.3802 -3.3173 0.9484
-10.4884 7.5491 -3.3459 0.9480
-11.2780 6.6800 -3.3939 0.9473
-13.0689 4.8669 -3.6108 0.9440
-14.8958 4.0804 -3.9989 0.9382
-5.5999 -4.8424 -2.0958 0.9697
-5.6040 -6.9362 -2.5244 0.9636
-3.7957 -8.6811 -2.6822 0.9614
-2.1964 -9.2166 -2.6822 0.9614
1.2027 -9.7650 -2.7853 0.9599
4.5350 -8.7313 -2.7853 0.9599
6.0112 -7.7890 -2.7853 0.9599
6.4717 -6.9971 -2.6982 0.9612
7.5642 -5.7045 -2.6820 0.9614
8.0419 -5.0086 -2.6820 0.9614
8.4558 -4.2729 -2.6820 0.9614
8.8026 -3.5033 -2.6820 0.9614
9.2843 -1.8871 -2.6820 0.9614
9.3591 1.4717 -2.6820 0.9614
8.9499 3.1077 -2.6820 0.9614
8.6378 3.8920 -2.6820 0.9614
7.3026 6.0358 -2.6820 0.9614
6.7364 6.6618 -2.6820 0.9614
3.3307 9.2579 -2.7853 0.9599
2.4935 9.5176 -2.7853 0.9599
0.7665 9.8089 -2.7853 0.9599
-0.1096 9.8382 -2.7853 0.9599
-1.7837 9.3053 -2.6822 0.9614
-4.1787 8.5034 -2.6822 0.9614
-6.9732 9.4641 -3.3279 0.9523
-9.3659 7.3962 -3.3785 0.9516
-5.5009 3.5985 -1.8609 0.9730
-11.6735 4.9500 -3.5895 0.9487
-12.7412 4.1085 -3.7898 0.9459
-14.8509 3.3648 -4.3107 0.9387
-5.6976 -3.7272 -1.9274 0.9721
-5.5990 -4.4215 -2.0197 0.9708
-5.6008 -5.2972 -2.1824 0.9685
-5.6028 -6.3352 -2.3942 0.9655
-4.9190 -8.0977 -2.6822 0.9614
-4.1787 -8.5034 -2.6822 0.9614
-1.7837 -9.3053 -2.6822 0.9614
3.3307 -9.2579 -2.7853 0.9599
4.1415 -8.9247 -2.7853 0.9599
4.9194 -8.5206 -2.7853 0.9599
6.3522 -7.5135 -2.7853 0.9599
6.7364 -6.6618 -2.6820 0.9614
7.8108 -5.3618 -2.6820 0.9614
9.1910 -2.2988 -2.6820 0.9614
9.4154 1.0533 -2.6820 0.9614
9.2843 1.8871 -2.6820 0.9614
9.0794 2.7060 -2.6820 0.9614
8.0419 5.0086 -2.6820 0.9614
7.5642 5.7045 -2.6820 0.9614
6.4717 6.9971 -2.6982 0.9612
4.5350 8.7313 -2.7853 0.9599
3.7398 9.1003 -2.7853 0.9599
2.9150 9.3971 -2.7853 0.9599
1.2027 9.7650 -2.7853 0.9599
-1.4199 9.7358 -2.7853 0.9599
-3.7957 8.6811 -2.6822 0.9614
-7.4022 9.1619 -3.3344 0.9522
-5.5079 4.7629 -2.0614 0.9702
-10.5194 6.2306 -3.4611 0.9504
-11.1922 5.3461 -3.5113 0.9497
-18.8057 3.3880 -5.4095 0.9236
-19.1140 0.0000 -5.8791 0.9231
-5.5968 -3.3150 -2.0008 0.9731
-5.5982 -4.0294 -2.1215 0.9715
-5.6017 -5.7922 -2.4784 0.9668
-4.8549 -7.2440 -2.6822 0.9642
-4.1909 -7.6474 -2.6822 0.9642
-2.7686 -8.2693 -2.6822 0.9642
1.1069 -8.9877 -2.7853 0.9628
1.9025 -8.8535 -2.7853 0.9628
2.6829 -8.6490 -2.7853 0.9628
3.4421 -8.3759 -2.7853 0.9628
4.1739 -8.0363 -2.7853 0.9628
6.1488 -6.6480 -2.7853 0.9628
6.4750 -5.8562 -2.6853 0.9641
7.4017 -4.6098 -2.6820 0.9642
8.6658 -0.9694 -2.6820 0.9642
8.7004 0.5824 -2.6820 0.9642
8.2374 2.8604 -2.6820 0.9642
7.9501 3.5821 -2.6820 0.9642
7.1890 4.9350 -2.6820 0.9642
6.7213 5.5553 -2.6820 0.9642
3.8118 8.2142 -2.7853 0.9628
2.2950 8.7599 -2.7853 0.9628
-0.1009 9.0550 -2.7853 0.9628
-1.6417 8.5645 -2.6822 0.9642
-3.1342 8.1377 -2.6822 0.9642
-3.8460 7.8265 -2.6822 0.9642
-4.5274 7.4531 -2.6822 0.9642
-5.1728 7.0205 -2.6822 0.9642
-8.7999 6.9492 -3.4489 0.9542
-9.5063 6.2187 -3.4940 0.9536
-5.5083 2.9393 -1.9204 0.9742
-5.5012 2.3327 -1.8379 0.9753
-11.8773 3.8299 -3.8384 0.9491
-13.4824 3.0547 -4.2520 0.9438
-5.9641 -1.9232 -1.9274 0.9741
-5.7692 -2.4464 -1.9274 0.9741
-5.5975 -3.6617 -2.0573 0.9724
-5.6008 -5.2972 -2.3711 0.9683
-5.6028 -6.3352 -2.6013 0.9652
-5.1728 -7.0205 -2.6822 0.9642
-3.8460 -7.8265 -2.6822 0.9642
-1.6417 -8.5645 -2.6822 0.9642
-0.1009 -9.0550 -2.7853 0.9628
1.5062 -8.9294 -2.7853 0.9628
2.2950 -8.7599 -2.7853 0.9628
3.8118 -8.2142 -2.7853 0.9628
4.5278 -7.8424 -2.7853 0.9628
5.2078 -7.4082 -2.7853 0.9628
6.4388 -6.3675 -2.7853 0.9628
7.1890 -4.9350 -2.6820 0.9642
7.5997 -4.2756 -2.6820 0.9642
6.7821 -3.0559 -2.2880 0.9693
8.2374 -2.8603 -2.6820 0.9642
8.4593 -2.1158 -2.6820 0.9642
8.6140 -1.3545 -2.6820 0.9642
8.7004 -0.5824 -2.6820 0.9642
8.6658 0.9694 -2.6820 0.9642
7.7827 3.9328 -2.6820 0.9642
6.9621 5.2504 -2.6820 0.9642
5.5327 7.1689 -2.7853 0.9628
4.8727 7.6329 -2.7853 0.9628
4.1739 8.0363 -2.7853 0.9628
3.4421 8.3759 -2.7853 0.9628
2.6830 8.6490 -2.7853 0.9628
1.9025 8.8535 -2.7853 0.9628
1.1069 8.9877 -2.7853 0.9628
0.3026 9.0505 -2.7853 0.9628
-0.5041 9.0415 -2.7853 0.9628
-2.0216 8.4829 -2.6822 0.9642
-7.6131 7.8719 -3.3683 0.9552
-9.1530 6.5879 -3.4687 0.9539
-5.5011 2.6276 -1.8751 0.9748
-11.4080 4.2484 -3.7443 0.9503
-12.4579 3.4126 -3.9729 0.9474
-16.0668 2.8946 -5.0214 0.9340
-5.5017 -0.4917 -1.8361 0.9770
-5.5982 -4.0294 -2.2928 0.9713
-5.6017 -5.7922 -2.6785 0.9666
-5.0711 -6.2765 -2.6822 0.9666
-2.5618 -7.6516 -2.6822 0.9666
-1.8706 -7.8493 -2.6822 0.9666
-1.2093 -8.2915 -2.7853 0.9653
1.0243 -8.3164 -2.7853 0.9653
1.7604 -8.1922 -2.7853 0.9653
5.1194 -6.6334 -2.7853 0.9653
5.6895 -6.1515 -2.7853 0.9653
6.2145 -5.6207 -2.7853 0.9653
6.4725 -4.8812 -2.6947 0.9664
7.4967 -2.9836 -2.6820 0.9666
7.7325 -2.3045 -2.6820 0.9666
7.9069 -1.6071 -2.6820 0.9666
8.0186 -0.8970 -2.6820 0.9666
7.9707 1.2533 -2.6820 0.9666
7.6222 2.6467 -2.6820 0.9666
7.3563 3.3146 -2.6820 0.9666
7.0321 3.9562 -2.6820 0.9666
5.9579 5.8919 -2.7853 0.9653
4.8189 6.8549 -2.7853 0.9653
4.1896 7.2566 -2.7853 0.9653
-0.8387 8.3371 -2.7853 0.9653
-1.5774 8.2294 -2.7853 0.9653
-2.2184 7.7582 -2.6822 0.9666
-2.9001 7.5299 -2.6822 0.9666
-3.5588 7.2419 -2.6822 0.9666
-4.1892 6.8964 -2.6822 0.9666
-5.3456 6.0444 -2.6822 0.9666
-7.5163 7.1088 -3.4389 0.9573
-8.2891 6.5458 -3.5109 0.9565
-5.5082 3.6032 -2.1879 0.9726
-9.6377 5.1429 -3.6312 0.9550
-10.3834 4.4029 -3.7490 0.9536
-5.5014 1.2464 -1.8750 0.9765
-5.5174 0.2460 -1.8359 0.9770
-5.5169 -0.2461 -1.8357 0.9770
-5.5017 -0.7400 -1.8453 0.9769
-5.6915 -1.8353 -1.9878 0.9751
-5.5950 -2.3725 -2.0201 0.9747
-5.5990 -4.4215 -2.3715 0.9704
-4.7864 -6.4962 -2.6822 0.9666
-4.1892 -6.8964 -2.6822 0.9666
-3.5588 -7.2419 -2.6822 0.9666
-1.5774 -8.2294 -2.7853 0.9653
-0.0933 -8.3787 -2.7853 0.9653
0.6528 -8.3538 -2.7853 0.9653
1.3937 -8.2625 -2.7853 0.9653
2.8366 -7.8845 -2.7853 0.9653
4.8189 -6.8549 -2.7853 0.9653
5.4099 -6.3988 -2.7853 0.9653
5.9579 -5.8919 -2.7853 0.9653
6.4587 -5.3382 -2.7853 0.9653
6.6742 -4.5816 -2.6910 0.9665
6.7822 -3.0559 -2.4727 0.9691
7.6222 -2.6467 -2.6820 0.9666
8.0506 -0.5389 -2.6820 0.9666
8.0186 0.8970 -2.6820 0.9666
7.7325 2.3045 -2.6820 0.9666
7.4967 2.9836 -2.6820 0.9666
6.2145 5.6206 -2.7853 0.9653
5.6895 6.1514 -2.7853 0.9653
5.1194 6.6334 -2.7853 0.9653
4.5087 7.0628 -2.7853 0.9653
3.1850 7.7503 -2.7853 0.9653
2.4826 8.0030 -2.7853 0.9653
1.7604 8.1922 -2.7853 0.9653
-0.4665 8.3662 -2.7853 0.9653
-1.2093 8.2915 -2.7853 0.9653
-1.8706 7.8493 -2.6822 0.9666
-2.5618 7.6516 -2.6822 0.9666
-5.0710 6.2765 -2.6822 0.9666
-7.9047 6.8355 -3.4737 0.9569
-8.6223 6.2060 -3.5313 0.9562
-10.0103 4.7815 -3.6876 0.9543
-5.5015 0.4916 -1.8360 0.9770
-18.5144 0.0000 -6.6209 0.9244
-18.4661 -1.6502 -6.6300 0.9243
-5.5944 -2.0834 -2.1348 0.9750
-5.5968 -3.3150 -2.3262 0.9727
-5.5999 -4.8424 -2.6474 0.9690
-5.2142 -5.3915 -2.6822 0.9686
-4.7137 -5.8342 -2.6822 0.9686
-4.1757 -6.2306 -2.6822 0.9686
-3.6046 -6.5775 -2.6822 0.9686
-1.1241 -7.7072 -2.7853 0.9675
-0.4336 -7.7766 -2.7853 0.9675
0.2603 -7.7844 -2.7853 0.9675
0.9521 -7.7303 -2.7853 0.9675
2.3076 -7.4390 -2.7853 0.9675
2.9606 -7.2041 -2.7853 0.9675
3.5900 -6.9120 -2.7853 0.9675
4.7587 -6.1660 -2.7853 0.9675
5.7765 -5.2246 -2.7853 0.9675
6.4651 -4.0265 -2.7237 0.9682
6.6939 -3.3826 -2.6820 0.9686
6.9684 -2.7734 -2.6820 0.9686
7.3497 -1.4939 -2.6820 0.9686
7.4535 -0.8338 -2.6820 0.9686
7.4832 0.5009 -2.6820 0.9686
7.0850 2.4602 -2.6820 0.9686
6.8379 3.0810 -2.6820 0.9686
6.4213 4.4080 -2.7853 0.9675
6.0035 4.9620 -2.7853 0.9675
5.5380 5.4767 -2.7853 0.9675
4.4793 6.3718 -2.7853 0.9675
3.8944 6.7452 -2.7853 0.9675
3.2785 7.0651 -2.7853 0.9675
2.6367 7.3288 -2.7853 0.9675
1.9739 7.5344 -2.7853 0.9675
0.6068 7.7651 -2.7853 0.9675
-0.7796 7.7496 -2.7853 0.9675
-1.4663 7.6495 -2.7853 0.9675
-2.0620 7.2114 -2.6822 0.9686
-2.6957 6.9993 -2.6822 0.9686
-3.3080 6.7316 -2.6822 0.9686
-3.8940 6.4104 -2.6822 0.9686
-4.4491 6.0384 -2.6822 0.9686
-4.9689 5.6184 -2.6822 0.9686
-5.4492 5.1539 -2.6822 0.9686
-5.5156 4.3556 -2.5133 0.9706
-9.1500 4.8826 -3.7088 0.9569
-9.8407 4.1728 -3.8224 0.9556
-10.5776 3.4108 -3.9744 0.9539
-14.9696 2.0132 -5.4014 0.9379
-18.4832 0.8242 -6.6163 0.9244
-18.6818 -0.8331 -6.6874 0.9236
-5.5950 -2.3725 -2.1732 0.9745
-5.5962 -2.9862 -2.2683 0.9734
-5.5975 -3.6617 -2.3920 0.9720
-5.5990 -4.4215 -2.5513 0.9701
-3.8940 -6.4104 -2.6822 0.9686
-3.3080 -6.7315 -2.6822 0.9686
-2.6957 -6.9993 -2.6822 0.9686
-2.0620 -7.2114 -2.6822 0.9686
-1.4663 -7.6495 -2.7853 0.9675
-0.7796 -7.7496 -2.7853 0.9675
-0.0868 -7.7882 -2.7853 0.9675
0.6068 -7.7650 -2.7853 0.9675
1.2955 -7.6802 -2.7853 0.9675
1.9739 -7.5344 -2.7853 0.9675
2.6367 -7.3288 -2.7853 0.9675
3.8944 -6.7452 -2.7853 0.9675
6.4213 -4.4080 -2.7853 0.9675
6.5365 -3.6774 -2.6820 0.9686
6.7821 -3.0559 -2.6602 0.9689
7.0850 -2.4602 -2.6820 0.9686
7.4090 -1.1650 -2.6820 0.9686
7.4981 0.1671 -2.6820 0.9686
7.4535 0.8338 -2.6820 0.9686
7.3497 1.4939 -2.6820 0.9686
6.9684 2.7733 -2.6820 0.9686
6.6939 3.3826 -2.6820 0.9686
6.2186 4.6897 -2.7853 0.9675
5.7765 5.2246 -2.7853 0.9675
5.2886 5.7179 -2.7853 0.9675
4.7587 6.1660 -2.7853 0.9675
4.1910 6.5650 -2.7853 0.9675
2.3076 7.4390 -2.7853 0.9675
1.6363 7.6149 -2.7853 0.9675
0.9521 7.7303 -2.7853 0.9675
0.2603 7.7844 -2.7853 0.9675
-0.4336 7.7766 -2.7853 0.9675
-1.1241 7.7072 -2.7853 0.9675
-1.7388 7.2961 -2.6822 0.9686
-3.0048 6.8722 -2.6822 0.9686
-7.4659 6.4560 -3.5296 0.9589
-8.1431 5.8611 -3.5879 0.9583
-8.7983 5.2112 -3.6568 0.9575
-9.4977 4.5367 -3.7640 0.9563
-10.1923 3.7957 -3.8894 0.9548
-11.0955 3.0394 -4.1140 0.9523
-12.6063 2.2711 -4.5807 0.9470
-18.4971 1.6529 -6.6411 0.9241
-18.4111 0.0000 -7.0555 0.9242
-18.5313 -1.6560 -7.1298 0.9234
-5.5944 -2.0834 -2.2877 0.9748
-5.5956 -2.6728 -2.3764 0.9738
-5.5968 -3.3150 -2.4928 0.9725
-5.2943 -4.5781 -2.6822 0.9705
-3.8966 -5.8142 -2.6822 0.9705
-3.3637 -6.1379 -2.6822 0.9705
-2.8040 -6.4129 -2.6822 0.9705
-1.0489 -7.1921 -2.7853 0.9693
-0.4046 -7.2569 -2.7853 0.9693
0.2429 -7.2641 -2.7853 0.9693
2.1534 -6.9419 -2.7853 0.9693
3.3501 -6.4501 -2.7853 0.9693
4.9351 -5.3358 -2.7853 0.9693
6.5027 -2.5880 -2.6820 0.9705
6.7072 -1.9989 -2.6820 0.9705
6.8585 -1.3941 -2.6820 0.9705
6.9554 -0.7781 -2.6820 0.9705
6.9831 0.4675 -2.6820 0.9705
6.6115 2.2958 -2.6820 0.9705
5.9922 4.1134 -2.7853 0.9693
5.6023 4.6304 -2.7853 0.9693
5.1679 5.1107 -2.7853 0.9693
4.1799 5.9460 -2.7853 0.9693
3.6341 6.2944 -2.7853 0.9693
3.0594 6.5929 -2.7853 0.9693
2.4605 6.8390 -2.7853 0.9693
1.8420 7.0309 -2.7853 0.9693
1.2089 7.1669 -2.7853 0.9693
0.5662 7.2461 -2.7853 0.9693
-0.0810 7.2677 -2.7853 0.9693
-0.7275 7.2317 -2.7853 0.9693
-1.9242 6.7295 -2.6822 0.9705
-2.5156 6.5315 -2.6822 0.9705
-3.6338 5.9820 -2.6822 0.9705
-4.1518 5.6348 -2.6822 0.9705
-8.0400 5.2595 -3.6818 0.9597
-10.0783 3.2498 -4.0580 0.9557
-5.5014 1.2464 -2.1617 0.9761
-12.8840 1.7327 -4.9818 0.9458
-5.5088 0.2456 -2.1132 0.9767
-5.5950 -2.3725 -2.3289 0.9743
-5.5962 -2.9862 -2.4308 0.9732
-4.1518 -5.6348 -2.6822 0.9705
-3.6338 -5.9820 -2.6822 0.9705
-1.9242 -6.7295 -2.6822 0.9705
-0.0810 -7.2677 -2.7853 0.9693
0.5662 -7.2461 -2.7853 0.9693
1.2089 -7.1670 -2.7853 0.9693
1.8420 -7.0309 -2.7853 0.9693
2.4605 -6.8390 -2.7853 0.9693
3.0594 -6.5929 -2.7853 0.9693
3.6341 -6.2945 -2.7853 0.9693
4.6925 -5.5504 -2.7853 0.9693
5.1679 -5.1107 -2.7853 0.9693
5.6023 -4.6304 -2.7853 0.9693
5.9922 -4.1134 -2.7853 0.9693
6.6115 -2.2958 -2.6820 0.9705
6.7896 -1.6982 -2.6820 0.9705
6.9138 -1.0871 -2.6820 0.9705
6.9831 -0.4675 -2.6820 0.9705
6.7072 1.9990 -2.6820 0.9705
6.1695 3.8424 -2.7853 0.9693
4.4406 5.7539 -2.7853 0.9693
3.3501 6.4501 -2.7853 0.9693
2.7627 6.7227 -2.7853 0.9693
2.1534 6.9419 -2.7853 0.9693
0.8885 7.2137 -2.7853 0.9693
-0.4046 7.2569 -2.7853 0.9693
-1.0489 7.1921 -2.7853 0.9693
-2.8040 6.4129 -2.6822 0.9705
-3.3637 6.1379 -2.6822 0.9705
-4.3987 5.4443 -2.6822 0.9705
-7.7078 5.5477 -3.6393 0.9601
-17.9572 1.6046 -6.9090 0.9257
-17.9926 0.0000 -7.3639 0.9252
-1.6390 -0.1465 -0.6735 0.9929
-1.6200 -0.2919 -0.6737 0.9929
-1.6035 -0.4392 -0.6804 0.9928
-5.5956 -2.6728 -2.5380 0.9736
-5.5968 -3.3150 -2.6623 0.9723
-5.3191 -3.8284 -2.6822 0.9721
-4.9572 -4.2867 -2.6822 0.9721
-4.5560 -4.7109 -2.6822 0.9721
-4.1186 -5.0977 -2.6822 0.9721
-2.6255 -6.0047 -2.6822 0.9721
-2.0806 -6.2145 -2.6822 0.9721
-0.3789 -6.7949 -2.7853 0.9710
0.2274 -6.8016 -2.7853 0.9710
1.4298 -6.6536 -2.7853 0.9710
2.0163 -6.4999 -2.7853 0.9710
2.5868 -6.2946 -2.7853 0.9710
3.6619 -5.7362 -2.7853 0.9710
4.1579 -5.3876 -2.7853 0.9710
5.0473 -4.5650 -2.7853 0.9710
5.7767 -3.5978 -2.7853 0.9710
6.0740 -3.0693 -2.7853 0.9710
6.3231 -2.5165 -2.7853 0.9710
6.4630 -1.9262 -2.7601 0.9713
6.5125 -0.7286 -2.6820 0.9721
6.5515 -0.1460 -2.6820 0.9721
6.5385 0.4377 -2.6820 0.9721
5.9312 3.3369 -2.7853 0.9710
5.2456 4.3356 -2.7853 0.9710
4.8389 4.7853 -2.7853 0.9710
4.3938 5.1970 -2.7853 0.9710
3.9138 5.5674 -2.7853 0.9710
3.4027 5.8937 -2.7853 0.9710
2.8646 6.1732 -2.7853 0.9710
0.5302 6.7848 -2.7853 0.9710
-1.8017 6.3010 -2.6822 0.9721
-3.8874 5.2761 -2.6822 0.9721
-4.7613 4.5032 -2.6822 0.9721
-5.1432 4.0616 -2.6822 0.9721
-5.4843 3.5877 -2.6822 0.9721
-5.5078 2.9390 -2.5551 0.9734
-1.6146 -0.3658 -0.6776 0.9929
-1.5889 -0.5124 -0.6833 0.9928
-5.5962 -2.9862 -2.5961 0.9730
-5.1432 -4.0616 -2.6822 0.9721
-4.7613 -4.5032 -2.6822 0.9721
-3.8874 -5.2761 -2.6822 0.9721
-2.8904 -5.8817 -2.6822 0.9721
-2.3554 -6.1156 -2.6822 0.9721
-1.8017 -6.3010 -2.6822 0.9721
1.1319 -6.7106 -2.7853 0.9710
2.3038 -6.4036 -2.7853 0.9710
3.4027 -5.8937 -2.7853 0.9710
5.6107 -3.8515 -2.7853 0.9710
5.9312 -3.3369 -2.7853 0.9710
6.4289 -2.2323 -2.7853 0.9710
6.4642 -1.6168 -2.7271 0.9716
6.4756 -1.0182 -2.6829 0.9721
6.5515 0.1460 -2.6820 0.9721
6.4630 1.9262 -2.7601 0.9713
6.0740 3.0693 -2.7853 0.9710
5.7767 3.5978 -2.7853 0.9710
4.1579 5.3876 -2.7853 0.9710
3.6619 5.7363 -2.7853 0.9710
3.1368 6.0394 -2.7853 0.9710
2.5868 6.2946 -2.7853 0.9710
2.0163 6.4999 -2.7853 0.9710
1.4298 6.6536 -2.7853 0.9710
0.8319 6.7544 -2.7853 0.9710
-0.9822 6.7342 -2.7853 0.9710
-2.0806 6.2145 -2.6822 0.9721
-2.6255 6.0047 -2.6822 0.9721
-3.1495 5.7471 -2.6822 0.9721
-4.5560 4.7109 -2.6822 0.9721
-9.1985 3.4255 -4.0173 0.9585
-1.6390 0.1465 -0.6735 0.9929
-4.9951 -3.5953 -2.6822 0.9735
-4.6553 -4.0256 -2.6822 0.9735
-3.8678 -4.7872 -2.6822 0.9735
-2.9577 -5.3971 -2.6822 0.9735
-2.4656 -5.6390 -2.6822 0.9735
-1.4816 -6.2169 -2.7853 0.9725
-0.9223 -6.3241 -2.7853 0.9725
-0.3558 -6.3811 -2.7853 0.9725
0.7812 -6.3431 -2.7853 0.9725
2.4293 -5.9113 -2.7853 0.9725
2.9458 -5.6716 -2.7853 0.9725
3.4389 -5.3869 -2.7853 0.9725
4.3395 -4.6918 -2.7853 0.9725
5.1026 -3.8481 -2.7853 0.9725
5.4249 -3.3787 -2.7853 0.9725
5.7041 -2.8824 -2.7853 0.9725
6.3514 -0.7105 -2.7853 0.9725
6.3134 0.9927 -2.7853 0.9725
6.2000 1.5507 -2.7853 0.9725
5.8268 2.6254 -2.7853 0.9725
5.5700 3.1336 -2.7853 0.9725
5.2690 3.6170 -2.7853 0.9725
3.6754 5.2284 -2.7853 0.9725
2.6902 5.7972 -2.7853 0.9725
2.1635 6.0136 -2.7853 0.9725
1.6197 6.1823 -2.7853 0.9725
1.0630 6.3020 -2.7853 0.9725
-0.0712 6.3906 -2.7853 0.9725
-0.6397 6.3589 -2.7853 0.9725
-1.2031 6.2767 -2.7853 0.9725
-1.6920 5.9173 -2.6822 0.9735
-2.2119 5.7432 -2.6822 0.9735
-2.7143 5.5236 -2.6822 0.9735
-3.1952 5.2600 -2.6822 0.9735
-4.0772 4.6102 -2.6822 0.9735
-4.8300 3.8142 -2.6822 0.9735
-5.1503 3.3692 -2.6822 0.9735
-5.4298 2.8974 -2.6822 0.9735
-1.4861 0.4792 -0.6805 0.9932
-1.5029 0.3405 -0.6716 0.9933
-1.5133 -0.2035 -0.6654 0.9934
-1.5029 -0.3405 -0.6716 0.9933
-4.8300 -3.8142 -2.6822 0.9735
-4.4713 -4.2290 -2.6822 0.9735
-3.1952 -5.2600 -2.6822 0.9735
-2.7144 -5.5236 -2.6822 0.9735
-2.2120 -5.7432 -2.6822 0.9735
-1.6920 -5.9173 -2.6822 0.9735
-1.2031 -6.2767 -2.7853 0.9725
-0.6397 -6.3589 -2.7853 0.9725
-0.0712 -6.3906 -2.7853 0.9725
0.4979 -6.3716 -2.7853 0.9725
1.6197 -6.1824 -2.7853 0.9725
2.1635 -6.0137 -2.7853 0.9725
3.6754 -5.2284 -2.7853 0.9725
4.1262 -4.8805 -2.7853 0.9725
4.9262 -4.0716 -2.7853 0.9725
5.2690 -3.6170 -2.7853 0.9725
5.8268 -2.6254 -2.7853 0.9725
6.2000 -1.5507 -2.7853 0.9725
6.3767 -0.4269 -2.7853 0.9725
6.3894 0.1424 -2.7853 0.9725
6.3514 0.7105 -2.7853 0.9725
6.2629 1.2730 -2.7853 0.9725
6.1248 1.8254 -2.7853 0.9725
5.7041 2.8824 -2.7853 0.9725
5.4249 3.3787 -2.7853 0.9725
5.1026 3.8481 -2.7853 0.9725
4.7399 4.2870 -2.7853 0.9725
4.3395 4.6918 -2.7853 0.9725
3.9047 5.0595 -2.7853 0.9725
3.4389 5.3869 -2.7853 0.9725
2.9458 5.6716 -2.7853 0.9725
2.4293 5.9113 -2.7853 0.9725
0.7812 6.3431 -2.7853 0.9725
-0.3558 6.3811 -2.7853 0.9725
-2.4656 5.6390 -2.6822 0.9735
-2.9577 5.3971 -2.6822 0.9735
-3.4263 5.1125 -2.6822 0.9735
-4.2785 4.4240 -2.6822 0.9735
-4.6553 4.0256 -2.6822 0.9735
-4.9951 3.5953 -2.6822 0.9735
-5.2953 3.1364 -2.6822 0.9735
-5.5534 2.6526 -2.6822 0.9735
-1.5001 0.4109 -0.6779 0.9932
-1.5015 0.2705 -0.6649 0.9934
-1.5215 0.1360 -0.6657 0.9934
-1.4219 0.0000 -0.6582 0.9938
-1.3993 -0.2521 -0.6581 0.9938
-1.3946 -0.3820 -0.6693 0.9936
-5.4302 -2.0222 -2.6822 0.9748
-4.9856 -2.9530 -2.6822 0.9748
-4.7030 -3.3850 -2.6822 0.9748
-4.3831 -3.7902 -2.6822 0.9748
-4.0283 -4.1653 -2.6822 0.9748
-3.6416 -4.5073 -2.6822 0.9748
-2.7848 -5.0815 -2.6822 0.9748
-2.3214 -5.3092 -2.6822 0.9748
0.2011 -6.0139 -2.7853 0.9738
1.2642 -5.8830 -2.7853 0.9738
1.7828 -5.7471 -2.7853 0.9738
2.2872 -5.5656 -2.7853 0.9738
3.2378 -5.0719 -2.7853 0.9738
5.1077 -3.1811 -2.7853 0.9738
5.8967 -1.1986 -2.7853 0.9738
5.9800 -0.6690 -2.7853 0.9738
6.0158 -0.1341 -2.7853 0.9738
6.0038 0.4019 -2.7853 0.9738
5.9442 0.9347 -2.7853 0.9738
5.8374 1.4600 -2.7853 0.9738
5.6843 1.9738 -2.7853 0.9738
5.4861 2.4719 -2.7853 0.9738
5.2443 2.9504 -2.7853 0.9738
4.6381 3.8335 -2.7853 0.9738
3.8849 4.5951 -2.7853 0.9738
2.5329 5.4582 -2.7853 0.9738
1.5250 5.8208 -2.7853 0.9738
0.4688 5.9990 -2.7853 0.9738
-0.0670 6.0169 -2.7853 0.9738
-0.6023 5.9870 -2.7853 0.9738
-1.5941 5.5749 -2.6840 0.9748
-2.5556 5.2005 -2.6822 0.9748
-3.0084 4.9524 -2.6822 0.9748
-3.4372 4.6650 -2.6822 0.9748
-3.8388 4.3406 -2.6822 0.9748
-4.5476 3.5912 -2.6822 0.9748
-4.8491 3.1722 -2.6822 0.9748
-1.3890 0.4479 -0.6755 0.9936
-1.3967 0.3165 -0.6629 0.9937
-1.4212 -0.0634 -0.6585 0.9937
-5.1122 -2.7280 -2.6822 0.9748
-4.8491 -3.1722 -2.6822 0.9748
-4.2099 -3.9817 -2.6822 0.9748
-3.8388 -4.3406 -2.6822 0.9748
-3.4372 -4.6650 -2.6822 0.9748
-3.0084 -4.9524 -2.6822 0.9748
-2.0826 -5.4074 -2.6822 0.9748
-1.1328 -5.9097 -2.7853 0.9738
1.0008 -5.9334 -2.7853 0.9738
1.5250 -5.8208 -2.7853 0.9738
2.5329 -5.4582 -2.7853 0.9738
3.4605 -4.9226 -2.7853 0.9738
3.8849 -4.5951 -2.7853 0.9738
4.6381 -3.8335 -2.7853 0.9738
5.2443 -2.9504 -2.7853 0.9738
5.8374 -1.4600 -2.7853 0.9738
5.9442 -0.9347 -2.7853 0.9738
6.0158 0.1341 -2.7853 0.9738
5.9800 0.6690 -2.7853 0.9738
5.5908 2.2251 -2.7853 0.9738
5.3705 2.7138 -2.7853 0.9738
4.8043 3.6231 -2.7853 0.9738
3.6764 4.7636 -2.7853 0.9738
1.7828 5.7471 -2.7853 0.9738
0.7355 5.9721 -2.7853 0.9738
0.2011 6.0139 -2.7853 0.9738
-1.3949 5.8534 -2.7853 0.9738
-1.8397 5.4948 -2.6822 0.9748
-2.3214 5.3092 -2.6822 0.9748
-3.2260 4.8135 -2.6822 0.9748
-4.0283 4.1653 -2.6822 0.9748
-4.3831 3.7902 -2.6822 0.9748
-4.9856 2.9530 -2.6822 0.9748
-5.4302 2.0222 -2.6822 0.9748
-1.3993 0.2521 -0.6581 0.9938
-1.3159 -0.2371 -0.6559 0.9941
-1.2931 -0.4815 -0.6768 0.9939
-4.9341 -2.3568 -2.6822 0.9759
-4.4380 -3.1943 -2.6822 0.9759
-4.1361 -3.5766 -2.6822 0.9759
-3.8014 -3.9306 -2.6822 0.9759
-3.4364 -4.2533 -2.6822 0.9759
-2.6278 -4.7952 -2.6822 0.9759
-2.1906 -5.0101 -2.6822 0.9759
-1.3163 -5.5235 -2.7853 0.9750
-0.8195 -5.6188 -2.7853 0.9750
-0.3161 -5.6694 -2.7853 0.9750
0.1897 -5.6750 -2.7853 0.9750
0.6941 -5.6356 -2.7853 0.9750
1.1929 -5.5515 -2.7853 0.9750
2.1583 -5.2520 -2.7853 0.9750
2.6172 -5.0391 -2.7853 0.9750
3.8555 -4.1686 -2.7853 0.9750
4.5336 -3.4189 -2.7853 0.9750
4.8199 -3.0019 -2.7853 0.9750
5.0679 -2.5609 -2.7853 0.9750
5.5644 -1.1310 -2.7853 0.9750
5.6430 -0.6313 -2.7853 0.9750
5.6655 0.3793 -2.7853 0.9750
5.6093 0.8820 -2.7853 0.9750
5.5085 1.3778 -2.7853 0.9750
4.6814 3.2136 -2.7853 0.9750
4.3768 3.6175 -2.7853 0.9750
4.0374 3.9927 -2.7853 0.9750
2.8391 4.9175 -2.7853 0.9750
1.9222 5.3429 -2.7853 0.9750
0.9445 5.5991 -2.7853 0.9750
-0.0633 5.6779 -2.7853 0.9750
-1.5611 5.4594 -2.7853 0.9750
-1.9653 5.1027 -2.6822 0.9759
-2.8389 4.6734 -2.6822 0.9759
-3.2435 4.4022 -2.6822 0.9759
-3.9727 3.7573 -2.6822 0.9759
-4.2913 3.3888 -2.6822 0.9759
-4.5759 2.9934 -2.6822 0.9759
-4.8242 2.5743 -2.6822 0.9759
-1.3003 0.4193 -0.6702 0.9939
-1.3089 0.2966 -0.6583 0.9940
-1.3251 0.1782 -0.6559 0.9941
-1.3355 0.0596 -0.6558 0.9941
-1.3251 -0.1782 -0.6559 0.9941
-1.3003 -0.4193 -0.6702 0.9939
-5.0342 -2.1347 -2.6822 0.9759
-4.8242 -2.5743 -2.6822 0.9759
-4.5759 -2.9934 -2.6822 0.9759
-4.2913 -3.3888 -2.6822 0.9759
-3.9727 -3.7573 -2.6822 0.9759
-3.6225 -4.0960 -2.6822 0.9759
-3.2435 -4.4022 -2.6822 0.9759
-2.8389 -4.6734 -2.6822 0.9759
-2.4116 -4.9075 -2.6822 0.9759
-1.9653 -5.1027 -2.6822 0.9759
-1.5611 -5.4594 -2.7853 0.9750
-1.0690 -5.5767 -2.7853 0.9750
0.4424 -5.6610 -2.7853 0.9750
1.9222 -5.3429 -2.7853 0.9750
2.8391 -4.9175 -2.7853 0.9750
3.6660 -4.3362 -2.7853 0.9750
4.0374 -3.9927 -2.7853 0.9750
4.3768 -3.6175 -2.7853 0.9750
4.6814 -3.2136 -2.7853 0.9750
5.1770 -2.3326 -2.7853 0.9750
5.3640 -1.8626 -2.7853 0.9750
5.6093 -0.8820 -2.7853 0.9750
5.6430 0.6312 -2.7853 0.9750
5.2757 2.0997 -2.7853 0.9750
2.1583 5.2520 -2.7853 0.9750
1.6823 5.4233 -2.7853 0.9750
0.6941 5.6356 -2.7853 0.9750
-0.8195 5.6188 -2.7853 0.9750
-1.7360 5.1852 -2.6822 0.9759
-2.6278 4.7952 -2.6822 0.9759
-3.4364 4.2533 -2.6822 0.9759
-3.8014 3.9306 -2.6822 0.9759
-4.7047 2.7866 -2.6822 0.9759
-4.9341 2.3568 -2.6822 0.9759
-1.2931 0.4815 -0.6768 0.9939
-1.3159 0.2371 -0.6559 0.9941
-1.2624 0.0000 -0.6549 0.9943
-1.2576 -0.1124 -0.6550 0.9943
-1.2426 -0.2239 -0.6550 0.9943
-1.2283 -0.3365 -0.6607 0.9943
-4.6653 -2.2284 -2.6822 0.9770
-4.4485 -2.6348 -2.6822 0.9770
-3.9108 -3.3818 -2.6822 0.9770
-3.2493 -4.0216 -2.6822 0.9770
-2.4847 -4.5340 -2.6822 0.9770
-2.0713 -4.7372 -2.6822 0.9770
-1.2446 -5.2227 -2.7853 0.9761
-0.2989 -5.3606 -2.7853 0.9761
0.1794 -5.3659 -2.7853 0.9761
1.5907 -5.1279 -2.7853 0.9761
2.8889 -4.5254 -2.7853 0.9761
3.9819 -3.6014 -2.7853 0.9761
4.5573 -2.8383 -2.7853 0.9761
4.7919 -2.4215 -2.7853 0.9761
4.9884 -1.9853 -2.7853 0.9761
5.2614 -1.0694 -2.7853 0.9761
5.3357 -0.5969 -2.7853 0.9761
5.3676 -0.1196 -2.7853 0.9761
5.2085 1.3027 -2.7853 0.9761
4.6793 2.6325 -2.7853 0.9761
4.1384 3.4204 -2.7853 0.9761
3.8175 3.7752 -2.7853 0.9761
3.0877 4.3922 -2.7853 0.9761
2.6845 4.6496 -2.7853 0.9761
1.8175 5.0520 -2.7853 0.9761
0.8930 5.2941 -2.7853 0.9761
-0.5374 5.3420 -2.7853 0.9761
-1.0107 5.2730 -2.7853 0.9761
-1.4760 5.1621 -2.7853 0.9761
-1.8582 4.8248 -2.6822 0.9770
-2.2803 4.6402 -2.6822 0.9770
-3.4252 3.8729 -2.6822 0.9770
-3.7563 3.5527 -2.6822 0.9770
-4.0576 3.2043 -2.6822 0.9770
-4.3267 2.8304 -2.6822 0.9770
-4.7600 2.0184 -2.6822 0.9770
-1.2222 0.3941 -0.6662 0.9942
-1.2316 0.2790 -0.6551 0.9943
-1.2514 0.1683 -0.6551 0.9943
-1.2514 -0.1683 -0.6551 0.9943
-1.2316 -0.2790 -0.6551 0.9943
-1.2222 -0.3941 -0.6662 0.9942
-4.7600 -2.0184 -2.6822 0.9770
-4.3267 -2.8304 -2.6822 0.9770
-3.4252 -3.8729 -2.6822 0.9770
-3.0669 -4.1624 -2.6822 0.9770
-2.6842 -4.4188 -2.6822 0.9770
-2.2803 -4.6402 -2.6822 0.9770
-1.4761 -5.1621 -2.7853 0.9761
-1.0107 -5.2729 -2.7853 0.9761
-0.5374 -5.3420 -2.7853 0.9761
0.4183 -5.3526 -2.7853 0.9761
1.3607 -5.1937 -2.7853 0.9761
1.8175 -5.0520 -2.7853 0.9761
2.2600 -4.8701 -2.7853 0.9761
2.6845 -4.6497 -2.7853 0.9761
3.4663 -4.1000 -2.7853 0.9761
3.8175 -3.7752 -2.7853 0.9761
4.1384 -3.4204 -2.7853 0.9761
4.4264 -3.0386 -2.7853 0.9761
5.2085 -1.3027 -2.7853 0.9761
5.3570 -0.3586 -2.7853 0.9761
5.3357 0.5969 -2.7853 0.9761
5.1453 1.5335 -2.7853 0.9761
4.7919 2.4214 -2.7853 0.9761
4.5573 2.8384 -2.7853 0.9761
4.2866 3.2327 -2.7853 0.9761
3.9819 3.6014 -2.7853 0.9761
3.6455 3.9415 -2.7853 0.9761
2.8889 4.5254 -2.7853 0.9761
2.0408 4.9660 -2.7853 0.9761
1.5907 5.1279 -2.7853 0.9761
0.6563 5.3287 -2.7853 0.9761
0.1794 5.3659 -2.7853 0.9761
-1.2446 5.2227 -2.7853 0.9761
-3.9108 3.3818 -2.6822 0.9770
-4.1963 3.0203 -2.6822 0.9770
-1.2162 0.4529 -0.6733 0.9942
-1.2283 0.3365 -0.6607 0.9943
-1.2426 0.2239 -0.6550 0.9943
-1.1944 0.0000 -0.6542 0.9946
-1.1899 -0.1063 -0.6543 0.9946
-1.1756 -0.2118 -0.6543 0.9946
-1.1577 -0.3171 -0.6575 0.9945
-1.1464 -0.4269 -0.6700 0.9944
-4.4190 -2.1108 -2.6822 0.9779
-3.9747 -2.8608 -2.6822 0.9779
-3.7043 -3.2032 -2.6822 0.9779
-3.0777 -3.8093 -2.6822 0.9779
-2.0580 -3.0708 -2.0247 0.9833
-2.3535 -4.2946 -2.6822 0.9779
-1.5832 -4.7287 -2.7312 0.9775
-1.1789 -4.9469 -2.7853 0.9771
-0.2831 -5.0775 -2.7853 0.9771
0.1699 -5.0826 -2.7853 0.9771
0.6216 -5.0473 -2.7853 0.9771
1.9330 -4.7037 -2.7853 0.9771
2.3440 -4.5130 -2.7853 0.9771
4.0603 -3.0620 -2.7853 0.9771
4.3167 -2.6885 -2.7853 0.9771
4.7250 -1.8805 -2.7853 0.9771
4.8736 -1.4525 -2.7853 0.9771
4.9835 -1.0129 -2.7853 0.9771
5.0539 -0.5654 -2.7853 0.9771
5.0842 -0.1133 -2.7853 0.9771
5.0741 0.3397 -2.7853 0.9771
5.0237 0.7899 -2.7853 0.9771
4.8040 1.6681 -2.7853 0.9771
4.6365 2.0891 -2.7853 0.9771
3.6159 3.5758 -2.7853 0.9771
2.1406 4.6129 -2.7853 0.9771
1.7216 4.7852 -2.7853 0.9771
1.2888 4.9194 -2.7853 0.9771
0.8459 5.0146 -2.7853 0.9771
0.3962 5.0700 -2.7853 0.9771
-0.0567 5.0851 -2.7853 0.9771
-0.5090 5.0599 -2.7853 0.9771
-1.7717 4.6000 -2.6999 0.9778
-2.5425 4.1855 -2.6822 0.9779
-2.1838 2.9639 -2.0164 0.9833
-3.8433 3.0350 -2.6822 0.9779
-4.3205 2.3055 -2.6822 0.9779
-1.1411 0.4838 -0.6788 0.9944
-1.1515 0.3713 -0.6626 0.9945
-1.1649 0.2639 -0.6542 0.9946
-1.1840 -0.1592 -0.6543 0.9946
-1.1649 -0.2639 -0.6542 0.9946
-1.1515 -0.3713 -0.6626 0.9945
-1.1411 -0.4838 -0.6788 0.9944
-3.8433 -3.0350 -2.6822 0.9779
-3.2443 -3.6684 -2.6822 0.9779
-0.5090 -5.0599 -2.7853 0.9771
0.3962 -5.0700 -2.7853 0.9771
2.1406 -4.6129 -2.7853 0.9771
2.5427 -4.4041 -2.7853 0.9771
2.9246 -4.1603 -2.7853 0.9771
3.2833 -3.8835 -2.7853 0.9771
3.6159 -3.5758 -2.7853 0.9771
4.4322 -2.4935 -2.7853 0.9771
4.9334 -1.2339 -2.7853 0.9771
5.0741 -0.3397 -2.7853 0.9771
5.0539 0.5654 -2.7853 0.9771
4.8736 1.4525 -2.7853 0.9771
4.7250 1.8805 -2.7853 0.9771
4.3167 2.6885 -2.7853 0.9771
4.0603 3.0620 -2.7853 0.9771
3.4530 3.7334 -2.7853 0.9771
2.7364 4.2865 -2.7853 0.9771
1.0684 4.9719 -2.7853 0.9771
0.6216 5.0473 -2.7853 0.9771
-0.2831 5.0775 -2.7853 0.9771
-0.7339 5.0322 -2.7853 0.9771
-1.5832 4.7287 -2.7312 0.9775
-1.9619 4.4870 -2.6822 0.9779
-2.3535 4.2946 -2.6822 0.9779
-2.0441 3.0500 -2.0110 0.9834
-3.0777 3.8093 -2.6822 0.9779
-4.2135 2.4957 -2.6822 0.9779
-1.1756 0.2118 -0.6543 0.9946
-1.1899 0.1063 -0.6543 0.9946
-1.1319 0.0000 -0.6535 0.9948
-1.1276 -0.1008 -0.6536 0.9948
-1.1141 -0.2007 -0.6536 0.9948
-1.0827 -0.4032 -0.6671 0.9947
-4.1920 -2.0024 -2.6822 0.9788
-2.9196 -3.6137 -2.6822 0.9788
-2.0470 -3.0543 -2.1228 0.9832
-1.1184 -4.6929 -2.7853 0.9780
0.1612 -4.8216 -2.7853 0.9780
1.8338 -4.4622 -2.7853 0.9780
2.5959 -4.0663 -2.7853 0.9780
3.2757 -3.5417 -2.7853 0.9780
3.5779 -3.2361 -2.7853 0.9780
4.6233 -1.3779 -2.7853 0.9780
4.7944 -0.5363 -2.7853 0.9780
4.8231 -0.1075 -2.7853 0.9780
4.8135 0.3222 -2.7853 0.9780
4.7657 0.7494 -2.7853 0.9780
4.5573 1.5825 -2.7853 0.9780
4.3984 1.9818 -2.7853 0.9780
3.9773 2.7303 -2.7853 0.9780
3.7185 3.0735 -2.7853 0.9780
3.4302 3.3922 -2.7853 0.9780
2.7744 3.9467 -2.7853 0.9780
2.0307 4.3761 -2.7853 0.9780
1.6332 4.5394 -2.7853 0.9780
1.2226 4.6668 -2.7853 0.9780
0.8024 4.7571 -2.7853 0.9780
-0.4829 4.8001 -2.7853 0.9780
-0.9082 4.7380 -2.7853 0.9780
-1.3263 4.6384 -2.7853 0.9780
-1.6697 4.3353 -2.6822 0.9788
-2.1805 2.9594 -2.1223 0.9832
-3.0777 3.4800 -2.6822 0.9788
-3.3752 3.1923 -2.6822 0.9788
-3.8878 2.5432 -2.6822 0.9788
-1.0870 0.3505 -0.6594 0.9947
-1.1039 0.2501 -0.6535 0.9948
-1.1220 0.1509 -0.6536 0.9948
-1.1309 -0.0504 -0.6536 0.9948
-1.1220 -0.1509 -0.6536 0.9948
-1.1039 -0.2501 -0.6535 0.9948
-3.8878 -2.5432 -2.6822 0.9788
-3.6460 -2.8792 -2.6822 0.9788
-3.3752 -3.1923 -2.6822 0.9788
-3.0777 -3.4800 -2.6822 0.9788
-2.7558 -3.7401 -2.6822 0.9788
-2.4119 -3.9706 -2.6822 0.9788
-2.0489 -4.1695 -2.6822 0.9788
-1.6697 -4.3353 -2.6822 0.9788
0.8024 -4.7571 -2.7853 0.9780
1.2226 -4.6668 -2.7853 0.9780
1.6332 -4.5394 -2.7853 0.9780
2.0307 -4.3761 -2.7853 0.9780
2.4121 -4.1780 -2.7853 0.9780
2.7744 -3.9467 -2.7853 0.9780
3.1147 -3.6841 -2.7853 0.9780
3.7185 -3.0735 -2.7853 0.9780
3.9773 -2.7303 -2.7853 0.9780
4.2046 -2.3654 -2.7853 0.9780
4.5573 -1.5825 -2.7853 0.9780
4.6801 -1.1706 -2.7853 0.9780
4.7657 -0.7494 -2.7853 0.9780
4.8135 -0.3222 -2.7853 0.9780
4.7944 0.5363 -2.7853 0.9780
4.7276 0.9609 -2.7853 0.9780
4.6233 1.3779 -2.7853 0.9780
4.0950 2.5504 -2.7853 0.9780
3.8518 2.9048 -2.7853 0.9780
3.2757 3.5417 -2.7853 0.9780
2.9475 3.8191 -2.7853 0.9780
2.5959 4.0663 -2.7853 0.9780
2.2236 4.2812 -2.7853 0.9780
1.8338 4.4622 -2.7853 0.9780
1.4293 4.6077 -2.7853 0.9780
1.0135 4.7166 -2.7853 0.9780
0.5897 4.7881 -2.7853 0.9780
-0.6962 4.7738 -2.7853 0.9780
-2.0397 3.0434 -2.1152 0.9832
-2.9196 3.6137 -2.6822 0.9788
-3.2297 3.3395 -2.6822 0.9788
-3.7706 2.7139 -2.6822 0.9788
-4.1920 2.0024 -2.6822 0.9788
-1.0827 0.4032 -0.6671 0.9947
-1.1141 0.2007 -0.6536 0.9948
