ply
format ascii 1.0
element vertex 1396
property float32 x
property float32 y
property float32 z
property float32 I
end_header
7.0664 -15.2277 2.9601 0.9341
7.0660 -15.2269 2.5716 0.9343
7.0656 -15.2261 2.1858 0.9345
12.0285 15.5858 2.5637 0.9237
7.0653 -15.2253 1.8024 0.9347
12.0285 15.5858 2.1141 0.9239
11.4502 16.2882 1.6854 0.9232
7.0649 -15.2245 1.4208 0.9348
11.9964 15.5442 1.6622 0.9242
11.4575 16.2986 0.7856 0.9233
17.9263 0.3995 0.7070 0.9307
11.4575 16.2986 0.3365 0.9234
-18.7717 6.0531 0.3332 0.9241
17.6476 -1.1814 0.2988 0.9317
12.0353 15.5945 0.3327 0.9242
-18.6284 6.9373 0.3358 0.9236
18.1395 1.2143 -0.1024 0.9299
11.4575 16.2986 -0.1122 0.9234
-18.5779 5.9906 -0.1099 0.9249
7.0622 -15.2186 -0.0945 0.9351
17.6476 -1.1814 -0.0996 0.9317
17.9263 0.3995 -0.1010 0.9308
12.0353 15.5945 -0.1109 0.9242
17.7860 -0.3964 -0.5009 0.9313
11.4575 16.2986 -0.5610 0.9234
-18.2249 6.7870 -0.5476 0.9251
11.4575 16.2986 -1.0104 0.9233
17.9263 0.3995 -0.9093 0.9307
-18.0287 6.7139 -0.9757 0.9258
11.4575 16.2986 -1.4608 0.9232
-9.2974 15.3056 -1.3131 0.9307
-12.6009 11.9178 -1.2717 0.9328
-17.9749 5.7961 -1.3848 0.9270
17.6476 -1.1814 -1.2969 0.9315
17.9263 0.3995 -1.3147 0.9306
12.0353 15.5945 -1.4443 0.9240
-9.6992 14.4722 -1.2774 0.9325
-10.9767 13.5860 -1.2807 0.9323
-12.1062 12.5177 -1.2769 0.9325
-16.0417 9.5015 -1.3671 0.9279
-17.8024 6.6296 -1.3929 0.9266
-5.6236 -16.7968 -1.7006 0.9313
10.4675 -13.5632 -1.6448 0.9335
10.5261 -7.9381 -1.2657 0.9484
17.7860 -0.3963 -1.7080 0.9310
-8.9186 14.6821 -1.6492 0.9333
-9.7271 13.2017 -1.5743 0.9362
-10.9105 12.3366 -1.5811 0.9360
-11.9174 11.2714 -1.5748 0.9362
-16.7947 8.9619 -1.8276 0.9264
-5.8345 -15.1490 -1.5585 0.9368
10.4649 -14.8866 -1.7470 0.9295
10.5246 -8.6988 -1.3109 0.9466
12.0353 15.5945 -1.8912 0.9239
-8.7816 16.0243 -1.7543 0.9292
-9.0506 13.5044 -1.5607 0.9368
-11.1031 11.4805 -1.5333 0.9378
-17.5998 8.4066 -1.8725 0.9246
-5.6582 -10.3248 -1.3985 0.9537
-5.6157 -12.8436 -1.6651 0.9451
-5.6236 -16.7968 -2.1041 0.9311
10.4619 -16.3884 -2.3096 0.9247
10.4675 -13.5632 -2.0351 0.9333
10.4720 -11.3222 -1.8320 0.9398
10.5256 -7.9377 -1.5660 0.9483
17.7860 -0.3963 -2.1133 0.9308
-16.0597 8.5697 -2.1623 0.9293
-17.7689 7.5346 -2.2926 0.9252
-17.6045 5.6767 -2.1972 0.9282
-5.6192 -14.5899 -1.8572 0.9390
7.0204 -15.1286 -1.9811 0.9350
10.4649 -14.8865 -2.1615 0.9293
10.4699 -12.3838 -1.9263 0.9368
10.4739 -10.3579 -1.7498 0.9424
10.4930 -8.6727 -1.6171 0.9466
10.5366 -2.6354 -1.2902 0.9572
17.9292 0.3996 -2.1303 0.9303
12.0353 15.5945 -2.3399 0.9237
-14.7289 8.7239 -2.0335 0.9334
-5.6157 -12.8435 -1.9861 0.9449
-2.4422 -16.7448 -2.3977 0.9339
-0.9826 -17.6221 -2.5007 0.9312
0.5898 -17.6396 -2.5007 0.9312
2.1574 -17.5172 -2.5007 0.9312
5.2291 -16.8571 -2.5007 0.9312
10.3381 -13.3954 -2.3975 0.9339
10.4720 -11.3222 -2.1852 0.9396
10.4757 -9.4747 -2.0013 0.9445
10.4815 -6.5280 -1.7496 0.9513
10.4840 -5.2978 -1.6644 0.9537
10.6686 -4.2460 -1.6269 0.9547
10.5356 -3.1400 -1.5577 0.9566
16.9794 -1.8995 -2.4208 0.9333
17.0811 -0.3806 -2.4208 0.9333
16.8779 2.6539 -2.4208 0.9333
16.5747 4.1456 -2.4208 0.9333
16.1400 5.6044 -2.4208 0.9333
15.5771 7.0187 -2.4208 0.9333
14.8906 8.3773 -2.4208 0.9333
13.1693 10.8847 -2.4208 0.9333
11.0308 13.0472 -2.4208 0.9333
9.7311 13.8427 -2.3975 0.9339
8.4604 14.6539 -2.3975 0.9339
7.1226 15.3487 -2.3975 0.9339
-1.6938 16.8370 -2.3977 0.9339
-3.1857 16.6194 -2.3977 0.9339
-4.6522 16.2699 -2.3977 0.9339
-7.8879 16.0513 -2.5341 0.9303
-8.2405 13.5657 -2.2490 0.9379
-9.1046 12.3569 -2.1748 0.9399
-10.1033 11.4239 -2.1609 0.9402
-11.1433 10.5393 -2.1732 0.9399
-17.4531 5.6279 -2.5983 0.9286
-4.6522 -16.2699 -2.3977 0.9339
-3.1857 -16.6194 -2.3977 0.9339
1.3750 -17.5959 -2.5007 0.9312
7.1226 -15.3487 -2.3975 0.9339
8.4604 -14.6538 -2.3975 0.9339
10.4699 -12.3838 -2.2977 0.9366
10.4739 -10.3579 -2.0872 0.9422
10.4773 -8.6597 -1.9260 0.9466
10.4828 -5.8975 -1.7042 0.9526
10.5262 -3.6551 -1.5788 0.9560
17.0472 -1.1412 -2.4208 0.9333
17.0811 0.3806 -2.4208 0.9333
16.9794 1.8994 -2.4208 0.9333
16.3736 4.8798 -2.4208 0.9333
15.8743 6.3178 -2.4208 0.9333
14.5026 9.0323 -2.4208 0.9333
12.6714 11.4605 -2.4208 0.9333
10.3381 13.3954 -2.3975 0.9339
7.7992 15.0162 -2.3975 0.9339
6.4719 15.7486 -2.4125 0.9335
5.2291 16.8571 -2.5007 0.9312
2.1575 17.5171 -2.5007 0.9312
-2.4422 16.7448 -2.3977 0.9339
-3.9228 16.4610 -2.3977 0.9339
-5.3724 16.0465 -2.3977 0.9339
-5.5219 12.6291 -1.9530 0.9458
-8.0677 14.7216 -2.3786 0.9344
-8.4590 12.6216 -2.1528 0.9405
-9.8321 12.1694 -2.2167 0.9388
-10.4078 10.7616 -2.1213 0.9413
-12.0050 10.3811 -2.2488 0.9379
-13.0913 9.4226 -2.2854 0.9369
-14.1911 8.4054 -2.3370 0.9355
-17.2429 6.4213 -2.6071 0.9284
-5.8650 -5.0716 -1.2773 0.9691
-5.6069 -8.3660 -1.6591 0.9600
-5.6106 -10.2380 -1.9233 0.9538
-4.6207 -13.8013 -2.3977 0.9427
-2.1005 -14.4019 -2.3977 0.9427
-0.8451 -15.1565 -2.5007 0.9403
0.5072 -15.1716 -2.5007 0.9403
3.1892 -14.8412 -2.5007 0.9403
5.7701 -14.0407 -2.5007 0.9403
9.8818 -10.6840 -2.3975 0.9427
10.4757 -9.4747 -2.3269 0.9443
10.4788 -7.9024 -2.1621 0.9482
10.4862 -4.1734 -1.8593 0.9553
10.4883 -3.1259 -1.8029 0.9566
14.6911 -0.3274 -2.4208 0.9422
14.5164 2.2826 -2.4208 0.9422
14.2556 3.5656 -2.4208 0.9422
13.8817 4.8203 -2.4208 0.9422
12.8071 7.2052 -2.4208 0.9422
12.1150 8.3165 -2.4208 0.9422
10.3479 10.2333 -2.3975 0.9427
9.3960 11.1137 -2.3975 0.9427
7.2767 12.6035 -2.3975 0.9427
6.3898 13.7697 -2.5007 0.9403
5.1389 14.2838 -2.5007 0.9403
3.8472 14.6845 -2.5007 0.9403
1.1826 15.1339 -2.5007 0.9403
-0.1691 15.1791 -2.5007 0.9403
-5.2309 13.5818 -2.3977 0.9427
-7.9270 13.0496 -2.5153 0.9400
-10.7979 10.2126 -2.4484 0.9415
-12.2076 9.6402 -2.5625 0.9389
-13.1415 8.5968 -2.5870 0.9383
-17.1075 7.2542 -3.0612 0.9274
-17.3924 5.6083 -3.0105 0.9286
-5.6483 -5.3421 -1.2807 0.9690
-5.9156 -8.0287 -1.6429 0.9604
-5.6086 -9.2330 -1.7797 0.9572
2.5249 -14.9686 -2.5007 0.9403
3.8472 -14.6845 -2.5007 0.9403
6.3898 -13.7697 -2.5007 0.9403
10.4773 -8.6597 -2.2393 0.9464
10.4802 -7.1943 -2.0941 0.9498
10.4828 -5.8975 -1.9815 0.9524
10.4851 -4.7244 -1.8945 0.9544
14.5164 -2.2826 -2.4208 0.9422
14.6911 0.3274 -2.4208 0.9422
14.6037 1.6337 -2.4208 0.9422
14.4003 2.9270 -2.4208 0.9422
14.0827 4.1971 -2.4208 0.9422
10.8984 9.8570 -2.4208 0.9422
8.8916 11.5212 -2.3975 0.9427
6.7080 12.9152 -2.3975 0.9427
5.7701 14.0407 -2.5007 0.9403
1.8556 15.0662 -2.5007 0.9403
0.5072 15.1716 -2.5007 0.9403
-2.1005 14.4019 -2.3977 0.9427
-3.3740 14.1578 -2.3977 0.9427
-4.6207 13.8013 -2.3977 0.9427
-7.3331 16.7712 -3.0154 0.9285
-7.7493 14.1406 -2.6564 0.9367
-9.4889 11.7446 -2.4874 0.9406
-10.0890 10.4320 -2.3908 0.9429
-11.6066 10.0367 -2.5278 0.9397
-12.4893 8.9892 -2.5350 0.9395
-13.7558 8.1476 -2.6338 0.9372
-16.0583 7.6704 -2.9317 0.9304
-17.0050 6.3327 -2.9893 0.9291
-5.8650 -5.0716 -1.4574 0.9689
-5.6069 -8.3660 -1.8930 0.9598
-2.9571 -12.4087 -2.3977 0.9494
-1.8410 -12.6226 -2.3977 0.9494
-0.7407 -13.2840 -2.5007 0.9473
0.4446 -13.2972 -2.5007 0.9473
2.7952 -13.0077 -2.5007 0.9473
3.9418 -12.7073 -2.5007 0.9473
6.1324 -11.8071 -2.5007 0.9473
6.8634 -10.7513 -2.3975 0.9494
8.6609 -9.3641 -2.3975 0.9494
10.1840 -7.6801 -2.3975 0.9494
10.4815 -6.5280 -2.3210 0.9510
10.4840 -5.2978 -2.2079 0.9533
10.4862 -4.1734 -2.1214 0.9551
10.4902 -2.1322 -2.0121 0.9574
12.7995 -1.4319 -2.4208 0.9489
12.8505 0.8602 -2.4208 0.9489
12.7230 2.0006 -2.4208 0.9489
12.4944 3.1251 -2.4208 0.9489
12.1667 4.2247 -2.4208 0.9489
11.7424 5.2909 -2.4208 0.9489
9.8318 8.1262 -2.3975 0.9494
9.0695 8.9690 -2.3975 0.9494
8.2352 9.7406 -2.3975 0.9494
7.3355 10.4349 -2.3975 0.9494
6.4672 11.2015 -2.4311 0.9487
1.0365 13.2642 -2.5007 0.9473
-2.4014 12.5281 -2.3977 0.9494
-3.5070 12.2646 -2.3977 0.9494
-7.6343 12.5678 -2.7640 0.9419
-8.5938 11.6636 -2.7231 0.9427
-5.5005 6.2195 -1.5606 0.9668
-11.6861 9.2284 -2.7988 0.9412
-12.4320 8.1326 -2.7923 0.9413
-14.1832 7.5684 -3.0217 0.9367
-15.3280 6.4996 -3.1294 0.9345
-17.1714 5.5371 -3.3912 0.9292
-5.6483 -5.3421 -1.4613 0.9689
-5.6054 -7.6077 -1.7762 0.9623
-4.5847 -11.9038 -2.3977 0.9494
-2.4014 -12.5281 -2.3977 0.9494
-0.1482 -13.3038 -2.5007 0.9473
1.0365 -13.2642 -2.5007 0.9473
2.2130 -13.1193 -2.5007 0.9473
3.3719 -12.8703 -2.5007 0.9473
5.6004 -12.0685 -2.5007 0.9473
6.4672 -11.2015 -2.4311 0.9487
10.4851 -4.7244 -2.1616 0.9543
10.4893 -2.6236 -2.0323 0.9569
12.7230 -2.0006 -2.4208 0.9489
12.8505 -0.8602 -2.4208 0.9489
12.8761 0.2869 -2.4208 0.9489
11.9664 4.7625 -2.4208 0.9489
10.9324 6.8087 -2.4208 0.9489
9.4600 8.5561 -2.3975 0.9494
7.7931 10.0978 -2.3975 0.9494
6.8634 10.7513 -2.3975 0.9494
2.7952 13.0077 -2.5007 0.9473
-1.8410 12.6226 -2.3977 0.9494
-2.9571 12.4087 -2.3977 0.9494
-5.1104 11.6878 -2.3977 0.9494
-8.9925 11.1301 -2.6895 0.9434
-9.7871 10.1198 -2.6462 0.9443
-11.9362 8.5912 -2.7643 0.9419
-13.2791 7.8652 -2.9009 0.9391
-14.7045 7.0237 -3.0630 0.9358
-15.9610 5.9439 -3.2013 0.9330
-18.9067 5.1791 -3.6847 0.9233
-5.6674 -4.9008 -1.5838 0.9698
-5.6040 -6.9362 -1.8849 0.9642
-5.6069 -8.3660 -2.1288 0.9597
-5.4512 -9.9471 -2.3977 0.9547
-4.5442 -10.3929 -2.3977 0.9547
-3.6011 -10.7561 -2.3977 0.9547
-0.6586 -11.8122 -2.5007 0.9528
2.4855 -11.5666 -2.5007 0.9528
5.4530 -10.4989 -2.5007 0.9528
6.9297 -8.9791 -2.3975 0.9547
7.7014 -8.3266 -2.3975 0.9547
9.6276 -5.9961 -2.3975 0.9547
10.1231 -5.1154 -2.3975 0.9547
10.4902 -2.1322 -2.2628 0.9572
11.3814 -1.2732 -2.4208 0.9543
11.1101 2.7788 -2.4208 0.9543
10.8187 3.7567 -2.4208 0.9543
10.3409 4.6594 -2.3975 0.9547
9.8851 5.5613 -2.3975 0.9547
9.3509 6.4191 -2.3975 0.9547
5.9153 10.2456 -2.5007 0.9528
4.9799 10.7314 -2.5007 0.9528
4.0050 11.1321 -2.5007 0.9528
1.9678 11.6658 -2.5007 0.9528
-0.1318 11.8299 -2.5007 0.9528
-4.0767 10.5850 -2.3977 0.9547
-5.0027 10.1801 -2.3977 0.9547
-7.3603 12.1167 -2.9968 0.9437
-8.0536 10.9304 -2.8699 0.9460
-5.5077 6.2276 -1.7574 0.9666
-10.1606 9.6098 -2.9562 0.9444
-10.9839 8.6739 -2.9584 0.9444
-11.7900 7.7127 -2.9781 0.9440
-12.8603 6.8625 -3.0812 0.9421
-13.7225 5.8189 -3.1507 0.9409
-15.5397 5.0109 -3.4513 0.9354
-5.6077 -5.3037 -1.6315 0.9689
-5.6028 -6.3352 -1.7877 0.9660
-5.6054 -7.6076 -1.9975 0.9621
-4.0767 -10.5850 -2.3977 0.9547
-3.1184 -10.9058 -2.3977 0.9547
-2.1354 -11.1401 -2.3977 0.9547
-0.1318 -11.8299 -2.5007 0.9528
2.9983 -11.4443 -2.5007 0.9528
4.0050 -11.1321 -2.5007 0.9528
8.0646 -7.9753 -2.3975 0.9547
10.3409 -4.6594 -2.3975 0.9547
11.4268 -0.7649 -2.4208 0.9543
11.4496 0.2552 -2.4208 0.9543
11.3814 1.2732 -2.4208 0.9543
11.2229 2.2811 -2.4208 0.9543
10.9753 3.2710 -2.4208 0.9543
10.6406 4.2349 -2.4208 0.9543
10.1231 5.1154 -2.3975 0.9547
9.6276 5.9961 -2.3975 0.9547
9.0557 6.8292 -2.3975 0.9547
6.9297 8.9791 -2.3975 0.9547
6.3658 9.9719 -2.5007 0.9528
3.5051 11.2994 -2.5007 0.9528
0.3953 11.8240 -2.5007 0.9528
-0.6586 11.8122 -2.5007 0.9528
-1.6370 11.2241 -2.3977 0.9547
-4.5442 10.3929 -2.3977 0.9547
-7.7379 11.5457 -2.9379 0.9448
-8.4486 10.4570 -2.8417 0.9465
-11.4260 8.2239 -2.9758 0.9441
-13.2971 6.3515 -3.1149 0.9415
-14.3806 5.3554 -3.2437 0.9392
-5.6017 -5.7922 -1.8938 0.9674
-5.6040 -6.9362 -2.0957 0.9640
-4.0871 -9.3473 -2.3977 0.9589
-2.3650 -9.9239 -2.3977 0.9589
-1.5356 -10.5291 -2.5007 0.9572
-0.5924 -10.6239 -2.5007 0.9572
1.3007 -10.5607 -2.5007 0.9572
3.1525 -10.1627 -2.5007 0.9572
4.0445 -9.8418 -2.5007 0.9572
5.7254 -8.9688 -2.5007 0.9572
8.1447 -6.1422 -2.3975 0.9590
9.1047 -4.6008 -2.3975 0.9590
9.4781 -3.7722 -2.3975 0.9590
10.1986 -0.2273 -2.3975 0.9590
10.0773 1.5846 -2.3975 0.9590
9.8963 2.4752 -2.3975 0.9590
9.6367 3.3462 -2.3975 0.9590
8.8907 5.0018 -2.3975 0.9590
8.4102 5.7733 -2.3975 0.9590
7.2534 7.1730 -2.3975 0.9590
6.5861 7.7901 -2.3975 0.9590
5.3202 9.2149 -2.5007 0.9572
4.4789 9.6519 -2.5007 0.9572
3.6021 10.0122 -2.5007 0.9572
2.6967 10.2930 -2.5007 0.9572
1.7698 10.4922 -2.5007 0.9572
0.8289 10.6081 -2.5007 0.9572
-2.8047 9.8087 -2.3977 0.9589
-4.4994 9.1560 -2.3977 0.9589
-5.2965 8.7192 -2.3977 0.9589
-7.5395 10.2327 -2.9872 0.9491
-8.5240 9.6382 -3.0240 0.9485
-10.1168 7.9892 -3.0297 0.9484
-11.7431 6.2663 -3.1283 0.9468
-5.5990 -4.4215 -1.6767 0.9711
-5.6028 -6.3352 -1.9877 0.9658
-5.2965 -8.7192 -2.3977 0.9589
-4.4994 -9.1560 -2.3977 0.9589
-2.8047 -9.8087 -2.3977 0.9589
-1.9206 -10.0194 -2.3977 0.9589
-0.1185 -10.6398 -2.5007 0.9572
0.8289 -10.6081 -2.5007 0.9572
3.6021 -10.0122 -2.5007 0.9572
4.4789 -9.6519 -2.5007 0.9572
6.5861 -7.7901 -2.3975 0.9590
8.8907 -5.0018 -2.3975 0.9590
9.6367 -3.3462 -2.3975 0.9590
10.0773 -1.5846 -2.3975 0.9590
10.1783 -0.6813 -2.3975 0.9590
10.1986 0.2273 -2.3975 0.9590
9.9967 2.0319 -2.3975 0.9590
9.7762 2.9136 -2.3975 0.9590
9.4781 3.7722 -2.3975 0.9590
9.1047 4.6008 -2.3975 0.9590
8.6591 5.3929 -2.3975 0.9590
6.9266 7.4890 -2.3975 0.9590
6.4630 8.3743 -2.4861 0.9575
4.9044 9.4428 -2.5007 0.9572
4.0445 9.8418 -2.5007 0.9572
-1.5356 10.5291 -2.5007 0.9572
-3.2389 9.6740 -2.3977 0.9589
-4.0871 9.3473 -2.3977 0.9589
-7.1887 10.7262 -3.0347 0.9483
-9.7441 8.4261 -3.0276 0.9484
-5.5009 3.9593 -1.5929 0.9725
-11.3572 6.7269 -3.1023 0.9472
-13.2213 4.9237 -3.3158 0.9437
-15.4052 4.2199 -3.7540 0.9365
-5.9462 -2.2144 -1.6429 0.9741
-5.7256 -2.7349 -1.6429 0.9741
-5.6017 -5.7922 -2.0863 0.9673
-4.4503 -8.1208 -2.3977 0.9625
-2.1467 -9.0080 -2.3977 0.9625
-1.3939 -9.5574 -2.5007 0.9609
-0.5377 -9.6435 -2.5007 0.9609
3.6713 -8.9335 -2.5007 0.9609
5.1971 -8.1410 -2.5007 0.9609
5.9010 -7.6462 -2.5007 0.9609
6.4630 -6.9877 -2.4645 0.9614
6.8675 -6.2112 -2.3975 0.9625
7.3930 -5.5754 -2.3975 0.9625
7.8599 -4.8952 -2.3975 0.9625
8.6034 -3.4241 -2.3975 0.9625
8.8740 -2.6447 -2.3975 0.9625
9.2574 -0.2063 -2.3975 0.9625
8.4423 3.8039 -2.3975 0.9625
7.6341 5.2405 -2.3975 0.9625
7.1373 5.8992 -2.3975 0.9625
6.5840 6.5110 -2.3975 0.9625
6.2358 7.3757 -2.5007 0.9609
4.8292 8.3645 -2.5007 0.9609
3.2697 9.0882 -2.5007 0.9609
2.4478 9.3431 -2.5007 0.9609
0.7524 9.6291 -2.5007 0.9609
-0.9668 9.6100 -2.5007 0.9609
-1.7433 9.0947 -2.3977 0.9625
-2.5459 8.9035 -2.3977 0.9625
-4.0842 8.3110 -2.3977 0.9625
-7.8213 8.8437 -3.0568 0.9524
-8.6138 8.1469 -3.0698 0.9522
-10.1937 6.6684 -3.1539 0.9509
-5.5980 -2.9872 -1.6429 0.9741
-5.5975 -3.6617 -1.7319 0.9727
-5.5990 -4.4215 -1.8472 0.9710
-5.6008 -5.2972 -1.9960 0.9686
-5.6028 -6.3352 -2.1898 0.9657
-5.4930 -7.4552 -2.3977 0.9625
-4.8077 -7.9145 -2.3977 0.9625
-3.3282 -8.6415 -2.3977 0.9625
-1.7433 -9.0947 -2.3977 0.9625
0.7524 -9.6291 -2.5007 0.9609
2.4478 -9.3432 -2.5007 0.9609
3.2697 -9.0882 -2.5007 0.9609
4.0656 -8.7611 -2.5007 0.9609
6.2358 -7.3757 -2.5007 0.9609
7.1373 -5.8992 -2.3975 0.9625
7.6341 -5.2405 -2.3975 0.9625
6.7821 -3.0559 -1.9260 0.9697
8.7473 -3.0374 -2.3975 0.9625
8.9830 -2.2468 -2.3975 0.9625
9.2390 -0.6185 -2.3975 0.9625
9.2574 0.2063 -2.3975 0.9625
9.0741 1.8444 -2.3975 0.9625
8.6034 3.4241 -2.3975 0.9625
8.2645 4.1762 -2.3975 0.9625
7.8599 4.8952 -2.3975 0.9625
7.3931 5.5754 -2.3975 0.9625
5.9010 7.6462 -2.5007 0.9609
4.4518 8.5713 -2.5007 0.9609
2.8616 9.2248 -2.5007 0.9609
1.1806 9.5861 -2.5007 0.9609
-2.1467 9.0080 -2.3977 0.9625
-4.4503 8.1208 -2.3977 0.9625
-5.1555 7.6925 -2.3977 0.9625
-5.5085 6.8180 -2.2695 0.9644
-9.7881 7.0451 -3.1225 0.9514
-5.5011 2.6276 -1.5785 0.9751
-12.2589 4.5653 -3.3870 0.9474
-13.5008 3.6982 -3.6244 0.9438
-5.5016 -0.0000 -1.5575 0.9774
-5.5017 -0.4917 -1.5637 0.9773
-5.5956 -2.6728 -1.7555 0.9746
-5.5982 -4.0294 -1.9526 0.9717
-5.5999 -4.8424 -2.0958 0.9697
-5.6017 -5.7922 -2.2811 0.9671
-5.3227 -6.5880 -2.3977 0.9654
-3.3931 -7.7601 -2.3977 0.9654
-1.2749 -8.7412 -2.5007 0.9639
1.0798 -8.7674 -2.5007 0.9639
2.6172 -8.4371 -2.5007 0.9639
3.3578 -8.1706 -2.5007 0.9639
5.3971 -6.9932 -2.5007 0.9639
5.9981 -6.4851 -2.5007 0.9639
7.8687 -3.1317 -2.3975 0.9654
8.2992 -1.6869 -2.3975 0.9654
8.4165 -0.9415 -2.3975 0.9654
8.4668 -0.1887 -2.3975 0.9654
8.4500 0.5657 -2.3975 0.9654
8.2159 2.0549 -2.3975 0.9654
7.3810 4.1525 -2.3975 0.9654
6.5278 5.3954 -2.3975 0.9654
6.2810 6.2114 -2.5007 0.9639
5.0802 7.2267 -2.5007 0.9639
4.4168 7.6502 -2.5007 0.9639
3.7184 8.0129 -2.5007 0.9639
2.2388 8.5453 -2.5007 0.9639
0.6882 8.8068 -2.5007 0.9639
-0.8842 8.7893 -2.5007 0.9639
-1.5945 8.3183 -2.3977 0.9654
-3.7354 7.6013 -2.3977 0.9654
-5.0239 6.8186 -2.3977 0.9654
-7.9434 7.5128 -3.0952 0.9556
-5.5227 3.6128 -1.8682 0.9729
-11.9367 3.8491 -3.5505 0.9492
-5.5015 0.7398 -1.5715 0.9772
-5.5016 -0.2454 -1.5590 0.9774
-5.5017 -0.7399 -1.5715 0.9772
-5.5962 -2.9862 -1.7957 0.9740
-5.5990 -4.4215 -2.0197 0.9708
-5.6008 -5.2972 -2.1824 0.9685
-5.6028 -6.3352 -2.3942 0.9655
-3.7354 -7.6013 -2.3977 0.9654
-3.0440 -7.9036 -2.3977 0.9654
-2.3285 -8.1432 -2.3977 0.9654
-1.5944 -8.3181 -2.3977 0.9654
1.4693 -8.7106 -2.5007 0.9639
2.2388 -8.5453 -2.5007 0.9639
2.9904 -8.3121 -2.5007 0.9639
3.7184 -8.0129 -2.5007 0.9639
5.0802 -7.2267 -2.5007 0.9639
5.7033 -6.7459 -2.5007 0.9639
6.2810 -6.2114 -2.5007 0.9639
6.5278 -5.3954 -2.3975 0.9654
6.9822 -4.7930 -2.3975 0.9654
7.3810 -4.1525 -2.3975 0.9654
6.7821 -3.0559 -2.1059 0.9695
8.0003 -2.7780 -2.3975 0.9654
8.2159 -2.0549 -2.3975 0.9654
8.3661 -1.3155 -2.3975 0.9654
8.4164 0.9415 -2.3975 0.9654
8.2992 1.6869 -2.3975 0.9654
7.5587 3.8196 -2.3975 0.9654
7.1887 4.4772 -2.3975 0.9654
4.7532 7.4458 -2.5007 0.9639
3.3578 8.1706 -2.5007 0.9639
2.6172 8.4371 -2.5007 0.9639
1.8559 8.6365 -2.5007 0.9639
1.0798 8.7674 -2.5007 0.9639
-1.9634 8.2388 -2.3977 0.9654
-2.6889 8.0313 -2.3977 0.9654
-3.3931 7.7602 -2.3977 0.9654
-4.0703 7.4273 -2.3977 0.9654
-4.7152 7.0356 -2.3977 0.9654
-5.3227 6.5880 -2.3977 0.9654
-5.5079 4.7629 -2.0614 0.9702
-9.1350 6.5750 -3.1862 0.9543
-5.5082 3.2625 -1.8123 0.9737
-5.5014 0.9911 -1.5825 0.9770
-5.5088 -0.0000 -1.6944 0.9772
-18.9065 -1.6896 -5.8384 0.9236
-5.5944 -2.0834 -1.8362 0.9753
-5.5956 -2.6728 -1.9073 0.9744
-5.5968 -3.3150 -2.0008 0.9731
-5.5982 -4.0294 -2.1215 0.9715
-5.5999 -4.8424 -2.2771 0.9695
-5.4192 -5.6034 -2.3977 0.9679
-4.8990 -6.0635 -2.3977 0.9679
-3.7463 -6.8361 -2.3977 0.9679
-3.1229 -7.1424 -2.3977 0.9679
-1.8071 -7.5829 -2.3977 0.9679
-1.1734 -8.0453 -2.5007 0.9665
-0.4526 -8.1178 -2.5007 0.9665
0.9938 -8.0695 -2.5007 0.9665
3.7475 -7.2153 -2.5007 0.9665
4.3749 -6.8531 -2.5007 0.9665
5.5206 -5.9688 -2.5007 0.9665
6.0300 -5.4538 -2.5007 0.9665
6.4630 -4.8740 -2.4898 0.9667
7.4701 -2.2263 -2.3975 0.9679
7.7464 -0.8666 -2.3975 0.9679
7.7928 -0.1737 -2.3975 0.9679
7.7773 0.5206 -2.3975 0.9679
7.5618 1.8913 -2.3975 0.9679
7.1067 3.2021 -2.3975 0.9679
6.7935 3.8219 -2.3975 0.9679
6.4715 4.4424 -2.4143 0.9677
6.2669 5.1797 -2.5007 0.9665
5.7810 5.7170 -2.5007 0.9665
5.2492 6.2088 -2.5007 0.9665
4.6758 6.6514 -2.5007 0.9665
0.6334 8.1057 -2.5007 0.9665
-0.8138 8.0896 -2.5007 0.9665
-1.5306 7.9851 -2.5007 0.9665
-2.1431 7.4949 -2.3977 0.9679
-2.8017 7.2744 -2.3977 0.9679
-3.4380 6.9962 -2.3977 0.9679
-4.0471 6.6624 -2.3977 0.9679
-4.6240 6.2757 -2.3977 0.9679
-5.1642 5.8393 -2.3977 0.9679
-7.4670 7.0622 -3.1612 0.9579
-8.2452 6.5112 -3.2315 0.9570
-9.6115 5.1289 -3.3509 0.9554
-5.6915 -1.8353 -1.8393 0.9753
-5.5950 -2.3725 -1.8692 0.9749
-5.5962 -2.9862 -1.9510 0.9738
-5.5975 -3.6617 -2.0573 0.9724
-5.1642 -5.8393 -2.3977 0.9679
-4.6240 -6.2757 -2.3977 0.9679
-2.1431 -7.4949 -2.3977 0.9679
-0.0906 -8.1299 -2.5007 0.9665
2.0605 -7.8650 -2.5007 0.9665
2.7524 -7.6504 -2.5007 0.9665
3.4224 -7.3751 -2.5007 0.9665
4.0652 -7.0412 -2.5007 0.9665
4.6758 -6.6514 -2.5007 0.9665
5.7810 -5.7170 -2.5007 0.9665
7.3635 -2.5569 -2.3975 0.9679
7.5618 -1.8913 -2.3975 0.9679
7.7773 -0.5206 -2.3975 0.9679
7.7928 0.1737 -2.3975 0.9679
7.6386 1.5526 -2.3975 0.9679
7.4701 2.2263 -2.3975 0.9679
6.9570 3.5155 -2.3975 0.9679
6.0300 5.4538 -2.5007 0.9665
5.5206 5.9688 -2.5007 0.9665
4.3749 6.8531 -2.5007 0.9665
3.7475 7.2153 -2.5007 0.9665
3.0905 7.5202 -2.5007 0.9665
2.4089 7.7654 -2.5007 0.9665
0.9939 8.0695 -2.5007 0.9665
0.2717 8.1259 -2.5007 0.9665
-2.4748 7.3920 -2.3977 0.9679
-3.1229 7.1424 -2.3977 0.9679
-3.7463 6.8361 -2.3977 0.9679
-4.8990 6.0635 -2.3977 0.9679
-8.5805 6.1759 -3.2517 0.9567
-9.2295 5.4666 -3.2994 0.9561
-9.9917 4.7726 -3.4058 0.9547
-10.7714 4.0113 -3.5353 0.9530
-14.1309 2.5458 -4.4163 0.9417
-18.7735 1.6776 -5.7974 0.9242
-18.5288 -1.6558 -6.1836 0.9246
-5.5968 -3.3150 -2.1623 0.9730
-5.4560 -4.7180 -2.3977 0.9701
-5.0145 -5.1849 -2.3977 0.9701
-3.4665 -6.3255 -2.3977 0.9701
-2.8897 -6.6089 -2.3977 0.9701
-1.0857 -7.4444 -2.5007 0.9688
-0.4188 -7.5115 -2.5007 0.9688
0.2514 -7.5190 -2.5007 0.9688
2.8596 -6.9585 -2.5007 0.9688
5.1083 -5.5230 -2.5007 0.9688
5.5796 -5.0464 -2.5007 0.9688
6.3859 -3.9772 -2.5007 0.9688
6.9121 -2.0600 -2.3975 0.9701
7.1679 -0.8018 -2.3975 0.9701
7.1250 1.1204 -2.3975 0.9701
6.8135 2.3659 -2.3975 0.9701
6.4630 3.6360 -2.4650 0.9692
6.2024 4.2577 -2.5007 0.9688
4.8572 5.7451 -2.5007 0.9688
3.7616 6.5153 -2.5007 0.9688
3.1668 6.8242 -2.5007 0.9688
2.5468 7.0790 -2.5007 0.9688
1.2513 7.4184 -2.5007 0.9688
0.5861 7.5003 -2.5007 0.9688
-0.7530 7.4854 -2.5007 0.9688
-2.5924 6.7311 -2.3977 0.9701
-3.1812 6.4736 -2.3977 0.9701
-4.7785 5.4031 -2.3977 0.9701
-5.2405 4.9564 -2.3977 0.9701
-8.3916 5.4896 -3.3333 0.9586
-9.1066 4.8594 -3.4311 0.9574
-15.8584 2.1328 -5.3189 0.9348
-5.5088 0.2456 -1.8330 0.9770
-18.8462 -0.8404 -6.2709 0.9236
-18.7959 -2.5279 -6.3041 0.9232
-5.5950 -2.3725 -2.0201 0.9747
-4.2786 -5.8070 -2.3977 0.9701
-3.7448 -6.1648 -2.3977 0.9701
-2.5924 -6.7311 -2.3977 0.9701
-1.4163 -7.3887 -2.5007 0.9688
-0.0838 -7.5227 -2.5007 0.9688
1.2513 -7.4184 -2.5007 0.9688
1.9066 -7.2776 -2.5007 0.9688
3.7616 -6.5153 -2.5007 0.9688
6.2024 -4.2578 -2.5007 0.9688
6.5759 -2.9629 -2.3975 0.9701
6.8135 -2.3659 -2.3975 0.9701
6.9970 -1.7501 -2.3975 0.9701
7.2108 0.1607 -2.3975 0.9701
7.1679 0.8018 -2.3975 0.9701
6.4724 3.2706 -2.4106 0.9699
6.3859 3.9772 -2.5007 0.9688
6.0066 4.5298 -2.5007 0.9688
5.1083 5.5230 -2.5007 0.9688
4.5964 5.9558 -2.5007 0.9688
3.4676 6.6764 -2.5007 0.9688
2.2289 7.1854 -2.5007 0.9688
0.9196 7.4668 -2.5007 0.9688
0.2514 7.5190 -2.5007 0.9688
-0.4188 7.5115 -2.5007 0.9688
-1.6721 7.0166 -2.3977 0.9701
-2.8897 6.6089 -2.3977 0.9701
-4.0157 5.9919 -2.3977 0.9701
-4.5331 5.6107 -2.3977 0.9701
-5.4560 4.7180 -2.3977 0.9701
-8.0830 5.8178 -3.3104 0.9589
-8.7500 5.1826 -3.3805 0.9580
-5.5084 2.0513 -1.9539 0.9755
-18.4521 0.0000 -6.5986 0.9246
-18.4630 -1.6499 -6.6289 0.9243
-5.5968 -3.3150 -2.3262 0.9727
-5.0715 -4.3855 -2.3977 0.9719
-4.6611 -4.8195 -2.3977 0.9719
-4.2136 -5.2153 -2.3977 0.9719
-3.7327 -5.5696 -2.3977 0.9719
-2.6861 -6.1432 -2.3977 0.9719
-2.1286 -6.3579 -2.3977 0.9719
-1.5839 -6.6464 -2.4434 0.9714
-0.3893 -6.9821 -2.5007 0.9707
0.2337 -6.9891 -2.5007 0.9707
2.6581 -6.4681 -2.5007 0.9707
3.2232 -6.2059 -2.5007 0.9707
3.7628 -5.8943 -2.5007 0.9707
4.2725 -5.5361 -2.5007 0.9707
6.2414 -3.1539 -2.5007 0.9707
6.4714 -1.9287 -2.4148 0.9717
6.5699 -1.3354 -2.3975 0.9719
6.7026 -0.1494 -2.3975 0.9719
6.6893 0.4478 -2.3975 0.9719
6.6229 1.0414 -2.3975 0.9719
6.5039 1.6267 -2.3975 0.9719
6.3757 2.8728 -2.5007 0.9707
5.7653 3.9577 -2.5007 0.9707
4.9723 4.9172 -2.5007 0.9707
2.9436 6.3433 -2.5007 0.9707
2.3673 6.5801 -2.5007 0.9707
1.7723 6.7647 -2.5007 0.9707
-0.0779 6.9926 -2.5007 0.9707
-0.7000 6.9579 -2.5007 0.9707
-1.3165 6.8680 -2.5007 0.9707
-1.8433 6.4464 -2.3977 0.9719
-8.6439 4.6125 -3.5037 0.9592
-9.2998 3.9435 -3.6123 0.9580
-10.0537 3.2419 -3.7776 0.9561
-5.5962 -2.9862 -2.2683 0.9734
-5.5975 -3.6617 -2.3920 0.9720
-5.2619 -4.1553 -2.3977 0.9719
-3.9771 -5.3978 -2.3977 0.9719
-3.4809 -5.7303 -2.3977 0.9719
-2.9570 -6.0174 -2.3977 0.9719
-1.8433 -6.4464 -2.3977 0.9719
-1.3165 -6.8680 -2.5007 0.9707
-0.7000 -6.9579 -2.5007 0.9707
1.7723 -6.7647 -2.5007 0.9707
2.3673 -6.5801 -2.5007 0.9707
4.0217 -5.7209 -2.5007 0.9707
4.5149 -5.3402 -2.5007 0.9707
5.7653 -3.9577 -2.5007 0.9707
6.6229 -1.0414 -2.3975 0.9719
6.7026 0.1494 -2.3975 0.9719
6.4630 2.5722 -2.4875 0.9709
6.2414 3.1539 -2.5007 0.9707
5.5833 4.2106 -2.5007 0.9707
4.7483 5.1338 -2.5007 0.9707
3.7628 5.8943 -2.5007 0.9707
3.2233 6.2059 -2.5007 0.9707
2.0719 6.6790 -2.5007 0.9707
-1.0092 6.9198 -2.5007 0.9707
-2.1286 6.3579 -2.3977 0.9719
-3.2222 5.8797 -2.3977 0.9719
-3.7327 5.5696 -2.3977 0.9719
-4.6611 4.8195 -2.3977 0.9719
-5.0715 4.3855 -2.3977 0.9719
-8.9734 4.2862 -3.5562 0.9586
-11.7624 2.1191 -4.2740 0.9505
-5.5087 0.4922 -1.9778 0.9768
-5.5239 -0.0000 -2.1169 0.9766
-5.5956 -2.6728 -2.3764 0.9738
-5.3832 -3.1885 -2.3977 0.9736
-4.7326 -4.0924 -2.3977 0.9736
-4.3496 -4.4974 -2.3977 0.9736
-3.9320 -4.8667 -2.3977 0.9736
-3.4832 -5.1974 -2.3977 0.9736
-3.0068 -5.4868 -2.3977 0.9736
-2.5065 -5.7326 -2.3977 0.9736
-1.9864 -5.9329 -2.3977 0.9736
-0.9418 -6.4573 -2.5007 0.9724
0.2181 -6.5220 -2.5007 0.9724
1.3710 -6.3800 -2.5007 0.9724
3.0078 -5.7911 -2.5007 0.9724
3.9870 -5.1661 -2.5007 0.9724
4.8398 -4.3773 -2.5007 0.9724
5.8243 -2.9431 -2.5007 0.9724
6.0631 -2.4130 -2.5007 0.9724
6.4630 -0.7230 -2.4922 0.9725
6.4630 -0.1440 -2.4773 0.9727
6.4630 0.4327 -2.4823 0.9726
5.9496 2.6808 -2.5007 0.9724
5.6874 3.1997 -2.5007 0.9724
5.0300 4.1574 -2.5007 0.9724
4.6400 4.5886 -2.5007 0.9724
4.2131 4.9833 -2.5007 0.9724
3.7529 5.3386 -2.5007 0.9724
3.2628 5.6514 -2.5007 0.9724
2.2091 6.1404 -2.5007 0.9724
1.6538 6.3126 -2.5007 0.9724
0.5084 6.5058 -2.5007 0.9724
-2.7594 5.6153 -2.3977 0.9736
-3.2483 5.3474 -2.3977 0.9736
-3.7113 5.0371 -2.3977 0.9736
-4.5456 4.2992 -2.3977 0.9736
-5.2358 3.4251 -2.3977 0.9736
-5.5080 2.3355 -2.2927 0.9747
-11.8421 1.5926 -4.5790 0.9501
-18.4028 0.8206 -7.0593 0.9241
-18.5159 -0.8257 -7.1027 0.9237
-5.5199 -2.9455 -2.3977 0.9736
-5.2358 -3.4251 -2.3977 0.9736
-4.9102 -3.8776 -2.3977 0.9736
-4.5456 -4.2992 -2.3977 0.9736
-4.1449 -4.6867 -2.3977 0.9736
-3.7113 -5.0370 -2.3977 0.9736
-2.7594 -5.6153 -2.3977 0.9736
-2.2487 -5.8386 -2.3977 0.9736
-1.7201 -6.0155 -2.3977 0.9736
-1.2285 -6.4090 -2.5007 0.9724
0.5084 -6.5058 -2.5007 0.9724
1.6538 -6.3126 -2.5007 0.9724
5.0300 -4.1574 -2.5007 0.9724
5.3800 -3.6932 -2.5007 0.9724
5.6874 -3.1997 -2.5007 0.9724
5.9496 -2.6808 -2.5007 0.9724
6.3306 -1.5834 -2.5007 0.9724
6.4465 -1.0137 -2.5007 0.9724
6.4630 -0.4326 -2.4823 0.9726
5.8243 2.9431 -2.5007 0.9724
5.5392 3.4499 -2.5007 0.9724
5.2102 3.9292 -2.5007 0.9724
4.4310 4.7907 -2.5007 0.9724
3.9870 5.1661 -2.5007 0.9724
3.0078 5.7911 -2.5007 0.9724
1.9334 6.2327 -2.5007 0.9724
1.3710 6.3800 -2.5007 0.9724
0.7977 6.4767 -2.5007 0.9724
0.2181 6.5220 -2.5007 0.9724
-0.3633 6.5155 -2.5007 0.9724
-3.0068 5.4868 -2.3977 0.9736
-3.9320 4.8667 -2.3977 0.9736
-5.3832 3.1885 -2.3977 0.9736
-5.5093 0.9925 -2.1452 0.9763
-14.1037 1.2603 -5.4263 0.9411
-17.9735 0.0000 -7.3561 0.9253
-1.6035 -0.4392 -0.6804 0.9928
-5.4900 -2.0445 -2.3977 0.9750
-5.2862 -2.5250 -2.3977 0.9750
-5.0405 -2.9855 -2.3977 0.9750
-4.7548 -3.4223 -2.3977 0.9750
-3.6817 -4.5569 -2.3977 0.9750
-3.2615 -4.8665 -2.3977 0.9750
-1.4165 -5.9437 -2.5007 0.9739
0.2042 -6.1068 -2.5007 0.9739
0.7469 -6.0644 -2.5007 0.9739
1.2837 -5.9738 -2.5007 0.9739
1.8103 -5.8359 -2.5007 0.9739
2.3225 -5.6516 -2.5007 0.9739
3.2878 -5.1502 -2.5007 0.9739
3.7331 -4.8372 -2.5007 0.9739
4.1489 -4.4857 -2.5007 0.9739
5.1865 -3.2302 -2.5007 0.9739
5.4535 -2.7558 -2.5007 0.9739
5.8557 -1.7452 -2.5007 0.9739
6.0723 -0.6793 -2.5007 0.9739
6.1087 -0.1361 -2.5007 0.9739
6.0360 0.9491 -2.5007 0.9739
5.9276 1.4826 -2.5007 0.9739
4.3446 4.2964 -2.5007 0.9739
3.9449 4.6661 -2.5007 0.9739
3.5140 4.9987 -2.5007 0.9739
2.5720 5.5425 -2.5007 0.9739
1.0163 6.0251 -2.5007 0.9739
0.4760 6.0916 -2.5007 0.9739
-1.6106 5.6326 -2.3977 0.9750
-2.1055 5.4669 -2.3977 0.9750
-3.0415 5.0069 -2.3977 0.9750
-3.8810 4.3883 -2.3977 0.9750
-4.5976 3.6307 -2.3977 0.9750
-4.9025 3.2071 -2.3977 0.9750
-5.1685 2.7580 -2.3977 0.9750
-1.6146 0.3658 -0.6776 0.9929
-18.2009 0.8116 -7.4566 0.9243
-5.5089 -0.2457 -2.2569 0.9764
-1.6301 -0.2192 -0.6732 0.9929
-1.6146 -0.3658 -0.6776 0.9929
-4.9025 -3.2071 -2.3977 0.9750
-4.5976 -3.6307 -2.3977 0.9750
-4.2562 -4.0255 -2.3977 0.9750
-3.8810 -4.3883 -2.3977 0.9750
-2.5837 -5.2578 -2.3977 0.9750
-2.1055 -5.4668 -2.3977 0.9750
-1.1503 -6.0009 -2.5007 0.9739
-0.0681 -6.1098 -2.5007 0.9739
0.4760 -6.0916 -2.5007 0.9739
1.0163 -6.0251 -2.5007 0.9739
4.3446 -4.2964 -2.5007 0.9739
4.7097 -3.8927 -2.5007 0.9739
5.0375 -3.4580 -2.5007 0.9739
5.3253 -2.9960 -2.5007 0.9739
5.5708 -2.5101 -2.5007 0.9739
5.7721 -2.0043 -2.5007 0.9739
6.0360 -0.9491 -2.5007 0.9739
6.0965 -0.4081 -2.5007 0.9739
6.0723 0.6793 -2.5007 0.9739
4.8785 3.6790 -2.5007 0.9739
4.5316 4.0986 -2.5007 0.9739
4.1489 4.4857 -2.5007 0.9739
3.2878 5.1502 -2.5007 0.9739
2.8163 5.4224 -2.5007 0.9739
1.8103 5.8359 -2.5007 0.9739
-1.4165 5.9437 -2.5007 0.9739
-1.8599 5.5552 -2.3977 0.9750
-2.3470 5.3676 -2.3977 0.9750
-3.2615 4.8665 -2.3977 0.9750
-3.6817 4.5569 -2.3977 0.9750
-4.0727 4.2111 -2.3977 0.9750
-4.4313 3.8319 -2.3977 0.9750
-5.0405 2.9855 -2.3977 0.9750
-5.4900 2.0445 -2.3977 0.9750
-1.5266 0.0000 -0.6653 0.9934
-1.5001 -0.4109 -0.6779 0.9932
-4.9643 -2.3712 -2.3977 0.9763
-4.4652 -3.2139 -2.3977 0.9763
-4.1614 -3.5985 -2.3977 0.9763
-3.4575 -4.2794 -2.3977 0.9763
-2.6439 -4.8246 -2.3977 0.9763
-2.2040 -5.0407 -2.3977 0.9763
-1.7466 -5.2169 -2.3977 0.9763
-0.3195 -5.7292 -2.5007 0.9753
0.7014 -5.6950 -2.5007 0.9753
1.7001 -5.4804 -2.5007 0.9753
2.1811 -5.3074 -2.5007 0.9753
2.6448 -5.0922 -2.5007 0.9753
3.0876 -4.8366 -2.5007 0.9753
3.5058 -4.5426 -2.5007 0.9753
4.2557 -3.8490 -2.5007 0.9753
4.8707 -3.0335 -2.5007 0.9753
5.7025 -0.6379 -2.5007 0.9753
5.7367 -0.1279 -2.5007 0.9753
5.5666 1.3923 -2.5007 0.9753
4.7307 3.2475 -2.5007 0.9753
4.4229 3.6556 -2.5007 0.9753
4.0800 4.0348 -2.5007 0.9753
2.8690 4.9693 -2.5007 0.9753
2.4154 5.2049 -2.5007 0.9753
0.9544 5.6581 -2.5007 0.9753
0.4470 5.7206 -2.5007 0.9753
-0.0639 5.7377 -2.5007 0.9753
-0.5744 5.7093 -2.5007 0.9753
-1.5775 5.5170 -2.5007 0.9753
-2.8562 4.7020 -2.3977 0.9763
-3.2634 4.4291 -2.3977 0.9763
-3.6447 4.1211 -2.3977 0.9763
-3.9970 3.7803 -2.3977 0.9763
-4.6039 3.0118 -2.3977 0.9763
-5.0650 2.1477 -2.3977 0.9763
-1.5029 0.3405 -0.6716 0.9933
-1.5133 0.2035 -0.6654 0.9934
-1.5259 0.0680 -0.6657 0.9934
-1.5133 -0.2035 -0.6654 0.9934
-1.5029 -0.3405 -0.6716 0.9933
-1.4861 -0.4792 -0.6805 0.9932
-4.8537 -2.5900 -2.3977 0.9763
-4.6039 -3.0117 -2.3977 0.9763
-3.6447 -4.1211 -2.3977 0.9763
-3.2634 -4.4291 -2.3977 0.9763
-2.8562 -4.7020 -2.3977 0.9763
-2.4264 -4.9376 -2.3977 0.9763
-1.9773 -5.1339 -2.3977 0.9763
-1.5775 -5.5170 -2.5007 0.9753
-1.0802 -5.6355 -2.5007 0.9753
1.4542 -5.5507 -2.5007 0.9753
1.9425 -5.3993 -2.5007 0.9753
2.8690 -4.9693 -2.5007 0.9753
3.2999 -4.6942 -2.5007 0.9753
3.7047 -4.3819 -2.5007 0.9753
5.2315 -2.3572 -2.5007 0.9753
5.4206 -1.8822 -2.5007 0.9753
5.5666 -1.3923 -2.5007 0.9753
5.7253 -0.3833 -2.5007 0.9753
5.7367 0.1278 -2.5007 0.9753
5.3314 2.1218 -2.5007 0.9753
4.5814 3.4550 -2.5007 0.9753
4.2557 3.8490 -2.5007 0.9753
3.8962 4.2125 -2.5007 0.9753
3.5058 4.5426 -2.5007 0.9753
2.6448 5.0922 -2.5007 0.9753
2.1811 5.3074 -2.5007 0.9753
1.7001 5.4804 -2.5007 0.9753
1.2055 5.6100 -2.5007 0.9753
0.1917 5.7349 -2.5007 0.9753
-0.3195 5.7292 -2.5007 0.9753
-1.3302 5.5818 -2.5007 0.9753
-1.7466 5.2169 -2.3977 0.9763
-3.0629 4.5701 -2.3977 0.9763
-3.4575 4.2794 -2.3977 0.9763
-3.8246 3.9546 -2.3977 0.9763
-4.1614 3.5985 -2.3977 0.9763
-4.4652 3.2138 -2.3977 0.9763
-5.1556 1.9200 -2.3977 0.9763
-1.5001 0.4109 -0.6779 0.9932
-1.5015 0.2705 -0.6649 0.9934
-1.3993 -0.2521 -0.6581 0.9938
-1.3946 -0.3820 -0.6693 0.9936
-4.8541 -1.8077 -2.3977 0.9774
-4.6740 -2.2326 -2.3977 0.9774
-4.4567 -2.6397 -2.3977 0.9774
-3.9181 -3.3881 -2.3977 0.9774
-3.6010 -3.7234 -2.3977 0.9774
-2.0751 -4.7460 -2.3977 0.9774
-1.6445 -4.9118 -2.3977 0.9774
-1.2524 -5.2554 -2.5007 0.9765
-0.3008 -5.3941 -2.5007 0.9765
0.1805 -5.3995 -2.5007 0.9765
0.6604 -5.3620 -2.5007 0.9765
1.6006 -5.1600 -2.5007 0.9765
2.0535 -4.9971 -2.5007 0.9765
2.4902 -4.7944 -2.5007 0.9765
2.9070 -4.5538 -2.5007 0.9765
3.3008 -4.2769 -2.5007 0.9765
4.8219 -2.4366 -2.5007 0.9765
5.0196 -1.9978 -2.5007 0.9765
5.2943 -1.0761 -2.5007 0.9765
5.3690 -0.6006 -2.5007 0.9765
5.2411 1.3109 -2.5007 0.9765
4.9256 2.2194 -2.5007 0.9765
4.7085 2.6490 -2.5007 0.9765
4.1643 3.4418 -2.5007 0.9765
3.8414 3.7988 -2.5007 0.9765
3.4880 4.1257 -2.5007 0.9765
0.8986 5.3273 -2.5007 0.9765
0.4209 5.3861 -2.5007 0.9765
-0.0602 5.4022 -2.5007 0.9765
-0.5408 5.3754 -2.5007 0.9765
-1.4853 5.1944 -2.5007 0.9765
-2.6892 4.4270 -2.3977 0.9774
-3.4315 3.8801 -2.3977 0.9774
-3.7633 3.5593 -2.3977 0.9774
-4.7688 2.0221 -2.3977 0.9774
-1.3890 0.4479 -0.6755 0.9936
-1.3967 0.3165 -0.6629 0.9937
-1.4099 0.1896 -0.6585 0.9937
-1.4212 0.0634 -0.6585 0.9937
-1.4212 -0.0634 -0.6585 0.9937
-1.4099 -0.1896 -0.6585 0.9937
-1.3967 -0.3165 -0.6629 0.9937
-4.7688 -2.0221 -2.3977 0.9774
-4.3347 -2.8356 -2.3977 0.9774
-3.7633 -3.5593 -2.3977 0.9774
-2.6892 -4.4270 -2.3977 0.9774
-1.4853 -5.1944 -2.5007 0.9765
-0.5408 -5.3754 -2.5007 0.9765
0.4209 -5.3861 -2.5007 0.9765
1.3692 -5.2262 -2.5007 0.9765
1.8289 -5.0836 -2.5007 0.9765
2.2741 -4.9006 -2.5007 0.9765
3.1070 -4.4197 -2.5007 0.9765
4.9256 -2.2194 -2.5007 0.9765
5.2411 -1.3109 -2.5007 0.9765
5.3905 -0.3608 -2.5007 0.9765
5.4012 0.1204 -2.5007 0.9765
5.2943 1.0761 -2.5007 0.9765
5.0196 1.9977 -2.5007 0.9765
4.8219 2.4366 -2.5007 0.9765
4.5859 2.8561 -2.5007 0.9765
4.3134 3.2529 -2.5007 0.9765
3.6683 3.9662 -2.5007 0.9765
3.3008 4.2769 -2.5007 0.9765
2.0536 4.9970 -2.5007 0.9765
1.1350 5.2819 -2.5007 0.9765
-0.3008 5.3941 -2.5007 0.9765
-1.2524 5.2554 -2.5007 0.9765
-1.6445 4.9118 -2.3977 0.9774
-2.4893 4.5424 -2.3977 0.9774
-2.0684 3.0863 -1.7198 0.9838
-3.2553 4.0291 -2.3977 0.9774
-4.2041 3.0259 -2.3977 0.9774
-4.4567 2.6397 -2.3977 0.9774
-4.6740 2.2326 -2.3977 0.9774
-1.3993 0.2521 -0.6581 0.9938
-1.3367 0.0000 -0.6557 0.9941
-1.3317 -0.1190 -0.6558 0.9941
-1.3159 -0.2371 -0.6559 0.9941
-1.2931 -0.4815 -0.6768 0.9939
-4.4106 -2.1068 -2.3977 0.9785
-4.2056 -2.4910 -2.3977 0.9785
-2.0470 -3.0543 -1.8036 0.9838
-1.9582 -4.4786 -2.3977 0.9785
-1.5833 -4.7290 -2.4462 0.9780
-1.1818 -4.9593 -2.5007 0.9775
-0.2838 -5.0902 -2.5007 0.9775
1.0711 -4.9843 -2.5007 0.9775
1.9378 -4.7155 -2.5007 0.9775
2.3499 -4.5243 -2.5007 0.9775
2.7432 -4.2972 -2.5007 0.9775
3.1148 -4.0360 -2.5007 0.9775
3.7810 -3.4198 -2.5007 0.9775
4.3275 -2.6952 -2.5007 0.9775
4.5502 -2.2993 -2.5007 0.9775
4.8858 -1.4561 -2.5007 0.9775
5.0665 -0.5668 -2.5007 0.9775
5.0969 -0.1136 -2.5007 0.9775
5.0867 0.3405 -2.5007 0.9775
5.0362 0.7919 -2.5007 0.9775
4.8160 1.6723 -2.5007 0.9775
4.6481 2.0943 -2.5007 0.9775
4.2031 2.8853 -2.5007 0.9775
3.9296 3.2479 -2.5007 0.9775
3.6249 3.5848 -2.5007 0.9775
3.2915 3.8932 -2.5007 0.9775
2.5491 4.4151 -2.5007 0.9775
1.7259 4.7971 -2.5007 0.9775
1.2920 4.9317 -2.5007 0.9775
-0.0568 5.0978 -2.5007 0.9775
-0.5103 5.0725 -2.5007 0.9775
-0.9598 5.0070 -2.5007 0.9775
-1.4016 4.9017 -2.5007 0.9775
-2.1558 4.3869 -2.3977 0.9785
-2.1815 2.9608 -1.8040 0.9837
-3.5512 3.3587 -2.3977 0.9785
-3.8361 3.0293 -2.3977 0.9785
-4.3124 2.3012 -2.3977 0.9785
-1.3003 0.4193 -0.6702 0.9939
-1.3089 0.2966 -0.6583 0.9940
-1.3355 0.0596 -0.6558 0.9941
-1.3355 -0.0596 -0.6558 0.9941
-1.3003 -0.4193 -0.6702 0.9939
-4.3124 -2.3012 -2.3977 0.9785
-3.8361 -3.0293 -2.3977 0.9785
-3.2382 -3.6615 -2.3977 0.9785
-2.8994 -3.9352 -2.3977 0.9785
-2.5377 -4.1776 -2.3977 0.9785
-2.1558 -4.3869 -2.3977 0.9785
-1.7712 -4.5988 -2.4173 0.9783
-1.4016 -4.9017 -2.5007 0.9775
-0.5103 -5.0725 -2.5007 0.9775
-0.0568 -5.0978 -2.5007 0.9775
1.2920 -4.9317 -2.5007 0.9775
2.5491 -4.4151 -2.5007 0.9775
3.2915 -3.8932 -2.5007 0.9775
3.6249 -3.5848 -2.5007 0.9775
4.2031 -2.8853 -2.5007 0.9775
4.4432 -2.4997 -2.5007 0.9775
4.8160 -1.6723 -2.5007 0.9775
5.0362 -0.7919 -2.5007 0.9775
5.0969 0.1136 -2.5007 0.9775
4.9960 1.0155 -2.5007 0.9775
4.8858 1.4561 -2.5007 0.9775
3.7810 3.4198 -2.5007 0.9775
2.7432 4.2972 -2.5007 0.9775
2.3499 4.5243 -2.5007 0.9775
1.9378 4.7155 -2.5007 0.9775
0.1704 5.0953 -2.5007 0.9775
-0.7358 5.0448 -2.5007 0.9775
-1.5833 4.7290 -2.4462 0.9780
-2.0411 3.0455 -1.7983 0.9838
-3.6973 3.1972 -2.3977 0.9785
-4.4106 2.1068 -2.3977 0.9785
-1.2576 -0.1124 -0.6550 0.9943
-1.2426 -0.2239 -0.6550 0.9943
-1.2283 -0.3365 -0.6607 0.9943
-2.9045 -3.5950 -2.3977 0.9794
-2.0470 -3.0543 -1.9075 0.9836
-2.2211 -4.0530 -2.3977 0.9794
-1.5304 -4.5711 -2.5007 0.9785
-0.6957 -4.7700 -2.5007 0.9785
0.1611 -4.8178 -2.5007 0.9785
1.0127 -4.7129 -2.5007 0.9785
1.4282 -4.6040 -2.5007 0.9785
1.8323 -4.4586 -2.5007 0.9785
3.2731 -3.5389 -2.5007 0.9785
3.5751 -3.2335 -2.5007 0.9785
3.8487 -2.9025 -2.5007 0.9785
4.0918 -2.5484 -2.5007 0.9785
4.3023 -2.1741 -2.5007 0.9785
4.4788 -1.7825 -2.5007 0.9785
4.7906 -0.5359 -2.5007 0.9785
4.8193 -0.1074 -2.5007 0.9785
4.8097 0.3220 -2.5007 0.9785
4.6764 1.1696 -2.5007 0.9785
4.5537 1.5812 -2.5007 0.9785
4.2012 2.3636 -2.5007 0.9785
3.7156 3.0710 -2.5007 0.9785
3.4275 3.3895 -2.5007 0.9785
3.1122 3.6812 -2.5007 0.9785
2.0291 4.3726 -2.5007 0.9785
1.6319 4.5358 -2.5007 0.9785
0.8018 4.7533 -2.5007 0.9785
0.3755 4.8058 -2.5007 0.9785
-0.0537 4.8202 -2.5007 0.9785
-0.4825 4.7962 -2.5007 0.9785
-0.9075 4.7343 -2.5007 0.9785
-1.6611 4.3129 -2.3977 0.9794
-2.0384 4.1479 -2.3977 0.9794
-2.3995 3.9501 -2.3977 0.9794
-3.0618 3.4620 -2.3977 0.9794
-4.2550 1.8043 -2.3977 0.9794
-1.2222 0.3941 -0.6662 0.9942
-1.2316 0.2790 -0.6551 0.9943
-1.2514 0.1683 -0.6551 0.9943
-1.2316 -0.2790 -0.6551 0.9943
-1.2222 -0.3941 -0.6662 0.9942
-3.8677 -2.5301 -2.3977 0.9794
-3.3578 -3.1758 -2.3977 0.9794
-3.0618 -3.4620 -2.3977 0.9794
-2.7415 -3.7208 -2.3977 0.9794
-2.3995 -3.9501 -2.3977 0.9794
-2.0384 -4.1480 -2.3977 0.9794
-1.6611 -4.3129 -2.3977 0.9794
-0.4825 -4.7962 -2.5007 0.9785
-0.0537 -4.8202 -2.5007 0.9785
0.3755 -4.8058 -2.5007 0.9785
0.8018 -4.7533 -2.5007 0.9785
1.2217 -4.6631 -2.5007 0.9785
2.4102 -4.1746 -2.5007 0.9785
2.7722 -3.9435 -2.5007 0.9785
3.4275 -3.3895 -2.5007 0.9785
3.7156 -3.0710 -2.5007 0.9785
4.3949 -1.9803 -2.5007 0.9785
4.6764 -1.1696 -2.5007 0.9785
4.7619 -0.7488 -2.5007 0.9785
4.8193 0.1074 -2.5007 0.9785
4.7906 0.5359 -2.5007 0.9785
4.7239 0.9602 -2.5007 0.9785
4.0918 2.5484 -2.5007 0.9785
3.5751 3.2335 -2.5007 0.9785
3.2731 3.5389 -2.5007 0.9785
2.5938 4.0631 -2.5007 0.9785
1.8323 4.4587 -2.5007 0.9785
0.5892 4.7843 -2.5007 0.9785
-0.2684 4.8130 -2.5007 0.9785
-1.1175 4.6891 -2.5007 0.9785
-3.4959 3.0230 -2.3977 0.9794
-4.1704 1.9920 -2.3977 0.9794
-1.2162 0.4529 -0.6733 0.9942
-1.2283 0.3365 -0.6607 0.9943
-1.1899 -0.1063 -0.6543 0.9946
-1.1756 -0.2118 -0.6543 0.9946
-1.1577 -0.3171 -0.6575 0.9945
-3.0433 -3.1468 -2.3977 0.9802
-2.1038 -3.8390 -2.3977 0.9802
-1.7704 -4.0491 -2.4204 0.9800
-1.4496 -4.3297 -2.5007 0.9794
-0.6589 -4.5181 -2.5007 0.9794
-0.2542 -4.5588 -2.5007 0.9794
0.9592 -4.4640 -2.5007 0.9794
1.7355 -4.2232 -2.5007 0.9794
2.1045 -4.0519 -2.5007 0.9794
2.7896 -3.6146 -2.5007 0.9794
3.3863 -3.0627 -2.5007 0.9794
4.4744 -0.9095 -2.5007 0.9794
4.5376 -0.5076 -2.5007 0.9794
4.5557 0.3050 -2.5007 0.9794
4.5105 0.7093 -2.5007 0.9794
3.7643 2.5841 -2.5007 0.9794
2.6258 3.7353 -2.5007 0.9794
1.9219 4.1417 -2.5007 0.9794
1.5457 4.2963 -2.5007 0.9794
1.1572 4.4168 -2.5007 0.9794
0.7594 4.5023 -2.5007 0.9794
0.3557 4.5520 -2.5007 0.9794
-1.2553 4.3899 -2.5007 0.9794
-2.1751 2.9521 -2.0084 0.9834
-3.1805 3.0081 -2.3977 0.9802
-3.8622 2.0609 -2.3977 0.9802
-1.1411 0.4838 -0.6788 0.9944
-1.1515 0.3713 -0.6626 0.9945
-1.1649 0.2639 -0.6542 0.9946
-1.1840 0.1592 -0.6543 0.9946
-1.1933 0.0532 -0.6542 0.9946
-1.1933 -0.0532 -0.6542 0.9946
-1.1840 -0.1592 -0.6543 0.9946
-1.1515 -0.3713 -0.6626 0.9945
-3.6634 -2.3965 -2.3977 0.9802
-3.1805 -3.0081 -2.3977 0.9802
-2.9001 -3.2792 -2.3977 0.9802
-2.5967 -3.5243 -2.3977 0.9802
-1.5890 -4.1257 -2.4215 0.9800
-1.2553 -4.3899 -2.5007 0.9794
-0.4570 -4.5430 -2.5007 0.9794
0.3557 -4.5520 -2.5007 0.9794
0.7594 -4.5023 -2.5007 0.9794
1.1572 -4.4168 -2.5007 0.9794
2.6258 -3.7353 -2.5007 0.9794
2.9479 -3.4867 -2.5007 0.9794
3.7643 -2.5841 -2.5007 0.9794
3.9794 -2.2387 -2.5007 0.9794
4.3132 -1.4977 -2.5007 0.9794
4.4294 -1.1079 -2.5007 0.9794
4.5105 -0.7093 -2.5007 0.9794
4.3757 1.3041 -2.5007 0.9794
4.0751 2.0593 -2.5007 0.9794
3.8757 2.4138 -2.5007 0.9794
2.7896 3.6146 -2.5007 0.9794
2.4568 3.8486 -2.5007 0.9794
1.3528 4.3609 -2.5007 0.9794
0.9593 4.4640 -2.5007 0.9794
0.1526 4.5633 -2.5007 0.9794
-0.2542 4.5588 -2.5007 0.9794
-1.0585 4.4415 -2.5007 0.9794
-2.1038 3.8390 -2.3977 0.9802
-2.0325 3.0327 -1.9996 0.9835
-2.7512 3.4052 -2.3977 0.9802
-3.5530 2.5573 -2.3977 0.9802
-1.1899 0.1063 -0.6543 0.9946
-1.1319 0.0000 -0.6535 0.9948
-1.1276 -0.1008 -0.6536 0.9948
-1.1141 -0.2007 -0.6536 0.9948
-1.0934 -0.2995 -0.6545 0.9948
-3.7473 -1.7900 -2.3977 0.9810
-3.5731 -2.1164 -2.3977 0.9810
-3.3706 -2.4260 -2.3977 0.9810
-3.1413 -2.7164 -2.3977 0.9810
-2.8870 -2.9852 -2.3977 0.9810
-1.9958 -3.6419 -2.3977 0.9810
-1.6637 -3.8050 -2.3977 0.9810
-1.3751 -4.1073 -2.5007 0.9802
-0.2411 -4.3247 -2.5007 0.9802
0.1447 -4.3290 -2.5007 0.9802
0.5295 -4.2989 -2.5007 0.9802
2.3307 -3.6509 -2.5007 0.9802
2.9411 -3.1798 -2.5007 0.9802
3.6767 -2.2899 -2.5007 0.9802
4.0244 -1.6017 -2.5007 0.9802
4.1510 -1.2371 -2.5007 0.9802
4.3046 -0.4815 -2.5007 0.9802
3.5710 2.4514 -2.5007 0.9802
3.0798 3.0457 -2.5007 0.9802
2.1657 3.7511 -2.5007 0.9802
1.8232 3.9290 -2.5007 0.9802
1.4663 4.0757 -2.5007 0.9802
1.0977 4.1900 -2.5007 0.9802
0.3374 4.3182 -2.5007 0.9802
-0.4336 4.3097 -2.5007 0.9802
-1.8316 3.7272 -2.3977 0.9810
-2.1560 3.5493 -2.3977 0.9810
-2.7512 3.1108 -2.3977 0.9810
-1.1039 0.2501 -0.6535 0.9948
-1.1220 0.1509 -0.6536 0.9948
-1.1309 -0.0504 -0.6536 0.9948
-1.1220 -0.1509 -0.6536 0.9948
-1.1039 -0.2501 -0.6535 0.9948
-1.0870 -0.3505 -0.6594 0.9947
-3.4753 -2.2734 -2.3977 0.9810
-3.0172 -2.8536 -2.3977 0.9810
-2.7512 -3.1108 -2.3977 0.9810
-2.1560 -3.5493 -2.3977 0.9810
-1.8316 -3.7271 -2.3977 0.9810
-1.5567 -4.0420 -2.5007 0.9802
-0.0483 -4.3312 -2.5007 0.9802
0.3374 -4.3183 -2.5007 0.9802
1.4663 -4.0757 -2.5007 0.9802
1.8232 -3.9290 -2.5007 0.9802
2.4910 -3.5435 -2.5007 0.9802
2.7965 -3.3077 -2.5007 0.9802
3.7750 -2.1238 -2.5007 0.9802
3.9491 -1.7794 -2.5007 0.9802
4.0918 -1.4208 -2.5007 0.9802
4.2789 -0.6728 -2.5007 0.9802
4.3218 -0.2893 -2.5007 0.9802
4.3304 0.0965 -2.5007 0.9802
4.2446 0.8628 -2.5007 0.9802
4.0244 1.6017 -2.5007 0.9802
3.2124 2.9054 -2.5007 0.9802
2.3307 3.6509 -2.5007 0.9802
1.9965 3.8439 -2.5007 0.9802
1.6464 4.0063 -2.5007 0.9802
1.2833 4.1370 -2.5007 0.9802
-0.6251 4.2861 -2.5007 0.9802
-1.3751 4.1073 -2.5007 0.9802
-1.6637 3.8050 -2.3977 0.9810
-1.9958 3.6418 -2.3977 0.9810
-3.7473 1.7900 -2.3977 0.9810
-1.1141 0.2007 -0.6536 0.9948
