ply
format ascii 1.0
element vertex 1406
property float32 x
property float32 y
property float32 z
property float32 I
end_header
7.0660 -15.2269 2.5716 0.9343
12.0285 15.5858 3.0160 0.9234
7.0657 -15.2261 2.1858 0.9345
12.0285 15.5858 2.1141 0.9239
11.4502 16.2882 1.6854 0.9232
7.0649 -15.2245 1.4208 0.9348
11.9964 15.5442 1.6622 0.9242
12.0353 15.5945 1.2215 0.9241
7.0637 -15.2219 0.6617 0.9350
17.9263 0.3995 0.3029 0.9308
18.1395 1.2143 -0.1024 0.9299
11.4575 16.2986 -0.1122 0.9234
-18.5831 5.9923 -0.1099 0.9249
7.0622 -15.2186 -0.0945 0.9351
17.6476 -1.1814 -0.0996 0.9317
17.9263 0.3995 -0.1010 0.9308
11.4575 16.2986 -0.5610 0.9234
-18.2302 6.7890 -0.5478 0.9251
7.0607 -15.2154 -0.8507 0.9350
17.6476 -1.1814 -0.8970 0.9316
-9.3093 15.3252 -1.3147 0.9306
-12.6786 11.9913 -1.2796 0.9324
-14.4252 11.3914 -1.3477 0.9289
-17.9767 5.7967 -1.3849 0.9270
7.0599 -15.2138 -1.2298 0.9349
17.6476 -1.1814 -1.2969 0.9315
17.9263 0.3995 -1.3147 0.9306
-9.1950 16.7787 -1.4029 0.9261
-9.7640 14.5689 -1.2859 0.9321
-12.1805 12.5946 -1.2847 0.9321
-13.3742 11.5651 -1.2964 0.9315
-15.1769 10.9236 -1.3711 0.9277
-16.0625 9.5138 -1.3688 0.9279
-17.6659 8.4382 -1.4355 0.9245
10.4733 -13.5706 -1.6457 0.9334
17.7860 -0.3963 -1.7080 0.9310
-8.6431 17.5881 -1.8814 0.9243
-9.7387 13.2175 -1.5762 0.9362
-11.9311 11.2844 -1.5766 0.9361
-14.6081 9.5562 -1.6759 0.9323
-17.8438 5.7539 -1.8000 0.9274
10.4649 -14.8866 -1.7470 0.9295
10.6511 -12.5982 -1.5838 0.9359
10.5246 -8.6988 -1.3109 0.9466
17.9263 0.3995 -1.7214 0.9305
-10.5811 13.0964 -1.6164 0.9346
-12.8962 11.1517 -1.6368 0.9338
-14.4326 10.3879 -1.7072 0.9310
-15.3767 9.1076 -1.7158 0.9307
-17.6030 8.4082 -1.8729 0.9246
-5.6236 -16.7968 -2.1041 0.9311
10.4619 -16.3884 -2.3096 0.9247
10.4675 -13.5632 -2.0351 0.9333
10.4757 -9.4747 -1.6778 0.9447
10.5356 -3.1400 -1.3059 0.9567
17.7860 -0.3963 -2.1133 0.9308
-8.2548 16.7980 -2.2233 0.9274
-10.4861 11.8568 -1.8802 0.9382
-11.5270 10.9022 -1.8847 0.9381
-13.0528 10.3077 -1.9756 0.9352
-16.0805 8.5808 -2.1651 0.9292
-17.6132 5.6795 -2.1983 0.9282
-5.6192 -14.5899 -1.8572 0.9390
10.4699 -12.3838 -1.9263 0.9368
10.4739 -10.3579 -1.7498 0.9424
10.5366 -2.6354 -1.2902 0.9572
13.2878 -2.0894 -1.5978 0.9473
17.9284 0.3995 -2.1302 0.9303
-8.4220 15.3681 -2.0817 0.9318
-10.7572 11.1229 -1.8381 0.9396
-12.4432 10.7601 -1.9541 0.9359
-14.7478 8.7352 -2.0361 0.9333
-17.6146 8.4138 -2.3188 0.9244
-5.6111 -10.2389 -1.6543 0.9539
-5.6157 -12.8435 -1.9861 0.9449
-5.3999 -16.1285 -2.4099 0.9336
-3.9429 -16.5451 -2.4099 0.9336
-2.4546 -16.8304 -2.4099 0.9336
-0.9874 -17.7085 -2.5130 0.9309
0.5927 -17.7261 -2.5130 0.9309
3.7262 -17.3402 -2.5130 0.9309
10.3909 -13.4639 -2.4098 0.9336
10.4720 -11.3222 -2.1852 0.9396
10.4757 -9.4747 -2.0013 0.9445
10.4840 -5.2978 -1.6644 0.9537
17.0654 -1.9091 -2.4331 0.9330
17.1676 -0.3826 -2.4331 0.9330
17.1335 1.1469 -2.4331 0.9330
16.9634 2.6674 -2.4331 0.9330
16.2217 5.6328 -2.4331 0.9330
14.9660 8.4197 -2.4331 0.9330
14.1572 9.7184 -2.4331 0.9330
13.2360 10.9398 -2.4331 0.9330
12.2098 12.0745 -2.4331 0.9330
6.0042 16.6888 -2.5130 0.9309
4.4949 17.1570 -2.5130 0.9309
2.9500 17.4890 -2.5130 0.9309
-0.1976 17.7349 -2.5130 0.9309
-1.7025 16.9231 -2.4099 0.9336
-7.8981 16.0721 -2.5374 0.9302
-8.2514 13.5837 -2.2519 0.9378
-9.1140 12.3696 -2.1770 0.9398
-10.1146 11.4368 -2.1633 0.9402
-11.1557 10.5509 -2.1756 0.9399
-12.6245 9.9694 -2.2793 0.9371
-5.6129 -11.4220 -1.8032 0.9499
-4.6760 -16.3531 -2.4099 0.9336
-3.2020 -16.7044 -2.4099 0.9336
2.9500 -17.4890 -2.5130 0.9309
6.0042 -16.6888 -2.5130 0.9309
7.1590 -15.4272 -2.4098 0.9336
9.7809 -13.9134 -2.4098 0.9336
10.4699 -12.3838 -2.2977 0.9366
10.4739 -10.3579 -2.0872 0.9422
10.4802 -7.1943 -1.8011 0.9499
10.4828 -5.8975 -1.7042 0.9526
10.6503 -4.7988 -1.6551 0.9539
10.5331 -3.6575 -1.5798 0.9560
10.5366 -2.6354 -1.5389 0.9571
17.1335 -1.1470 -2.4331 0.9330
17.0654 1.9090 -2.4331 0.9330
16.8277 3.4204 -2.4331 0.9330
15.9547 6.3498 -2.4331 0.9330
15.3262 7.7446 -2.4331 0.9330
13.7102 10.3393 -2.4331 0.9330
10.3909 13.4639 -2.4098 0.9336
9.1514 14.3353 -2.4098 0.9336
6.4748 15.7555 -2.4135 0.9335
2.1680 17.6030 -2.5130 0.9309
0.5927 17.7261 -2.5130 0.9309
-2.4546 16.8304 -2.4099 0.9336
-8.4676 12.6346 -2.1551 0.9404
-9.8439 12.1839 -2.2194 0.9387
-13.1121 9.4376 -2.2890 0.9368
-14.2056 8.4140 -2.3394 0.9355
-17.2460 6.4225 -2.6075 0.9283
-5.8650 -5.0716 -1.2773 0.9691
-5.6493 -5.8413 -1.3387 0.9676
-5.6106 -10.2380 -1.9233 0.9538
-2.1112 -14.4755 -2.4099 0.9424
-0.8493 -15.2308 -2.5130 0.9400
1.8647 -15.1401 -2.5130 0.9400
5.7984 -14.1095 -2.5130 0.9400
6.7423 -12.9812 -2.4098 0.9424
10.4788 -7.9024 -2.1621 0.9482
10.4815 -6.5280 -2.0342 0.9512
10.4840 -5.2978 -1.9351 0.9535
10.4862 -4.1734 -1.8593 0.9553
14.7655 -0.3290 -2.4331 0.9419
13.4654 6.0672 -2.4331 0.9419
12.1763 8.3586 -2.4331 0.9419
11.3841 9.4092 -2.4331 0.9419
10.4008 10.2856 -2.4098 0.9424
9.4441 11.1705 -2.4098 0.9424
3.8660 14.7564 -2.5130 0.9400
2.5373 15.0420 -2.5130 0.9400
1.1884 15.2081 -2.5130 0.9400
-4.0218 14.0650 -2.4099 0.9424
-5.2577 13.6512 -2.4099 0.9424
-7.5680 15.4004 -2.8268 0.9328
-9.7993 11.0802 -2.4368 0.9418
-12.2209 9.6507 -2.5653 0.9388
-17.1635 7.2779 -3.0712 0.9272
-17.3942 5.6089 -3.0108 0.9286
-5.6483 -5.3421 -1.2807 0.9690
-5.9597 -8.0886 -1.6551 0.9601
-5.6086 -9.2330 -1.7797 0.9572
-5.6129 -11.4220 -2.0966 0.9497
-5.2577 -13.6512 -2.4099 0.9424
1.1884 -15.2081 -2.5130 0.9400
3.8660 -14.7564 -2.5130 0.9400
10.4773 -8.6597 -2.2393 0.9464
10.4802 -7.1943 -2.0941 0.9498
10.4828 -5.8975 -1.9815 0.9524
10.4851 -4.7244 -1.8945 0.9544
10.4893 -2.6236 -1.7812 0.9571
14.7362 -0.9865 -2.4331 0.9419
14.7655 0.3290 -2.4331 0.9419
14.4732 2.9418 -2.4331 0.9419
14.1540 4.2183 -2.4331 0.9419
13.7223 5.4613 -2.4331 0.9419
12.5366 7.8079 -2.4331 0.9419
11.7919 8.8927 -2.4331 0.9419
9.9323 10.7387 -2.4098 0.9424
8.9371 11.5801 -2.4098 0.9424
6.7423 12.9812 -2.4098 0.9424
5.7984 14.1095 -2.5130 0.9400
3.2048 14.9140 -2.5130 0.9400
1.8647 15.1401 -2.5130 0.9400
0.5097 15.2459 -2.5130 0.9400
-0.8493 15.2308 -2.5130 0.9400
-2.1112 14.4755 -2.4099 0.9424
-3.3912 14.2302 -2.4099 0.9424
-7.7594 14.1591 -2.6599 0.9366
-8.2265 12.2748 -2.4343 0.9419
-9.5019 11.7606 -2.4908 0.9405
-10.1004 10.4437 -2.3935 0.9428
-11.6200 10.0482 -2.5307 0.9396
-12.5091 9.0035 -2.5390 0.9394
-13.7698 8.1559 -2.6365 0.9372
-18.9898 5.2018 -3.2436 0.9233
-5.6493 -5.8413 -1.5274 0.9675
-5.6069 -8.3660 -1.8930 0.9598
-5.1365 -11.7475 -2.4099 0.9492
-4.0705 -12.1581 -2.4099 0.9492
-2.9723 -12.4721 -2.4099 0.9492
0.4468 -13.3624 -2.5130 0.9470
5.0820 -12.3663 -2.5130 0.9470
6.1625 -11.8649 -2.5130 0.9470
6.8985 -10.8063 -2.4098 0.9492
7.8329 -10.1494 -2.4098 0.9492
8.7052 -9.4120 -2.4098 0.9492
10.4815 -6.5280 -2.3210 0.9510
10.4840 -5.2978 -2.2079 0.9533
10.4862 -4.1734 -2.1214 0.9551
10.4902 -2.1322 -2.0121 0.9574
12.9413 -0.2884 -2.4331 0.9487
12.9156 0.8646 -2.4331 0.9487
12.7874 2.0107 -2.4331 0.9487
12.2283 4.2461 -2.4331 0.9487
10.6720 7.3259 -2.4331 0.9487
9.8820 8.1677 -2.4098 0.9492
9.1158 9.0148 -2.4098 0.9492
7.3730 10.4883 -2.4098 0.9492
6.4700 11.2064 -2.4322 0.9487
5.6278 12.1277 -2.5130 0.9470
3.3884 12.9333 -2.5130 0.9470
2.2238 13.1836 -2.5130 0.9470
-0.1489 13.3690 -2.5130 0.9470
-1.3383 13.3027 -2.5130 0.9470
-4.6081 11.9647 -2.4099 0.9492
-7.6445 12.5845 -2.7676 0.9418
-5.5185 6.2399 -1.5657 0.9667
-10.4825 9.9143 -2.7120 0.9430
-12.4558 8.1483 -2.7977 0.9412
-14.2015 7.5781 -3.0256 0.9366
-5.6380 -6.3749 -1.5996 0.9660
-5.6054 -7.6077 -1.7762 0.9623
-5.6086 -9.2330 -2.0305 0.9570
-5.6129 -11.4220 -2.3921 0.9495
-4.6081 -11.9647 -2.4099 0.9492
-3.5249 -12.3273 -2.4099 0.9492
-1.3383 -13.3027 -2.5130 0.9470
-0.1489 -13.3690 -2.5130 0.9470
1.0416 -13.3292 -2.5130 0.9470
4.5261 -12.5804 -2.5130 0.9470
5.6278 -12.1277 -2.5130 0.9470
6.4700 -11.2064 -2.4322 0.9487
7.3730 -10.4883 -2.4098 0.9492
9.1158 -9.0148 -2.4098 0.9492
10.4828 -5.8975 -2.2608 0.9522
10.4872 -3.6416 -2.0866 0.9558
10.4893 -2.6236 -2.0323 0.9569
12.7874 -2.0107 -2.4331 0.9487
12.9413 0.2884 -2.4331 0.9487
12.8643 1.4391 -2.4331 0.9487
12.6851 2.5784 -2.4331 0.9487
12.4053 3.6972 -2.4331 0.9487
10.2361 7.7194 -2.4098 0.9492
9.5084 8.5998 -2.4098 0.9492
8.7052 9.4120 -2.4098 0.9492
7.8329 10.1494 -2.4098 0.9492
6.1625 11.8649 -2.5130 0.9470
3.9612 12.7696 -2.5130 0.9470
1.6343 13.2696 -2.5130 0.9470
0.4468 13.3624 -2.5130 0.9470
-0.7443 13.3491 -2.5130 0.9470
-1.8504 12.6871 -2.4099 0.9492
-2.9723 12.4721 -2.4099 0.9492
-4.0705 12.1581 -2.4099 0.9492
-7.4653 13.6225 -2.9198 0.9387
-11.9552 8.6048 -2.7686 0.9418
-14.7545 7.0477 -3.0734 0.9356
-16.0292 5.9693 -3.2150 0.9328
-18.9451 5.1896 -3.6921 0.9232
-5.6017 -5.7922 -1.7033 0.9676
-5.6040 -6.9362 -1.8849 0.9642
-5.6069 -8.3660 -2.1288 0.9597
-2.6430 -11.0903 -2.4099 0.9545
-0.6619 -11.8701 -2.5130 0.9526
1.4532 -11.7994 -2.5130 0.9526
2.4977 -11.6233 -2.5130 0.9526
3.5223 -11.3548 -2.5130 0.9526
5.4797 -10.5504 -2.5130 0.9526
6.9651 -9.0250 -2.4098 0.9545
7.7407 -8.3692 -2.4098 0.9545
9.1020 -6.8641 -2.4098 0.9545
9.6768 -6.0268 -2.4098 0.9545
11.4390 -1.2797 -2.4331 0.9540
11.5075 -0.2564 -2.4331 0.9540
11.4847 0.7688 -2.4331 0.9540
11.3707 1.7879 -2.4331 0.9540
10.8735 3.7757 -2.4331 0.9540
10.3938 4.6832 -2.4098 0.9545
9.9357 5.5897 -2.4098 0.9545
8.1059 8.0161 -2.4098 0.9545
5.0043 10.7840 -2.5130 0.9526
3.0130 11.5004 -2.5130 0.9526
1.9774 11.7230 -2.5130 0.9526
-0.1324 11.8879 -2.5130 0.9526
-1.1900 11.8289 -2.5130 0.9526
-5.0282 10.2322 -2.4099 0.9545
-7.3701 12.1328 -3.0007 0.9436
-8.0746 10.9589 -2.8774 0.9459
-11.0188 8.7014 -2.9678 0.9442
-11.8127 7.7275 -2.9838 0.9439
-13.7730 5.8403 -3.1623 0.9407
-15.5869 5.0261 -3.4618 0.9352
-5.6028 -6.3352 -1.7877 0.9660
-5.6054 -7.6076 -1.9975 0.9621
-4.0976 -10.6391 -2.4099 0.9545
-3.1344 -10.9616 -2.4099 0.9545
-2.1463 -11.1970 -2.4099 0.9545
-1.1900 -11.8289 -2.5130 0.9526
-0.1324 -11.8879 -2.5130 0.9526
1.9774 -11.7230 -2.5130 0.9526
4.0246 -11.1866 -2.5130 0.9526
5.9443 -10.2958 -2.5130 0.9526
6.5562 -9.3263 -2.4098 0.9545
8.1059 -8.0161 -2.4098 0.9545
9.9357 -5.5897 -2.4098 0.9545
10.3938 -4.6832 -2.4098 0.9545
10.4872 -3.6416 -2.3466 0.9556
10.4893 -2.6236 -2.2855 0.9568
11.3707 -1.7879 -2.4331 0.9540
10.1748 5.1416 -2.4098 0.9545
9.6768 6.0268 -2.4098 0.9545
8.4549 7.6470 -2.4098 0.9545
7.7408 8.3692 -2.4098 0.9545
6.9651 9.0250 -2.4098 0.9545
6.3971 10.0208 -2.5130 0.9526
4.5190 10.9963 -2.5130 0.9526
3.5223 11.3548 -2.5130 0.9526
2.4977 11.6232 -2.5130 0.9526
-4.5674 10.4460 -2.4099 0.9545
-5.4791 9.9980 -2.4099 0.9545
-8.4685 10.4816 -2.8484 0.9464
-14.4234 5.3713 -3.2534 0.9390
-5.7159 -4.1140 -1.6551 0.9715
-5.5999 -4.8424 -1.7399 0.9700
-5.6017 -5.7922 -1.8938 0.9674
-5.6040 -6.9362 -2.0957 0.9640
-5.6069 -8.3660 -2.3669 0.9595
-4.1080 -9.3951 -2.4099 0.9587
-3.2554 -9.7235 -2.4099 0.9587
-2.3771 -9.9746 -2.4099 0.9587
0.3573 -10.6866 -2.5130 0.9570
1.3070 -10.6124 -2.5130 0.9570
3.1680 -10.2125 -2.5130 0.9570
4.0644 -9.8900 -2.5130 0.9570
6.9620 -7.5273 -2.4098 0.9587
8.1863 -6.1736 -2.4098 0.9587
8.7033 -5.4205 -2.4098 0.9587
9.1512 -4.6243 -2.4098 0.9587
10.0478 -2.0423 -2.4098 0.9587
10.1897 -1.1399 -2.4098 0.9587
10.2507 -0.2284 -2.4098 0.9587
9.9469 2.4879 -2.4098 0.9587
9.6860 3.3633 -2.4098 0.9587
8.9362 5.0274 -2.4098 0.9587
7.9032 6.5322 -2.4098 0.9587
7.2904 7.2097 -2.4098 0.9587
6.6198 7.8300 -2.4098 0.9587
6.1493 8.7475 -2.5130 0.9570
4.5009 9.6992 -2.5130 0.9570
3.6198 10.0613 -2.5130 0.9570
-1.9304 10.0706 -2.4099 0.9587
-2.8191 9.8588 -2.4099 0.9587
-5.3236 8.7638 -2.4099 0.9587
-12.6314 5.3562 -3.2245 0.9452
-13.9798 4.5079 -3.4522 0.9414
-5.8935 -3.8553 -1.6551 0.9715
-5.6028 -6.3352 -1.9877 0.9658
-2.8191 -9.8588 -2.4099 0.9587
-1.0703 -10.6389 -2.5130 0.9570
-0.1191 -10.6920 -2.5130 0.9570
0.8330 -10.6601 -2.5130 0.9570
1.7785 -10.5437 -2.5130 0.9570
4.5009 -9.6992 -2.5130 0.9570
6.1493 -8.7475 -2.5130 0.9570
6.6198 -7.8299 -2.4098 0.9587
7.2904 -7.2097 -2.4098 0.9587
7.9032 -6.5322 -2.4098 0.9587
8.4532 -5.8028 -2.4098 0.9587
9.6860 -3.3633 -2.4098 0.9587
10.2507 0.2284 -2.4098 0.9587
10.1897 1.1399 -2.4098 0.9587
10.0478 2.0423 -2.4098 0.9587
9.8262 2.9285 -2.4098 0.9587
9.1513 4.6243 -2.4098 0.9587
8.7033 5.4205 -2.4098 0.9587
7.6044 6.8777 -2.4098 0.9587
6.9620 7.5273 -2.4098 0.9587
4.9285 9.4890 -2.5130 0.9570
4.0644 9.8900 -2.5130 0.9570
2.2464 10.4540 -2.5130 0.9570
1.3070 10.6124 -2.5130 0.9570
-1.5431 10.5807 -2.5130 0.9570
-3.2554 9.7235 -2.4099 0.9587
-4.9279 8.9922 -2.4099 0.9587
-7.2171 10.7686 -3.0467 0.9481
-7.9812 9.8785 -2.9847 0.9492
-5.5009 3.9593 -1.5929 0.9725
-15.4682 4.2372 -3.7693 0.9362
-5.1818 -7.7318 -2.4099 0.9623
-4.4731 -8.1623 -2.4099 0.9623
-3.7288 -8.5281 -2.4099 0.9623
-2.9550 -8.8261 -2.4099 0.9623
-0.5404 -9.6908 -2.5130 0.9607
4.4737 -8.6133 -2.5130 0.9607
5.9299 -7.6837 -2.5130 0.9607
6.9026 -6.2430 -2.4098 0.9623
8.3067 -4.1976 -2.4098 0.9623
8.6473 -3.4416 -2.4098 0.9623
9.1205 -1.8538 -2.4098 0.9623
9.0289 2.2583 -2.4098 0.9623
8.7921 3.0529 -2.4098 0.9623
8.4855 3.8234 -2.4098 0.9623
8.1115 4.5634 -2.4098 0.9623
7.6731 5.2673 -2.4098 0.9623
6.2663 7.4119 -2.5130 0.9607
5.5818 7.9402 -2.5130 0.9607
4.8529 8.4055 -2.5130 0.9607
4.0855 8.8041 -2.5130 0.9607
2.4598 9.3889 -2.5130 0.9607
1.6144 9.5706 -2.5130 0.9607
0.7561 9.6763 -2.5130 0.9607
-0.1081 9.7052 -2.5130 0.9607
-2.5589 8.9490 -2.4099 0.9623
-4.8323 7.9550 -2.4099 0.9623
-9.4041 7.4264 -3.1026 0.9517
-10.2252 6.6890 -3.1637 0.9508
-10.8948 5.8136 -3.1973 0.9503
-11.7641 4.9884 -3.3085 0.9486
-12.8976 4.1589 -3.5087 0.9455
-5.5975 -3.6617 -1.7319 0.9727
-5.6028 -6.3352 -2.1898 0.9657
-5.5211 -7.4933 -2.4099 0.9623
-4.8323 -7.9550 -2.4099 0.9623
-4.1050 -8.3535 -2.4099 0.9623
-2.5589 -8.9490 -2.4099 0.9623
-1.7522 -9.1412 -2.4099 0.9623
-0.9715 -9.6571 -2.5130 0.9607
1.6144 -9.5706 -2.5130 0.9607
3.2857 -9.1328 -2.5130 0.9607
4.0855 -8.8041 -2.5130 0.9607
4.8529 -8.4055 -2.5130 0.9607
5.5818 -7.9402 -2.5130 0.9607
6.6176 -6.5443 -2.4098 0.9623
7.6731 -5.2673 -2.4098 0.9623
8.1115 -4.5634 -2.4098 0.9623
6.7779 -3.0540 -1.9248 0.9697
8.7921 -3.0529 -2.4098 0.9623
9.0289 -2.2583 -2.4098 0.9623
9.1941 -1.4457 -2.4098 0.9623
9.3047 0.2074 -2.4098 0.9623
9.1205 1.8538 -2.4098 0.9623
8.9193 2.6582 -2.4098 0.9623
8.3067 4.1976 -2.4098 0.9623
7.4309 5.6039 -2.4098 0.9623
6.9026 6.2430 -2.4098 0.9623
5.2225 8.1809 -2.5130 0.9607
4.4737 8.6133 -2.5130 0.9607
3.6893 8.9773 -2.5130 0.9607
2.8756 9.2700 -2.5130 0.9607
1.1864 9.6330 -2.5130 0.9607
0.3243 9.7004 -2.5130 0.9607
-0.5403 9.6908 -2.5130 0.9607
-1.4007 9.6042 -2.5130 0.9607
-2.9550 8.8261 -2.4099 0.9623
-3.7288 8.5281 -2.4099 0.9623
-4.4731 8.1623 -2.4099 0.9623
-9.8183 7.0668 -3.1321 0.9512
-10.5791 6.2660 -3.1835 0.9505
-12.2928 4.5779 -3.3964 0.9472
-13.5410 3.7093 -3.6352 0.9436
-5.5228 -0.0000 -1.5635 0.9773
-5.5017 -0.4917 -1.5637 0.9773
-5.5018 -0.9912 -1.5826 0.9770
-5.5982 -4.0294 -1.9526 0.9717
-5.5999 -4.8424 -2.0958 0.9697
-5.6017 -5.7922 -2.2811 0.9671
-5.3499 -6.6217 -2.4099 0.9652
-4.7393 -7.0716 -2.4099 0.9652
-4.0911 -7.4653 -2.4099 0.9652
-2.7027 -8.0724 -2.4099 0.9652
1.0851 -8.8104 -2.5130 0.9638
1.8650 -8.6789 -2.5130 0.9638
4.0916 -7.8778 -2.5130 0.9638
5.4236 -7.0275 -2.5130 0.9638
6.0275 -6.5169 -2.5130 0.9638
6.4630 -5.8454 -2.4670 0.9644
6.7963 -5.1253 -2.4098 0.9652
8.1577 -2.4312 -2.4098 0.9652
8.3417 -1.6955 -2.4098 0.9652
8.4595 -0.9463 -2.4098 0.9652
8.4932 0.5686 -2.4098 0.9652
8.4089 1.3222 -2.4098 0.9652
8.2579 2.0654 -2.4098 0.9652
8.0413 2.7922 -2.4098 0.9652
6.5612 5.4230 -2.4098 0.9652
6.3118 6.2419 -2.5130 0.9638
5.1051 7.2621 -2.5130 0.9638
4.4385 7.6877 -2.5130 0.9638
3.7366 8.0522 -2.5130 0.9638
3.0051 8.3529 -2.5130 0.9638
1.4765 8.7533 -2.5130 0.9638
-0.0989 8.8764 -2.5130 0.9638
-1.6026 8.3606 -2.4099 0.9652
-2.3404 8.1848 -2.4099 0.9652
-3.7545 7.6402 -2.4099 0.9652
-4.4196 7.2757 -2.4099 0.9652
-9.5203 6.2279 -3.2206 0.9538
-11.0303 4.6772 -3.3917 0.9514
-11.9714 3.8603 -3.5609 0.9491
-5.5014 1.2464 -1.5969 0.9768
-5.5015 0.7398 -1.5715 0.9772
-5.5176 0.2460 -1.5636 0.9773
-5.5017 -0.7400 -1.5715 0.9772
-5.5962 -2.9862 -1.7957 0.9740
-5.5990 -4.4215 -2.0197 0.9708
-5.6028 -6.3352 -2.3942 0.9655
-4.4196 -7.2757 -2.4099 0.9652
-3.0596 -7.9440 -2.4099 0.9652
-2.3404 -8.1848 -2.4099 0.9652
-0.8885 -8.8324 -2.5130 0.9638
-0.0989 -8.8764 -2.5130 0.9638
3.0051 -8.3528 -2.5130 0.9638
4.4385 -7.6877 -2.5130 0.9638
5.1051 -7.2621 -2.5130 0.9638
6.5612 -5.4230 -2.4098 0.9652
7.0179 -4.8175 -2.4098 0.9652
7.4188 -4.1737 -2.4098 0.9652
6.7821 -3.0559 -2.1059 0.9695
8.0413 -2.7922 -2.4098 0.9652
8.4089 -1.3222 -2.4098 0.9652
8.5101 0.1896 -2.4098 0.9652
8.3417 1.6955 -2.4098 0.9652
8.1577 2.4312 -2.4098 0.9652
7.2255 4.5001 -2.4098 0.9652
6.7963 5.1253 -2.4098 0.9652
6.0275 6.5169 -2.5130 0.9638
5.4236 7.0275 -2.5130 0.9638
4.7765 7.4823 -2.5130 0.9638
3.3742 8.2107 -2.5130 0.9638
1.8650 8.6788 -2.5130 0.9638
0.2966 8.8720 -2.5130 0.9638
-3.4104 7.7998 -2.4099 0.9652
-4.0911 7.4653 -2.4099 0.9652
-5.3499 6.6217 -2.4099 0.9652
-7.6037 7.8621 -3.0963 0.9555
-5.5082 3.2625 -1.8123 0.9737
-10.6039 5.0651 -3.3268 0.9523
-5.5015 0.4916 -1.5637 0.9773
-18.9582 0.0000 -5.8311 0.9237
-5.5944 -2.0834 -1.8362 0.9753
-5.5956 -2.6728 -1.9073 0.9744
-5.5982 -4.0294 -2.1215 0.9715
-5.5999 -4.8424 -2.2771 0.9695
-5.4469 -5.6321 -2.4099 0.9677
-4.3620 -6.5086 -2.4099 0.9677
-2.4875 -7.4298 -2.4099 0.9677
-1.8163 -7.6217 -2.4099 0.9677
-0.4549 -8.1576 -2.5130 0.9664
0.2730 -8.1657 -2.5130 0.9664
0.9987 -8.1090 -2.5130 0.9664
1.7165 -7.9879 -2.5130 0.9664
2.4207 -7.8035 -2.5130 0.9664
4.3963 -6.8867 -2.5130 0.9664
5.5477 -5.9981 -2.5130 0.9664
6.0595 -5.4805 -2.5130 0.9664
6.9925 -3.5335 -2.4098 0.9677
7.2793 -2.8971 -2.4098 0.9677
7.5083 -2.2377 -2.4098 0.9677
7.6776 -1.5605 -2.4098 0.9677
7.7860 -0.8710 -2.4098 0.9677
7.8327 -0.1746 -2.4098 0.9677
7.7395 1.2170 -2.4098 0.9677
7.6005 1.9010 -2.4098 0.9677
7.4011 2.5699 -2.4098 0.9677
7.1430 3.2185 -2.4098 0.9677
6.4743 4.4444 -2.4154 0.9677
5.8094 5.7450 -2.5130 0.9664
5.2750 6.2393 -2.5130 0.9664
3.4392 7.4112 -2.5130 0.9664
2.7659 7.6879 -2.5130 0.9664
1.3590 8.0565 -2.5130 0.9664
0.6365 8.1455 -2.5130 0.9664
-0.0910 8.1698 -2.5130 0.9664
-2.1541 7.5332 -2.4099 0.9677
-3.4556 7.0320 -2.4099 0.9677
-8.9280 5.8405 -3.2815 0.9563
-9.6356 5.1417 -3.3593 0.9553
-10.4000 4.4100 -3.4745 0.9538
-11.1981 3.6109 -3.6189 0.9520
-18.8777 0.8418 -5.8121 0.9240
-5.5975 -3.6617 -2.0573 0.9724
-5.5990 -4.4215 -2.1944 0.9706
-5.6008 -5.2972 -2.3711 0.9683
-5.1906 -5.8691 -2.4099 0.9677
-4.6476 -6.3078 -2.4099 0.9677
-2.1541 -7.5332 -2.4099 0.9677
-0.8178 -8.1293 -2.5130 0.9664
-0.0910 -8.1698 -2.5130 0.9664
0.6365 -8.1455 -2.5130 0.9664
1.3590 -8.0565 -2.5130 0.9664
2.7659 -7.6879 -2.5130 0.9664
4.0851 -7.0757 -2.5130 0.9664
5.2750 -6.2393 -2.5130 0.9664
6.2976 -5.2051 -2.5130 0.9664
6.8282 -3.8415 -2.4098 0.9677
6.7821 -3.0559 -2.2880 0.9693
7.6005 -1.9010 -2.4098 0.9677
7.8171 -0.5233 -2.4098 0.9677
7.8327 0.1746 -2.4098 0.9677
7.6776 1.5605 -2.4098 0.9677
7.5082 2.2377 -2.4098 0.9677
6.6503 4.1418 -2.4098 0.9677
6.0595 5.4805 -2.5130 0.9664
5.5477 5.9981 -2.5130 0.9664
4.9918 6.4680 -2.5130 0.9664
4.3963 6.8867 -2.5130 0.9664
3.7659 7.2506 -2.5130 0.9664
2.4207 7.8035 -2.5130 0.9664
0.2730 8.1657 -2.5130 0.9664
-0.4549 8.1576 -2.5130 0.9664
-1.1791 8.0848 -2.5130 0.9664
-1.8163 7.6217 -2.4099 0.9677
-3.1389 7.1789 -2.4099 0.9677
-4.3620 6.5086 -2.4099 0.9677
-7.8807 6.8147 -3.2045 0.9573
-8.6052 6.1936 -3.2611 0.9566
-10.7987 4.0215 -3.5443 0.9529
-18.7797 1.6782 -5.7992 0.9241
-18.5786 0.0000 -6.1756 0.9247
-5.5944 -2.0834 -1.9844 0.9752
-5.5956 -2.6728 -2.0613 0.9742
-5.5968 -3.3150 -2.1623 0.9730
-5.4839 -4.7421 -2.4099 0.9699
-5.0401 -5.2114 -2.4099 0.9699
-3.4842 -6.3578 -2.4099 0.9699
-2.3017 -6.8749 -2.4099 0.9699
-1.6807 -7.0524 -2.4099 0.9699
-0.4209 -7.5483 -2.5130 0.9686
1.5883 -7.3913 -2.5130 0.9686
2.2399 -7.2206 -2.5130 0.9686
2.8736 -6.9926 -2.5130 0.9686
3.4846 -6.7091 -2.5130 0.9686
4.6190 -5.9850 -2.5130 0.9686
5.1333 -5.5501 -2.5130 0.9686
6.0360 -4.5520 -2.5130 0.9686
6.4172 -3.9967 -2.5130 0.9686
6.4753 -3.2721 -2.4116 0.9699
6.7356 -2.6807 -2.4098 0.9699
7.2045 -0.8060 -2.4098 0.9699
7.2333 0.4842 -2.4098 0.9699
7.1615 1.1261 -2.4098 0.9699
6.6095 2.9781 -2.4098 0.9699
6.4630 3.6360 -2.4650 0.9692
5.8273 4.8164 -2.5130 0.9686
4.8810 5.7733 -2.5130 0.9686
3.7800 6.5472 -2.5130 0.9686
1.9160 7.3132 -2.5130 0.9686
1.2575 7.4548 -2.5130 0.9686
0.5890 7.5371 -2.5130 0.9686
-0.0842 7.5596 -2.5130 0.9686
-0.7567 7.5221 -2.5130 0.9686
-1.4232 7.4249 -2.5130 0.9686
-1.9932 6.9706 -2.4099 0.9699
-2.6057 6.7655 -2.4099 0.9699
-3.1975 6.5067 -2.4099 0.9699
-3.7639 6.1963 -2.4099 0.9699
-4.3005 5.8367 -2.4099 0.9699
-5.2672 4.9817 -2.4099 0.9699
-8.4128 5.5034 -3.3417 0.9585
-9.1296 4.8717 -3.4397 0.9573
-10.5927 3.4157 -3.6996 0.9542
-15.9332 2.1428 -5.3440 0.9345
-18.8563 -0.8409 -6.2742 0.9235
-5.6915 -1.8353 -1.9878 0.9751
-5.5962 -2.9862 -2.1085 0.9736
-5.5990 -4.4215 -2.3715 0.9704
-5.2672 -4.9817 -2.4099 0.9699
-4.8029 -5.4308 -2.4099 0.9699
-4.3005 -5.8367 -2.4099 0.9699
-3.7639 -6.1963 -2.4099 0.9699
-3.1975 -6.5067 -2.4099 0.9699
-2.6057 -6.7655 -2.4099 0.9699
-1.4232 -7.4249 -2.5130 0.9686
-0.0842 -7.5596 -2.5130 0.9686
0.5890 -7.5371 -2.5130 0.9686
1.9160 -7.3132 -2.5130 0.9686
4.3478 -6.1848 -2.5130 0.9686
5.3755 -5.3159 -2.5130 0.9686
6.2328 -4.2786 -2.5130 0.9686
6.6095 -2.9781 -2.4098 0.9699
6.8483 -2.3780 -2.4098 0.9699
7.2333 -0.4842 -2.4098 0.9699
7.2477 0.1615 -2.4098 0.9699
7.2045 0.8059 -2.4098 0.9699
6.7356 2.6807 -2.4098 0.9699
6.4753 3.2721 -2.4116 0.9699
5.6069 5.0712 -2.5130 0.9686
4.6190 5.9850 -2.5130 0.9686
4.0679 6.3723 -2.5130 0.9686
3.4846 6.7091 -2.5130 0.9686
2.2399 7.2206 -2.5130 0.9686
0.9241 7.5034 -2.5130 0.9686
-0.4209 7.5483 -2.5130 0.9686
-1.6807 7.0524 -2.4099 0.9699
-3.4842 6.3578 -2.4099 0.9699
-4.0362 6.0225 -2.4099 0.9699
-8.7721 5.1957 -3.3890 0.9579
-9.4842 4.5302 -3.4938 0.9567
-5.5111 2.0523 -1.9548 0.9755
-12.8056 2.3070 -4.3252 0.9466
-18.5278 1.6556 -6.1833 0.9246
-5.4696 -3.9368 -2.4099 0.9718
-5.0975 -4.4079 -2.4099 0.9718
-4.2352 -5.2419 -2.4099 0.9718
-3.7518 -5.5980 -2.4099 0.9718
-3.2386 -5.9098 -2.4099 0.9718
-2.6998 -6.1746 -2.4099 0.9718
-2.1395 -6.3904 -2.4099 0.9718
-1.0142 -6.9537 -2.5130 0.9706
-0.3912 -7.0164 -2.5130 0.9706
1.4764 -6.8705 -2.5130 0.9706
2.0820 -6.7118 -2.5130 0.9706
3.2390 -6.2363 -2.5130 0.9706
4.7716 -5.1590 -2.5130 0.9706
5.6107 -4.2312 -2.5130 0.9706
5.9650 -3.7150 -2.5130 0.9706
6.2720 -3.1694 -2.5130 0.9706
6.4742 -1.9295 -2.4159 0.9717
6.6035 -1.3422 -2.4098 0.9718
6.6968 -0.7491 -2.4098 0.9718
6.7369 -0.1501 -2.4098 0.9718
5.4166 4.4770 -2.5130 0.9706
4.0414 5.7489 -2.5130 0.9706
3.5136 6.0858 -2.5130 0.9706
2.9580 6.3744 -2.5130 0.9706
2.3789 6.6124 -2.5130 0.9706
1.7810 6.7979 -2.5130 0.9706
0.5475 7.0059 -2.5130 0.9706
-0.0783 7.0269 -2.5130 0.9706
-1.3229 6.9016 -2.5130 0.9706
-3.4987 5.7596 -2.4099 0.9718
-3.9974 5.4254 -2.4099 0.9718
-4.4645 5.0480 -2.4099 0.9718
-5.2888 4.1765 -2.4099 0.9718
-7.9970 5.2314 -3.4173 0.9602
-8.6657 4.6242 -3.5125 0.9591
-10.0763 3.2492 -3.7860 0.9560
-5.5014 1.2464 -2.0172 0.9763
-18.4341 0.8220 -6.5987 0.9246
-18.6310 -2.5057 -6.7226 0.9232
-5.5950 -2.3725 -2.1732 0.9745
-5.5962 -2.9862 -2.2683 0.9734
-5.2888 -4.1765 -2.4099 0.9718
-4.8961 -4.6307 -2.4099 0.9718
-3.9974 -5.4254 -2.4099 0.9718
-3.4987 -5.7596 -2.4099 0.9718
-2.9722 -6.0482 -2.4099 0.9718
-2.4221 -6.2887 -2.4099 0.9718
-1.3229 -6.9016 -2.5130 0.9706
-0.7034 -6.9920 -2.5130 0.9706
-0.0783 -7.0269 -2.5130 0.9706
0.5474 -7.0059 -2.5130 0.9706
1.7810 -6.7979 -2.5130 0.9706
2.3789 -6.6124 -2.5130 0.9706
4.9966 -4.9413 -2.5130 0.9706
5.7936 -3.9771 -2.5130 0.9706
6.1246 -3.4456 -2.5130 0.9706
6.4069 -2.8868 -2.5130 0.9706
6.5372 -1.6351 -2.4098 0.9718
6.6748 -1.0496 -2.4163 0.9717
6.6035 1.3422 -2.4098 0.9718
6.4742 1.9295 -2.4159 0.9717
6.4630 2.5722 -2.4875 0.9709
5.9650 3.7150 -2.5130 0.9706
5.6107 4.2312 -2.5130 0.9706
5.2118 4.7138 -2.5130 0.9706
4.7716 5.1590 -2.5130 0.9706
4.2935 5.5632 -2.5130 0.9706
3.2391 6.2363 -2.5130 0.9706
1.4764 6.8704 -2.5130 0.9706
0.2348 7.0234 -2.5130 0.9706
-1.0142 6.9537 -2.5130 0.9706
-2.6998 6.1746 -2.4099 0.9718
-3.2386 5.9098 -2.4099 0.9718
-3.7518 5.5980 -2.4099 0.9718
-5.4696 3.9368 -2.4099 0.9718
-8.9960 4.2970 -3.5652 0.9585
-9.6495 3.5935 -3.6823 0.9572
-11.7913 2.1243 -4.2845 0.9504
-5.5165 0.4929 -1.9806 0.9767
-5.5944 -2.0834 -2.2877 0.9748
-5.1040 -3.6737 -2.4099 0.9734
-4.7568 -4.1134 -2.4099 0.9734
-3.9521 -4.8916 -2.4099 0.9734
-3.0222 -5.5148 -2.4099 0.9734
-0.3651 -6.5475 -2.5130 0.9723
0.8016 -6.5085 -2.5130 0.9723
1.3777 -6.4113 -2.5130 0.9723
1.9429 -6.2632 -2.5130 0.9723
2.4926 -6.0654 -2.5130 0.9723
3.0226 -5.8195 -2.5130 0.9723
4.0065 -5.1914 -2.5130 0.9723
4.4527 -4.8142 -2.5130 0.9723
4.8635 -4.3988 -2.5130 0.9723
5.5664 -3.4668 -2.5130 0.9723
5.8528 -2.9576 -2.5130 0.9723
6.0928 -2.4249 -2.5130 0.9723
6.4630 0.4327 -2.4823 0.9726
6.4630 1.0163 -2.5072 0.9724
6.1948 2.1511 -2.5130 0.9723
4.6627 4.6111 -2.5130 0.9723
4.2338 5.0078 -2.5130 0.9723
3.7713 5.3647 -2.5130 0.9723
3.2788 5.6791 -2.5130 0.9723
2.2199 6.1704 -2.5130 0.9723
1.6619 6.3436 -2.5130 0.9723
1.0907 6.4663 -2.5130 0.9723
-0.0731 6.5573 -2.5130 0.9723
-1.2345 6.4404 -2.5130 0.9723
-2.7735 5.6440 -2.4099 0.9734
-3.2649 5.3747 -2.4099 0.9734
-3.7303 5.0628 -2.4099 0.9734
-4.9353 3.8974 -2.4099 0.9734
-5.5481 2.9606 -2.4099 0.9734
-11.8870 1.5987 -4.5963 0.9499
-5.6915 -1.8353 -2.2917 0.9747
-5.5950 -2.3725 -2.3289 0.9743
-4.1661 -4.7107 -2.4099 0.9734
-2.7735 -5.6440 -2.4099 0.9734
-2.2602 -5.8684 -2.4099 0.9734
-1.7289 -6.0463 -2.4099 0.9734
-1.2345 -6.4404 -2.5130 0.9723
0.5109 -6.5377 -2.5130 0.9723
1.0907 -6.4663 -2.5130 0.9723
2.2199 -6.1705 -2.5130 0.9723
2.7603 -5.9484 -2.5130 0.9723
3.2788 -5.6791 -2.5130 0.9723
3.7713 -5.3647 -2.5130 0.9723
5.0546 -4.1777 -2.5130 0.9723
5.4064 -3.7113 -2.5130 0.9723
5.9788 -2.6939 -2.5130 0.9723
6.1948 -2.1511 -2.5130 0.9723
6.3617 -1.5912 -2.5130 0.9723
6.4630 -1.0163 -2.5072 0.9724
6.4630 0.1440 -2.4773 0.9727
6.4630 0.7230 -2.4922 0.9725
6.4262 1.3062 -2.5130 0.9723
6.2845 1.8730 -2.5130 0.9723
6.0928 2.4249 -2.5130 0.9723
5.5664 3.4668 -2.5130 0.9723
5.2357 3.9484 -2.5130 0.9723
4.8635 4.3988 -2.5130 0.9723
4.4527 4.8142 -2.5130 0.9723
4.0065 5.1914 -2.5130 0.9723
3.5286 5.5274 -2.5130 0.9723
3.0226 5.8195 -2.5130 0.9723
2.4926 6.0654 -2.5130 0.9723
1.3777 6.4113 -2.5130 0.9723
0.8016 6.5085 -2.5130 0.9723
0.2191 6.5540 -2.5130 0.9723
-1.9965 5.9633 -2.4099 0.9734
-3.9521 4.8916 -2.4099 0.9734
-4.3718 4.5204 -2.4099 0.9734
-4.7568 4.1134 -2.4099 0.9734
-5.1040 3.6737 -2.4099 0.9734
-8.5481 4.0831 -3.6303 0.9602
-11.1072 2.0011 -4.3250 0.9528
-14.2633 1.2746 -5.4877 0.9405
-4.4540 -3.8515 -2.4099 0.9749
-2.8298 -5.1637 -2.4099 0.9749
-1.8694 -5.5836 -2.4099 0.9749
-0.8861 -6.0759 -2.5130 0.9738
-0.3418 -6.1306 -2.5130 0.9738
2.8301 -5.4490 -2.5130 0.9738
3.3039 -5.1755 -2.5130 0.9738
3.7514 -4.8609 -2.5130 0.9738
4.1692 -4.5077 -2.5130 0.9738
4.9024 -3.6971 -2.5130 0.9738
5.2120 -3.2461 -2.5130 0.9738
5.7049 -2.2705 -2.5130 0.9738
6.1021 -0.6826 -2.5130 0.9738
6.1386 -0.1368 -2.5130 0.9738
6.1264 0.4101 -2.5130 0.9738
6.0656 0.9538 -2.5130 0.9738
5.8004 2.0141 -2.5130 0.9738
5.0622 3.4750 -2.5130 0.9738
3.0701 5.3175 -2.5130 0.9738
2.5846 5.5697 -2.5130 0.9738
1.0213 6.0546 -2.5130 0.9738
0.4783 6.1215 -2.5130 0.9738
-0.0684 6.1398 -2.5130 0.9738
-0.6146 6.1093 -2.5130 0.9738
-1.1559 6.0304 -2.5130 0.9738
-2.1163 5.4948 -2.4099 0.9749
-3.0570 5.0325 -2.4099 0.9749
-3.9009 4.4108 -2.4099 0.9749
-4.2780 4.0461 -2.4099 0.9749
-1.6301 0.2192 -0.6732 0.9929
-1.6301 -0.2192 -0.6732 0.9929
-1.6146 -0.3658 -0.6776 0.9929
-1.5889 -0.5124 -0.6833 0.9928
-5.4210 -2.2987 -2.4099 0.9749
-4.9276 -3.2235 -2.4099 0.9749
-4.2780 -4.0461 -2.4099 0.9749
-2.5970 -5.2846 -2.4099 0.9749
-2.1163 -5.4948 -2.4099 0.9749
-1.6188 -5.6613 -2.4099 0.9749
-0.6146 -6.1093 -2.5130 0.9738
-0.0684 -6.1398 -2.5130 0.9738
1.0213 -6.0546 -2.5130 0.9738
1.5561 -5.9397 -2.5130 0.9738
2.0786 -5.7776 -2.5130 0.9738
4.7328 -3.9118 -2.5130 0.9738
5.3514 -3.0106 -2.5130 0.9738
5.8004 -2.0141 -2.5130 0.9738
6.0656 -0.9538 -2.5130 0.9738
6.1264 -0.4101 -2.5130 0.9738
6.1021 0.6826 -2.5130 0.9738
6.0171 1.2230 -2.5130 0.9738
5.2120 3.2460 -2.5130 0.9738
4.9024 3.6971 -2.5130 0.9738
4.5539 4.1187 -2.5130 0.9738
4.1692 4.5077 -2.5130 0.9738
3.7514 4.8609 -2.5130 0.9738
2.8301 5.4490 -2.5130 0.9738
2.3339 5.6793 -2.5130 0.9738
1.2900 6.0031 -2.5130 0.9738
-0.8861 6.0759 -2.5130 0.9738
-2.3590 5.3951 -2.4099 0.9749
-3.2782 4.8913 -2.4099 0.9749
-4.0935 4.2326 -2.4099 0.9749
-4.4540 3.8515 -2.4099 0.9749
-5.5180 2.0549 -2.4099 0.9749
-1.6035 0.4392 -0.6804 0.9928
-1.5266 0.0000 -0.6653 0.9934
-1.5215 -0.1360 -0.6657 0.9934
-5.1820 -1.9298 -2.4099 0.9762
-4.7577 -2.8180 -2.4099 0.9762
-4.1827 -3.6169 -2.4099 0.9762
-3.8442 -3.9748 -2.4099 0.9762
-3.4751 -4.3012 -2.4099 0.9762
-2.6575 -4.8492 -2.4099 0.9762
-1.3367 -5.6091 -2.5130 0.9752
-0.8322 -5.7058 -2.5130 0.9752
0.7049 -5.7230 -2.5130 0.9752
1.2114 -5.6375 -2.5130 0.9752
3.1027 -4.8603 -2.5130 0.9752
3.5230 -4.5648 -2.5130 0.9752
4.2765 -3.8679 -2.5130 0.9752
4.6038 -3.4719 -2.5130 0.9752
5.1464 -2.6006 -2.5130 0.9752
5.5260 -1.6469 -2.5130 0.9752
5.6507 -1.1486 -2.5130 0.9752
5.7648 -0.1285 -2.5130 0.9752
5.7533 0.3851 -2.5130 0.9752
5.6962 0.8957 -2.5130 0.9752
5.5939 1.3991 -2.5130 0.9752
5.2572 2.3688 -2.5130 0.9752
5.0255 2.8273 -2.5130 0.9752
4.7539 3.2634 -2.5130 0.9752
4.4446 3.6735 -2.5130 0.9752
3.3161 4.7173 -2.5130 0.9752
2.4272 5.2305 -2.5130 0.9752
1.9520 5.4257 -2.5130 0.9752
1.4614 5.5779 -2.5130 0.9752
0.9591 5.6859 -2.5130 0.9752
-0.0642 5.7658 -2.5130 0.9752
-2.4388 4.9628 -2.4099 0.9762
-2.8708 4.7260 -2.4099 0.9762
-4.0174 3.7997 -2.4099 0.9762
-4.3397 3.4270 -2.4099 0.9762
-4.6275 3.0271 -2.4099 0.9762
-5.0909 2.1587 -2.4099 0.9762
-1.4861 0.4792 -0.6805 0.9932
-1.5259 0.0680 -0.6657 0.9934
-1.5259 -0.0680 -0.6657 0.9934
-4.8785 -2.6033 -2.4099 0.9762
-3.6633 -4.1421 -2.4099 0.9762
-3.2801 -4.4518 -2.4099 0.9762
-2.8708 -4.7260 -2.4099 0.9762
-2.4388 -4.9628 -2.4099 0.9762
-1.5829 -5.5359 -2.5093 0.9752
-0.5772 -5.7372 -2.5130 0.9752
-0.0642 -5.7658 -2.5130 0.9752
2.8831 -4.9937 -2.5130 0.9752
3.7228 -4.4034 -2.5130 0.9752
4.4446 -3.6735 -2.5130 0.9752
4.7539 -3.2634 -2.5130 0.9752
5.0255 -2.8273 -2.5130 0.9752
5.2572 -2.3688 -2.5130 0.9752
5.4472 -1.8915 -2.5130 0.9752
5.5939 -1.3991 -2.5130 0.9752
5.6962 -0.8957 -2.5130 0.9752
5.7305 0.6410 -2.5130 0.9752
5.1464 2.6006 -2.5130 0.9752
4.8946 3.0484 -2.5130 0.9752
4.6038 3.4719 -2.5130 0.9752
4.2765 3.8679 -2.5130 0.9752
2.6578 5.1171 -2.5130 0.9752
1.7084 5.5073 -2.5130 0.9752
0.7049 5.7230 -2.5130 0.9752
0.1927 5.7630 -2.5130 0.9752
-0.3210 5.7573 -2.5130 0.9752
-1.3367 5.6091 -2.5130 0.9752
-1.7709 5.2893 -2.4309 0.9760
-4.1827 3.6169 -2.4099 0.9762
-4.7577 2.8180 -2.4099 0.9762
-4.9897 2.3834 -2.4099 0.9762
-5.1820 1.9298 -2.4099 0.9762
-1.5001 0.4109 -0.6779 0.9932
-1.3993 -0.2521 -0.6581 0.9938
-4.8790 -1.8170 -2.4099 0.9773
-4.6979 -2.2440 -2.4099 0.9773
-3.9381 -3.4054 -2.4099 0.9773
-3.2719 -4.0497 -2.4099 0.9773
-2.0858 -4.7702 -2.4099 0.9773
-1.6529 -4.9370 -2.4099 0.9773
-1.2586 -5.2811 -2.5130 0.9764
0.1814 -5.4260 -2.5130 0.9764
0.6636 -5.3883 -2.5130 0.9764
2.0636 -5.0215 -2.5130 0.9764
4.3346 -3.2689 -2.5130 0.9764
4.6083 -2.8701 -2.5130 0.9764
5.0442 -2.0076 -2.5130 0.9764
5.2029 -1.5506 -2.5130 0.9764
5.3202 -1.0814 -2.5130 0.9764
5.3954 -0.6036 -2.5130 0.9764
5.4277 -0.1210 -2.5130 0.9764
5.3631 0.8433 -2.5130 0.9764
4.9498 2.2303 -2.5130 0.9764
4.7316 2.6620 -2.5130 0.9764
4.1847 3.4587 -2.5130 0.9764
3.5051 4.1459 -2.5130 0.9764
3.1222 4.4414 -2.5130 0.9764
2.7145 4.7017 -2.5130 0.9764
2.2853 4.9246 -2.5130 0.9764
1.3759 5.2518 -2.5130 0.9764
0.4229 5.4125 -2.5130 0.9764
-1.0220 5.3320 -2.5130 0.9764
-1.4926 5.2198 -2.5130 0.9764
-1.8712 4.8584 -2.4099 0.9773
-2.2962 4.6726 -2.4099 0.9773
-2.7030 4.4497 -2.4099 0.9773
-2.2196 3.0124 -1.7320 0.9836
-4.0859 3.2266 -2.4099 0.9773
-4.3569 2.8501 -2.4099 0.9773
-1.4099 0.1896 -0.6585 0.9937
-1.4212 0.0634 -0.6585 0.9937
-1.3967 -0.3165 -0.6629 0.9937
-1.3890 -0.4479 -0.6755 0.9936
-4.3569 -2.8501 -2.4099 0.9773
-3.0883 -4.1914 -2.4099 0.9773
-1.8712 -4.8584 -2.4099 0.9773
-1.4926 -5.2198 -2.5130 0.9764
-1.0221 -5.3319 -2.5130 0.9764
-0.5434 -5.4017 -2.5130 0.9764
0.4229 -5.4125 -2.5130 0.9764
0.9030 -5.3534 -2.5130 0.9764
1.3759 -5.2518 -2.5130 0.9764
1.8379 -5.1085 -2.5130 0.9764
2.2853 -4.9246 -2.5130 0.9764
2.7145 -4.7017 -2.5130 0.9764
3.1222 -4.4414 -2.5130 0.9764
3.5051 -4.1459 -2.5130 0.9764
4.1847 -3.4587 -2.5130 0.9764
4.4759 -3.0725 -2.5130 0.9764
4.7316 -2.6620 -2.5130 0.9764
4.9498 -2.2303 -2.5130 0.9764
5.1286 -1.7809 -2.5130 0.9764
5.4169 -0.3626 -2.5130 0.9764
5.4277 0.1210 -2.5130 0.9764
5.3954 0.6036 -2.5130 0.9764
5.3202 1.0814 -2.5130 0.9764
4.8455 2.4485 -2.5130 0.9764
4.6083 2.8701 -2.5130 0.9764
4.3346 3.2689 -2.5130 0.9764
4.0264 3.6417 -2.5130 0.9764
3.3170 4.2979 -2.5130 0.9764
2.9213 4.5761 -2.5130 0.9764
2.5024 4.8179 -2.5130 0.9764
1.1406 5.3079 -2.5130 0.9764
0.6636 5.3883 -2.5130 0.9764
0.1814 5.4260 -2.5130 0.9764
-0.7835 5.3722 -2.5130 0.9764
-1.6529 4.9370 -2.4099 0.9773
-2.0858 4.7702 -2.4099 0.9773
-2.0832 3.1083 -1.7320 0.9836
-3.6194 3.7424 -2.4099 0.9773
-3.9381 3.4054 -2.4099 0.9773
-4.4795 2.6532 -2.4099 0.9773
-4.6979 2.2440 -2.4099 0.9773
-4.8790 1.8170 -2.4099 0.9773
-1.3159 -0.2371 -0.6559 0.9941
-1.3061 -0.3578 -0.6642 0.9940
-4.2271 -2.5037 -2.4099 0.9783
-3.9875 -2.8700 -2.4099 0.9783
-3.4154 -3.5315 -2.4099 0.9783
-3.0876 -3.8215 -2.4099 0.9783
-2.3611 -4.3084 -2.4099 0.9783
-1.9682 -4.5015 -2.4099 0.9783
-1.5854 -4.7352 -2.4495 0.9780
0.1712 -5.1203 -2.5130 0.9774
0.6262 -5.0847 -2.5130 0.9774
1.5179 -4.8931 -2.5130 0.9774
2.7567 -4.3182 -2.5130 0.9774
3.1301 -4.0557 -2.5130 0.9774
3.4786 -3.7611 -2.5130 0.9774
4.5725 -2.3106 -2.5130 0.9774
4.7600 -1.8944 -2.5130 0.9774
5.0205 -1.0204 -2.5130 0.9774
5.0914 -0.5696 -2.5130 0.9774
5.1218 -0.1141 -2.5130 0.9774
4.6709 2.1046 -2.5130 0.9774
4.4650 2.5120 -2.5130 0.9774
4.2237 2.8994 -2.5130 0.9774
3.6427 3.6023 -2.5130 0.9774
3.3076 3.9123 -2.5130 0.9774
2.9463 4.1911 -2.5130 0.9774
2.5616 4.4368 -2.5130 0.9774
1.7343 4.8206 -2.5130 0.9774
1.2984 4.9559 -2.5130 0.9774
0.8521 5.0518 -2.5130 0.9774
0.3991 5.1075 -2.5130 0.9774
-0.5128 5.0974 -2.5130 0.9774
-0.9645 5.0315 -2.5130 0.9774
-2.5507 4.1990 -2.4099 0.9783
-2.1819 2.9613 -1.8043 0.9837
-3.8557 3.0448 -2.4099 0.9783
-4.3344 2.3129 -2.4099 0.9783
-4.5231 1.9180 -2.4099 0.9783
-1.3003 0.4193 -0.6702 0.9939
-1.3355 0.0596 -0.6558 0.9941
-1.3355 -0.0596 -0.6558 0.9941
-1.3251 -0.1782 -0.6559 0.9941
-1.3003 -0.4193 -0.6702 0.9939
-4.5231 -1.9180 -2.4099 0.9783
-3.8557 -3.0448 -2.4099 0.9783
-3.5694 -3.3759 -2.4099 0.9783
-3.2547 -3.6802 -2.4099 0.9783
-2.9143 -3.9553 -2.4099 0.9783
-2.1668 -4.4093 -2.4099 0.9783
-1.4085 -4.9257 -2.5130 0.9774
-0.9645 -5.0315 -2.5130 0.9774
-0.0571 -5.1228 -2.5130 0.9774
0.3991 -5.1075 -2.5130 0.9774
1.7343 -4.8206 -2.5130 0.9774
2.5616 -4.4367 -2.5130 0.9774
2.9463 -4.1911 -2.5130 0.9774
3.3076 -3.9123 -2.5130 0.9774
3.6427 -3.6024 -2.5130 0.9774
4.2237 -2.8994 -2.5130 0.9774
4.6709 -2.1046 -2.5130 0.9774
4.8396 -1.6805 -2.5130 0.9774
4.9700 -1.2431 -2.5130 0.9774
5.0609 -0.7958 -2.5130 0.9774
5.1117 -0.3422 -2.5130 0.9774
5.0205 1.0204 -2.5130 0.9774
4.7600 1.8944 -2.5130 0.9774
4.3487 2.7084 -2.5130 0.9774
4.0904 3.0847 -2.5130 0.9774
3.7996 3.4365 -2.5130 0.9774
3.1301 4.0557 -2.5130 0.9774
2.7567 4.3182 -2.5130 0.9774
1.9473 4.7386 -2.5130 0.9774
1.0763 5.0088 -2.5130 0.9774
0.6262 5.0847 -2.5130 0.9774
-0.7394 5.0695 -2.5130 0.9774
-2.3611 4.3084 -2.4099 0.9783
-2.0416 3.0462 -1.7988 0.9838
-3.9875 2.8700 -2.4099 0.9783
-1.2931 0.4815 -0.6768 0.9939
-1.3061 0.3578 -0.6642 0.9940
-1.3159 0.2371 -0.6559 0.9941
-1.2624 0.0000 -0.6549 0.9943
-1.2283 -0.3365 -0.6607 0.9943
-1.2162 -0.4529 -0.6733 0.9942
-4.1917 -2.0022 -2.4099 0.9793
-3.9969 -2.3674 -2.4099 0.9793
-3.7703 -2.7137 -2.4099 0.9793
-3.2294 -3.3392 -2.4099 0.9793
-2.9194 -3.6134 -2.4099 0.9793
-2.0470 -3.0543 -1.9075 0.9836
-2.2325 -4.0738 -2.4099 0.9793
-1.8610 -4.2563 -2.4099 0.9793
-1.5379 -4.5935 -2.5130 0.9784
-0.6991 -4.7934 -2.5130 0.9784
0.5921 -4.8078 -2.5130 0.9784
1.0177 -4.7360 -2.5130 0.9784
1.8413 -4.4805 -2.5130 0.9784
2.2328 -4.2988 -2.5130 0.9784
3.2892 -3.5562 -2.5130 0.9784
3.5926 -3.2493 -2.5130 0.9784
3.8676 -2.9167 -2.5130 0.9784
4.8141 -0.5385 -2.5130 0.9784
4.8429 -0.1079 -2.5130 0.9784
4.4165 1.9900 -2.5130 0.9784
3.9937 2.7415 -2.5130 0.9784
3.4443 3.4062 -2.5130 0.9784
3.1275 3.6992 -2.5130 0.9784
2.0390 4.3940 -2.5130 0.9784
1.6399 4.5581 -2.5130 0.9784
1.2277 4.6859 -2.5130 0.9784
0.8057 4.7766 -2.5130 0.9784
0.3774 4.8294 -2.5130 0.9784
-0.4849 4.8197 -2.5130 0.9784
-0.9119 4.7575 -2.5130 0.9784
-2.0488 4.1692 -2.4099 0.9793
-3.0775 3.4797 -2.4099 0.9793
-4.0984 2.1870 -2.4099 0.9793
-1.2222 0.3941 -0.6662 0.9942
-1.2316 0.2790 -0.6551 0.9943
-1.2613 0.0562 -0.6550 0.9943
-1.2613 -0.0562 -0.6550 0.9943
-1.2222 -0.3941 -0.6662 0.9942
-4.2768 -1.8135 -2.4099 0.9793
-4.0984 -2.1870 -2.4099 0.9793
-3.8875 -2.5430 -2.4099 0.9793
-3.6457 -2.8790 -2.4099 0.9793
-2.7555 -3.7398 -2.4099 0.9793
-1.6696 -4.3350 -2.4099 0.9793
-0.9119 -4.7575 -2.5130 0.9784
0.3774 -4.8294 -2.5130 0.9784
0.8057 -4.7766 -2.5130 0.9784
1.2277 -4.6859 -2.5130 0.9784
2.0390 -4.3940 -2.5130 0.9784
2.4220 -4.1951 -2.5130 0.9784
2.7858 -3.9629 -2.5130 0.9784
3.9937 -2.7415 -2.5130 0.9784
4.2218 -2.3752 -2.5130 0.9784
4.5761 -1.5890 -2.5130 0.9784
4.8333 -0.3235 -2.5130 0.9784
4.8429 0.1079 -2.5130 0.9784
4.7470 0.9649 -2.5130 0.9784
4.6423 1.3836 -2.5130 0.9784
4.5007 1.7912 -2.5130 0.9784
4.1118 2.5609 -2.5130 0.9784
3.8676 2.9167 -2.5130 0.9784
2.9596 3.8348 -2.5130 0.9784
2.6065 4.0830 -2.5130 0.9784
2.2328 4.2988 -2.5130 0.9784
1.8413 4.4805 -2.5130 0.9784
1.0177 4.7360 -2.5130 0.9784
0.5921 4.8078 -2.5130 0.9784
0.1619 4.8414 -2.5130 0.9784
-0.6991 4.7934 -2.5130 0.9784
-1.1230 4.7121 -2.5130 0.9784
-1.8610 4.2563 -2.4099 0.9793
-2.0373 3.0399 -1.8985 0.9836
-2.9194 3.6134 -2.4099 0.9793
-3.2294 3.3392 -2.4099 0.9793
-3.7703 2.7137 -2.4099 0.9793
-3.9969 2.3674 -2.4099 0.9793
-4.1917 2.0022 -2.4099 0.9793
-1.2162 0.4529 -0.6733 0.9942
-1.2283 0.3365 -0.6607 0.9943
-1.2426 0.2239 -0.6550 0.9943
-1.2576 0.1124 -0.6550 0.9943
-1.1756 -0.2118 -0.6543 0.9946
-1.1464 -0.4269 -0.6700 0.9944
-3.7858 -2.2423 -2.4099 0.9801
-2.0404 -3.0445 -2.0074 0.9834
-2.1146 -3.8586 -2.4099 0.9801
-1.7727 -4.0542 -2.4235 0.9800
-1.4567 -4.3509 -2.5130 0.9793
-0.2554 -4.5812 -2.5130 0.9793
0.1533 -4.5857 -2.5130 0.9793
0.9640 -4.4859 -2.5130 0.9793
2.4689 -3.8674 -2.5130 0.9793
2.8033 -3.6323 -2.5130 0.9793
3.1155 -3.3684 -2.5130 0.9793
3.4029 -3.0778 -2.5130 0.9793
4.0951 -2.0693 -2.5130 0.9793
4.3971 -1.3105 -2.5130 0.9793
4.4963 -0.9139 -2.5130 0.9793
4.5598 -0.5101 -2.5130 0.9793
4.5871 -0.1022 -2.5130 0.9793
4.5326 0.7127 -2.5130 0.9793
4.4511 1.1133 -2.5130 0.9793
3.9989 2.2497 -2.5130 0.9793
3.7828 2.5967 -2.5130 0.9793
3.2624 3.2262 -2.5130 0.9793
2.6387 3.7536 -2.5130 0.9793
1.9314 4.1620 -2.5130 0.9793
1.5533 4.3174 -2.5130 0.9793
0.7632 4.5244 -2.5130 0.9793
0.3574 4.5743 -2.5130 0.9793
-0.4593 4.5652 -2.5130 0.9793
-0.8638 4.5062 -2.5130 0.9793
-1.2614 4.4114 -2.5130 0.9793
-1.5911 4.1312 -2.4247 0.9800
-1.9406 3.9490 -2.4099 0.9801
-2.1755 2.9526 -2.0087 0.9834
-2.9149 3.2960 -2.4099 0.9801
-3.1967 3.0235 -2.4099 0.9801
-3.4532 2.7269 -2.4099 0.9801
-1.1411 0.4838 -0.6788 0.9944
-1.1840 0.1592 -0.6543 0.9946
-1.1933 -0.0532 -0.6542 0.9946
-1.1411 -0.4838 -0.6788 0.9944
-2.6100 -3.5423 -2.4099 0.9801
-2.2844 -3.7606 -2.4099 0.9801
-1.9406 -3.9490 -2.4099 0.9801
-1.5911 -4.1312 -2.4247 0.9800
-1.2614 -4.4115 -2.5130 0.9793
-0.0511 -4.5880 -2.5130 0.9793
0.7632 -4.5244 -2.5130 0.9793
1.9314 -4.1620 -2.5130 0.9793
2.6387 -3.7536 -2.5130 0.9793
3.5366 -2.9231 -2.5130 0.9793
3.9989 -2.2497 -2.5130 0.9793
4.3344 -1.5051 -2.5130 0.9793
4.4511 -1.1133 -2.5130 0.9793
4.5326 -0.7127 -2.5130 0.9793
4.5780 -0.3064 -2.5130 0.9793
4.5598 0.5101 -2.5130 0.9793
4.4963 0.9139 -2.5130 0.9793
4.0951 2.0694 -2.5130 0.9793
3.1155 3.3684 -2.5130 0.9793
2.8033 3.6323 -2.5130 0.9793
2.1148 4.0718 -2.5130 0.9793
1.3594 4.3823 -2.5130 0.9793
0.5609 4.5538 -2.5130 0.9793
-1.0637 4.4633 -2.5130 0.9793
-2.0330 3.0335 -2.0001 0.9835
-3.0589 3.1629 -2.4099 0.9801
-3.3282 2.8780 -2.4099 0.9801
-3.5712 2.5704 -2.4099 0.9801
-3.7858 2.2423 -2.4099 0.9801
-3.9704 1.8965 -2.4099 0.9801
-1.1756 0.2118 -0.6543 0.9946
-1.1899 0.1063 -0.6543 0.9946
-1.1276 -0.1008 -0.6536 0.9948
-1.0934 -0.2995 -0.6545 0.9948
-1.0827 -0.4032 -0.6671 0.9947
-3.1573 -2.7303 -2.4099 0.9809
-2.6232 -3.2468 -2.4099 0.9809
-1.3819 -4.1275 -2.5130 0.9801
-0.6282 -4.3071 -2.5130 0.9801
-0.2423 -4.3459 -2.5130 0.9801
0.9145 -4.2555 -2.5130 0.9801
2.3421 -3.6688 -2.5130 0.9801
2.6593 -3.4458 -2.5130 0.9801
2.9555 -3.1954 -2.5130 0.9801
3.4752 -2.6208 -2.5130 0.9801
3.6947 -2.3011 -2.5130 0.9801
4.0441 -1.6095 -2.5130 0.9801
4.2654 -0.8670 -2.5130 0.9801
4.3516 -0.0970 -2.5130 0.9801
4.2998 0.6761 -2.5130 0.9801
4.2226 1.0561 -2.5130 0.9801
3.7935 2.1342 -2.5130 0.9801
3.0949 3.0606 -2.5130 0.9801
2.5032 3.5608 -2.5130 0.9801
2.1763 3.7695 -2.5130 0.9801
1.8322 3.9483 -2.5130 0.9801
0.7240 4.2920 -2.5130 0.9801
0.3391 4.3395 -2.5130 0.9801
-0.4357 4.3308 -2.5130 0.9801
-1.5644 4.0618 -2.5130 0.9801
-2.1671 3.5675 -2.4099 0.9809
-2.1722 2.9482 -2.1142 0.9832
-2.7653 3.1267 -2.4099 0.9809
-3.4931 2.2851 -2.4099 0.9809
-1.1039 0.2501 -0.6535 0.9948
-1.1220 0.1509 -0.6536 0.9948
-1.1220 -0.1509 -0.6536 0.9948
-1.1039 -0.2501 -0.6535 0.9948
-1.0769 -0.4566 -0.6753 0.9946
-3.4931 -2.2851 -2.4099 0.9809
-3.2758 -2.5869 -2.4099 0.9809
-3.0326 -2.8682 -2.4099 0.9809
-2.7653 -3.1267 -2.4099 0.9809
-1.8409 -3.7462 -2.4099 0.9809
-0.8194 -4.2748 -2.5130 0.9801
1.1031 -4.2105 -2.5130 0.9801
1.4735 -4.0957 -2.5130 0.9801
2.8102 -3.3239 -2.5130 0.9801
4.1118 -1.4278 -2.5130 0.9801
4.2998 -0.6761 -2.5130 0.9801
4.3516 0.0970 -2.5130 0.9801
4.2654 0.8670 -2.5130 0.9801
4.1713 1.2432 -2.5130 0.9801
4.0441 1.6095 -2.5130 0.9801
3.8848 1.9631 -2.5130 0.9801
3.4752 2.6208 -2.5130 0.9801
2.3421 3.6688 -2.5130 0.9801
2.0063 3.8627 -2.5130 0.9801
1.6545 4.0260 -2.5130 0.9801
0.9145 4.2555 -2.5130 0.9801
0.5321 4.3200 -2.5130 0.9801
-1.0090 4.2341 -2.5130 0.9801
-1.3819 4.1275 -2.5130 0.9801
-2.0060 3.6605 -2.4099 0.9809
-2.0286 3.0269 -2.1037 0.9833
-2.9018 3.0004 -2.4099 0.9809
-3.1573 2.7303 -2.4099 0.9809
-3.5914 2.1272 -2.4099 0.9809
-3.7665 1.7991 -2.4099 0.9809
-1.0827 0.4032 -0.6671 0.9947
-1.1141 0.2007 -0.6536 0.9948
