ply
format ascii 1.0
element vertex 1392
property float32 x
property float32 y
property float32 z
property float32 I
end_header
12.0285 15.5858 3.4715 0.9231
12.0285 15.5858 3.0160 0.9234
12.0285 15.5858 2.1141 0.9239
11.4502 16.2882 1.6854 0.9232
7.0649 -15.2245 1.4208 0.9348
7.0644 -15.2235 1.0407 0.9350
12.0353 15.5945 1.2215 0.9241
11.4575 16.2986 0.7856 0.9233
7.0637 -15.2218 0.6617 0.9350
17.7860 -0.3963 0.3005 0.9313
11.4575 16.2986 0.3365 0.9234
-18.7759 6.0544 0.3332 0.9241
7.0629 -15.2202 0.2834 0.9351
12.0353 15.5945 0.3327 0.9242
-18.6330 6.9390 0.3359 0.9235
17.7860 -0.3963 -0.1002 0.9313
-18.5819 5.9919 -0.1099 0.9249
17.6476 -1.1814 -0.0996 0.9317
12.0353 15.5945 -0.1109 0.9242
-18.4197 6.8596 -0.1107 0.9244
17.7860 -0.3964 -0.5009 0.9313
17.6476 -1.1814 -0.4980 0.9317
17.7860 -0.3963 -0.9022 0.9312
-18.1068 5.8387 -0.9648 0.9266
7.0607 -15.2154 -0.8507 0.9350
17.6476 -1.1814 -0.8970 0.9316
12.0353 15.5945 -0.9990 0.9241
17.7860 -0.3964 -1.3044 0.9311
11.4575 16.2986 -1.4608 0.9232
-11.4404 12.9358 -1.2662 0.9331
-12.6598 11.9736 -1.2776 0.9325
17.9263 0.3995 -1.3147 0.9306
-9.1921 16.7735 -1.4024 0.9262
-15.1714 10.9197 -1.3706 0.9278
-16.0575 9.5109 -1.3684 0.9279
10.4716 -13.5685 -1.6455 0.9334
17.7860 -0.3963 -1.7080 0.9310
-8.6404 17.5826 -1.8808 0.9243
-9.7359 13.2136 -1.5757 0.9362
-10.9218 12.3495 -1.5828 0.9359
-13.5666 10.7134 -1.6596 0.9329
-16.8112 8.9707 -1.8294 0.9263
-18.0158 7.6393 -1.8787 0.9244
7.0592 -15.2122 -1.6100 0.9348
10.5246 -8.6988 -1.3109 0.9466
17.6476 -1.1814 -1.6981 0.9314
17.9263 0.3995 -1.7214 0.9305
-8.7902 16.0401 -1.7560 0.9291
-9.0597 13.5180 -1.5623 0.9367
-10.5781 13.0926 -1.6159 0.9346
-14.4274 10.3842 -1.7066 0.9311
-15.3719 9.1048 -1.7152 0.9307
-17.6022 8.4078 -1.8728 0.9246
-5.6157 -12.8436 -1.6651 0.9451
-5.6236 -16.7968 -2.1041 0.9311
10.4720 -11.3222 -1.8320 0.9398
10.5261 -7.9381 -1.5661 0.9483
10.5356 -3.1400 -1.3059 0.9567
17.7860 -0.3963 -2.1133 0.9308
-9.3938 12.7493 -1.8811 0.9382
-10.4827 11.8529 -1.8796 0.9383
-13.0493 10.3049 -1.9751 0.9352
-16.0755 8.5781 -2.1644 0.9292
-17.7772 7.5382 -2.2937 0.9252
-17.6111 5.6788 -2.1980 0.9282
-5.6192 -14.5899 -1.8572 0.9390
7.0206 -15.1290 -1.9812 0.9350
10.4699 -12.3838 -1.9263 0.9368
10.4982 -8.6770 -1.6178 0.9466
10.5366 -2.6354 -1.2902 0.9572
17.6476 -1.1814 -2.1010 0.9312
17.9286 0.3995 -2.1302 0.9303
-8.4193 15.3633 -2.0810 0.9319
-8.7195 13.0104 -1.8604 0.9389
-12.4398 10.7571 -1.9535 0.9359
-13.7502 9.8968 -2.0124 0.9340
-14.7432 8.7324 -2.0354 0.9333
-17.6086 8.4109 -2.3180 0.9244
-17.3432 6.4587 -2.1984 0.9282
-5.6106 -10.2380 -1.6542 0.9539
-5.3932 -16.1086 -2.4069 0.9337
-2.4516 -16.8096 -2.4069 0.9337
-0.9862 -17.6876 -2.5100 0.9309
0.5920 -17.7052 -2.5100 0.9309
3.7218 -17.3197 -2.5100 0.9309
10.3781 -13.4473 -2.4068 0.9337
10.4720 -11.3222 -2.1852 0.9396
10.4757 -9.4747 -2.0013 0.9445
10.7536 -4.2798 -1.6399 0.9543
10.5356 -3.1400 -1.5577 0.9566
17.0445 -1.9067 -2.4301 0.9331
17.1125 1.1455 -2.4301 0.9331
16.9427 2.6641 -2.4301 0.9331
16.6383 4.1615 -2.4301 0.9331
16.2019 5.6259 -2.4301 0.9331
14.9477 8.4094 -2.4301 0.9331
13.2198 10.9265 -2.4301 0.9331
9.7688 13.8963 -2.4068 0.9337
7.1501 15.4081 -2.4068 0.9337
4.4896 17.1367 -2.5100 0.9309
2.9465 17.4683 -2.5100 0.9309
1.3801 17.6612 -2.5100 0.9309
-1.7004 16.9022 -2.4069 0.9337
-3.1980 16.6838 -2.4069 0.9337
-4.6703 16.3329 -2.4069 0.9337
-7.8956 16.0671 -2.5366 0.9302
-8.2488 13.5794 -2.2512 0.9378
-9.1117 12.3665 -2.1765 0.9398
-10.1119 11.4337 -2.1627 0.9402
-11.1527 10.5481 -2.1750 0.9399
-12.6211 9.9668 -2.2786 0.9371
-17.4544 5.6283 -2.5985 0.9286
-5.9188 -9.7437 -1.6153 0.9550
-3.1980 -16.6838 -2.4069 0.9337
-1.7004 -16.9021 -2.4069 0.9337
-0.1973 -17.7139 -2.5100 0.9309
1.3801 -17.6612 -2.5100 0.9309
8.4932 -14.7106 -2.4068 0.9337
9.7688 -13.8963 -2.4068 0.9337
10.4699 -12.3838 -2.2977 0.9366
10.4739 -10.3579 -2.0872 0.9422
10.4773 -8.6597 -1.9260 0.9466
10.4828 -5.8975 -1.7042 0.9526
10.6312 -4.7902 -1.6522 0.9540
10.5366 -2.6354 -1.5389 0.9571
17.1125 -1.1455 -2.4301 0.9331
17.1466 0.3821 -2.4301 0.9331
17.0445 1.9067 -2.4301 0.9331
16.8072 3.4162 -2.4301 0.9331
16.4364 4.8986 -2.4301 0.9331
15.9352 6.3421 -2.4301 0.9331
15.3075 7.7352 -2.4301 0.9331
9.1401 14.3177 -2.4068 0.9337
7.8294 15.0744 -2.4068 0.9337
3.7218 17.3197 -2.5100 0.9309
0.5920 17.7052 -2.5100 0.9309
-0.9862 17.6876 -2.5100 0.9309
-2.4516 16.8096 -2.4069 0.9337
-5.3932 16.1086 -2.4069 0.9337
-8.0756 14.7361 -2.3809 0.9344
-8.4655 12.6315 -2.1545 0.9404
-10.4167 10.7707 -2.1231 0.9413
-14.2021 8.4119 -2.3388 0.9355
-16.8038 8.0265 -2.6386 0.9275
-17.2452 6.4222 -2.6074 0.9284
-5.6493 -5.8413 -1.3387 0.9676
-5.6069 -8.3660 -1.6591 0.9600
-5.6106 -10.2380 -1.9233 0.9538
-5.6157 -12.8436 -2.3092 0.9448
-2.1086 -14.4577 -2.4069 0.9425
-0.8483 -15.2128 -2.5100 0.9401
1.8625 -15.1221 -2.5100 0.9401
4.5142 -14.5523 -2.5100 0.9401
7.8612 -12.3144 -2.4068 0.9425
8.9260 -11.5658 -2.4068 0.9425
9.9200 -10.7254 -2.4068 0.9425
10.4757 -9.4747 -2.3269 0.9443
10.4788 -7.9024 -2.1621 0.9482
10.4815 -6.5280 -2.0342 0.9512
10.4840 -5.2978 -1.9351 0.9535
10.4883 -3.1259 -1.8029 0.9566
10.4902 -2.1322 -1.7635 0.9575
14.3103 3.5793 -2.4301 0.9420
13.4490 6.0598 -2.4301 0.9420
8.4020 11.9520 -2.4068 0.9425
7.3048 12.6523 -2.4068 0.9425
6.4135 13.8208 -2.5100 0.9401
3.8614 14.7390 -2.5100 0.9401
1.1870 15.1901 -2.5100 0.9401
-1.5251 15.1599 -2.5100 0.9401
-2.7505 14.3494 -2.4069 0.9425
-7.5656 15.3956 -2.8259 0.9328
-8.8497 12.0109 -2.4577 0.9413
-10.8070 10.2212 -2.4505 0.9415
-12.2177 9.6482 -2.5646 0.9388
-17.1499 7.2722 -3.0688 0.9273
-17.3937 5.6087 -3.0107 0.9286
-5.9490 -8.0740 -1.6522 0.9602
-5.6086 -9.2330 -1.7797 0.9572
-5.2512 -13.6344 -2.4069 0.9425
-2.7506 -14.3494 -2.4069 0.9425
-0.1697 -15.2355 -2.5100 0.9401
2.5343 -15.0242 -2.5100 0.9401
5.1580 -14.3368 -2.5100 0.9401
7.3048 -12.6523 -2.4068 0.9425
9.4324 -11.1567 -2.4068 0.9425
10.3880 -10.2729 -2.4068 0.9425
10.4773 -8.6597 -2.2393 0.9464
10.4828 -5.8975 -1.9815 0.9524
10.4851 -4.7244 -1.8945 0.9544
10.4893 -2.6236 -1.7812 0.9571
14.7182 -0.9853 -2.4301 0.9420
14.6597 1.6399 -2.4301 0.9420
14.4556 2.9382 -2.4301 0.9420
13.7056 5.4547 -2.4301 0.9420
12.5213 7.7983 -2.4301 0.9420
10.9402 9.8948 -2.4301 0.9420
8.9260 11.5658 -2.4068 0.9425
5.7915 14.0928 -2.5100 0.9401
3.2010 14.8964 -2.5100 0.9401
1.8625 15.1221 -2.5100 0.9401
0.5091 15.2279 -2.5100 0.9401
-0.8482 15.2128 -2.5100 0.9401
-2.1086 14.4577 -2.4069 0.9425
-7.3403 16.7877 -3.0184 0.9284
-8.2245 12.2717 -2.4337 0.9419
-10.0976 10.4409 -2.3928 0.9428
-11.6168 10.0454 -2.5300 0.9396
-12.5043 9.0000 -2.5380 0.9395
-13.7664 8.1539 -2.6358 0.9372
-17.0083 6.3340 -2.9899 0.9291
-5.8650 -5.0716 -1.4574 0.9689
-5.6493 -5.8413 -1.5274 0.9675
-5.6040 -6.9362 -1.6761 0.9644
-5.6069 -8.3660 -1.8930 0.9598
-5.6106 -10.2380 -2.1944 0.9536
-4.0655 -12.1431 -2.4069 0.9492
-2.9686 -12.4567 -2.4069 0.9492
-1.8481 -12.6715 -2.4069 0.9492
-0.7435 -13.3333 -2.5100 0.9471
1.6324 -13.2539 -2.5100 0.9471
2.8056 -13.0560 -2.5100 0.9471
3.9565 -12.7545 -2.5100 0.9471
5.0760 -12.3517 -2.5100 0.9471
6.1552 -11.8509 -2.5100 0.9471
9.4966 -8.5892 -2.4068 0.9492
10.4815 -6.5280 -2.3210 0.9510
10.4902 -2.1322 -2.0121 0.9574
12.7718 2.0083 -2.4301 0.9487
12.5424 3.1371 -2.4301 0.9487
11.2679 6.3392 -2.4301 0.9487
9.8698 8.1576 -2.4068 0.9492
9.1046 9.0037 -2.4068 0.9492
3.3844 12.9180 -2.5100 0.9471
2.2212 13.1680 -2.5100 0.9471
1.0403 13.3134 -2.5100 0.9471
-0.1488 13.3532 -2.5100 0.9471
-1.3367 13.2870 -2.5100 0.9471
-2.4107 12.5766 -2.4069 0.9492
-3.5205 12.3121 -2.4069 0.9492
-4.6024 11.9499 -2.4069 0.9492
-7.6420 12.5805 -2.7667 0.9418
-5.5080 6.2280 -1.5628 0.9667
-11.7001 9.2395 -2.8022 0.9411
-12.4501 8.1445 -2.7964 0.9412
-14.1971 7.5758 -3.0246 0.9366
-15.3708 6.5178 -3.1381 0.9343
-17.2270 5.5550 -3.4022 0.9290
-5.6483 -5.3421 -1.4613 0.9689
-5.6054 -7.6077 -1.7762 0.9623
-5.6086 -9.2330 -2.0305 0.9570
-3.5206 -12.3121 -2.4069 0.9492
-1.3367 -13.2870 -2.5100 0.9471
1.0403 -13.3134 -2.5100 0.9471
2.2212 -13.1680 -2.5100 0.9471
3.3844 -12.9180 -2.5100 0.9471
4.5207 -12.5656 -2.5100 0.9471
5.6212 -12.1133 -2.5100 0.9471
6.4693 -11.2052 -2.4320 0.9487
7.3639 -10.4753 -2.4068 0.9492
8.2671 -9.7783 -2.4068 0.9492
9.8698 -8.1576 -2.4068 0.9492
10.4851 -4.7244 -2.1616 0.9543
10.4872 -3.6416 -2.0866 0.9558
10.4893 -2.6236 -2.0323 0.9569
12.7718 -2.0083 -2.4301 0.9487
12.0123 4.7808 -2.4301 0.9487
11.5391 5.8310 -2.4301 0.9487
9.4966 8.5892 -2.4068 0.9492
8.6945 9.4004 -2.4068 0.9492
6.8900 10.7930 -2.4068 0.9492
3.9565 12.7545 -2.5100 0.9471
1.6324 13.2539 -2.5100 0.9471
-4.0655 12.1431 -2.4069 0.9492
-9.0086 11.1500 -2.6943 0.9433
-11.2460 9.7248 -2.7945 0.9413
-16.0127 5.9632 -3.2117 0.9328
-5.6017 -5.7922 -1.7033 0.9676
-5.6069 -8.3660 -2.1288 0.9597
-5.4723 -9.9857 -2.4069 0.9545
-4.5618 -10.4331 -2.4069 0.9545
-2.6397 -11.0766 -2.4069 0.9545
-1.6433 -11.2676 -2.4069 0.9545
-0.6611 -11.8561 -2.5100 0.9526
0.3968 -11.8679 -2.5100 0.9526
1.4515 -11.7855 -2.5100 0.9526
2.4947 -11.6095 -2.5100 0.9526
3.5181 -11.3414 -2.5100 0.9526
4.5136 -10.9832 -2.5100 0.9526
6.3895 -10.0089 -2.5100 0.9526
7.7312 -8.3589 -2.4068 0.9545
9.0908 -6.8557 -2.4068 0.9545
10.1623 -5.1352 -2.4068 0.9545
10.4862 -4.1734 -2.3857 0.9549
10.4883 -3.1258 -2.3134 0.9562
11.4251 -1.2781 -2.4301 0.9541
11.3568 1.7858 -2.4301 0.9541
11.1528 2.7895 -2.4301 0.9541
10.8602 3.7711 -2.4301 0.9541
10.3809 4.6774 -2.4068 0.9545
9.9234 5.5828 -2.4068 0.9545
8.7763 7.2538 -2.4068 0.9545
5.9373 10.2836 -2.5100 0.9526
4.9984 10.7713 -2.5100 0.9526
1.9751 11.7091 -2.5100 0.9526
-1.1886 11.8149 -2.5100 0.9526
-3.1305 10.9480 -2.4069 0.9545
-4.0925 10.6260 -2.4069 0.9545
-7.3677 12.1289 -2.9998 0.9436
-8.0695 10.9520 -2.8756 0.9459
-5.5077 6.2276 -1.7574 0.9666
-11.0104 8.6948 -2.9656 0.9443
-12.8935 6.8802 -3.0892 0.9420
-13.7608 5.8351 -3.1595 0.9407
-15.5755 5.0224 -3.4593 0.9353
-5.6086 -9.2330 -2.2835 0.9568
-5.0220 -10.2195 -2.4069 0.9545
-4.0925 -10.6260 -2.4069 0.9545
-2.1437 -11.1832 -2.4069 0.9545
0.9251 -11.8384 -2.5100 0.9526
1.9751 -11.7091 -2.5100 0.9526
4.9984 -10.7713 -2.5100 0.9526
5.9373 -10.2836 -2.5100 0.9526
6.5481 -9.3148 -2.4068 0.9545
8.7763 -7.2538 -2.4068 0.9545
9.3871 -6.4439 -2.4068 0.9545
9.9234 -5.5829 -2.4068 0.9545
10.4872 -3.6416 -2.3466 0.9556
10.4893 -2.6236 -2.2855 0.9568
11.3568 -1.7858 -2.4301 0.9541
11.4707 -0.7679 -2.4301 0.9541
11.4935 0.2561 -2.4301 0.9541
11.2660 2.2899 -2.4301 0.9541
11.0174 3.2835 -2.4301 0.9541
10.6815 4.2511 -2.4301 0.9541
9.0908 6.8557 -2.4068 0.9545
6.3895 10.0089 -2.5100 0.9526
4.5136 10.9832 -2.5100 0.9526
3.5181 11.3414 -2.5100 0.9526
0.3968 11.8679 -2.5100 0.9526
-0.6611 11.8561 -2.5100 0.9526
-4.5618 10.4331 -2.4069 0.9545
-7.7532 11.5685 -2.9437 0.9447
-8.4637 10.4757 -2.8468 0.9464
-10.5782 9.1473 -2.9561 0.9444
-11.4397 8.2338 -2.9794 0.9440
-12.4536 7.3762 -3.0595 0.9425
-14.4131 5.3675 -3.2510 0.9391
-5.7056 -4.1066 -1.6522 0.9715
-5.6017 -5.7922 -1.8938 0.9674
-5.6040 -6.9362 -2.0957 0.9640
-5.6069 -8.3660 -2.3669 0.9595
-3.2514 -9.7115 -2.4069 0.9588
-2.3741 -9.9623 -2.4069 0.9588
-1.5413 -10.5681 -2.5100 0.9571
-0.5946 -10.6634 -2.5100 0.9571
0.3569 -10.6740 -2.5100 0.9571
1.3055 -10.5999 -2.5100 0.9571
2.2438 -10.4416 -2.5100 0.9571
3.1642 -10.2004 -2.5100 0.9571
4.9227 -9.4778 -2.5100 0.9571
5.7467 -9.0021 -2.5100 0.9571
6.9534 -7.5180 -2.4068 0.9588
7.5950 -6.8693 -2.4068 0.9588
8.6926 -5.4138 -2.4068 0.9588
9.1400 -4.6186 -2.4068 0.9588
9.8140 -2.9249 -2.4068 0.9588
10.2381 -0.2281 -2.4068 0.9588
10.2178 0.6840 -2.4068 0.9588
9.9346 2.4848 -2.4068 0.9588
9.6740 3.3592 -2.4068 0.9588
9.3366 4.2069 -2.4068 0.9588
8.9251 5.0212 -2.4068 0.9588
6.1420 8.7371 -2.5100 0.9571
4.4956 9.6877 -2.5100 0.9571
1.7764 10.5312 -2.5100 0.9571
-1.0690 10.6263 -2.5100 0.9571
-1.9280 10.0582 -2.4069 0.9588
-2.8156 9.8467 -2.4069 0.9588
-3.6808 9.5570 -2.4069 0.9588
-7.5544 10.2529 -2.9931 0.9490
-10.1412 8.0084 -3.0370 0.9483
-11.0244 7.2118 -3.0961 0.9473
-11.7732 6.2823 -3.1363 0.9466
-13.9697 4.5046 -3.4497 0.9415
-17.9330 4.0631 -4.3215 0.9272
-5.6008 -5.2972 -1.8118 0.9688
-5.6054 -7.6076 -2.2209 0.9619
-3.6808 -9.5570 -2.4069 0.9588
-2.8156 -9.8467 -2.4069 0.9588
-1.9280 -10.0582 -2.4069 0.9588
-0.1190 -10.6793 -2.5100 0.9571
1.7764 -10.5312 -2.5100 0.9571
2.7067 -10.3313 -2.5100 0.9571
3.6155 -10.0494 -2.5100 0.9571
4.4956 -9.6877 -2.5100 0.9571
5.3400 -9.2491 -2.5100 0.9571
6.1420 -8.7371 -2.5100 0.9571
6.6116 -7.8203 -2.4068 0.9588
8.4428 -5.7957 -2.4068 0.9588
8.9251 -5.0212 -2.4068 0.9588
9.6740 -3.3592 -2.4068 0.9588
10.1163 -1.5907 -2.4068 0.9588
10.2178 -0.6840 -2.4068 0.9588
10.2381 0.2282 -2.4068 0.9588
10.1772 1.1385 -2.4068 0.9588
10.0354 2.0398 -2.4068 0.9588
9.5148 3.7868 -2.4068 0.9588
9.1400 4.6186 -2.4068 0.9588
8.6926 5.4138 -2.4068 0.9588
7.5950 6.8693 -2.4068 0.9588
6.9534 7.5180 -2.4068 0.9588
6.4630 8.3743 -2.4861 0.9575
4.9227 9.4778 -2.5100 0.9571
4.0595 9.8783 -2.5100 0.9571
3.1642 10.2004 -2.5100 0.9571
1.3055 10.5999 -2.5100 0.9571
0.3569 10.6740 -2.5100 0.9571
-0.5946 10.6634 -2.5100 0.9571
-1.5413 10.5682 -2.5100 0.9571
-4.9218 8.9811 -2.4069 0.9588
-7.2102 10.7584 -3.0438 0.9482
-5.5009 3.9593 -1.5929 0.9725
-11.3829 6.7421 -3.1093 0.9471
-15.4569 4.2341 -3.7665 0.9363
-5.9799 -2.2269 -1.6522 0.9740
-5.5982 -4.0294 -1.7859 0.9719
-5.6017 -5.7922 -2.0863 0.9673
-5.6040 -6.9362 -2.3088 0.9638
-5.1754 -7.7223 -2.4069 0.9623
-4.4676 -8.1523 -2.4069 0.9623
-2.1550 -9.0429 -2.4069 0.9623
-1.3991 -9.5929 -2.5100 0.9607
0.3239 -9.6889 -2.5100 0.9607
1.1850 -9.6216 -2.5100 0.9607
2.0367 -9.4780 -2.5100 0.9607
2.8722 -9.2591 -2.5100 0.9607
3.6849 -8.9667 -2.5100 0.9607
5.2164 -8.1713 -2.5100 0.9607
5.9229 -7.6746 -2.5100 0.9607
6.4630 -6.9877 -2.4645 0.9614
6.8941 -6.2353 -2.4068 0.9623
7.8904 -4.9142 -2.4068 0.9623
8.2965 -4.1924 -2.4068 0.9623
8.9083 -2.6550 -2.4068 0.9623
9.1093 -1.8515 -2.4068 0.9623
9.2379 -1.0334 -2.4068 0.9623
9.1827 1.4439 -2.4068 0.9623
8.1015 4.5578 -2.4068 0.9623
6.2589 7.4031 -2.5100 0.9607
5.5752 7.9308 -2.5100 0.9607
4.0807 8.7936 -2.5100 0.9607
1.6124 9.5593 -2.5100 0.9607
0.7552 9.6649 -2.5100 0.9607
-0.1080 9.6937 -2.5100 0.9607
-2.5557 8.9380 -2.4069 0.9623
-5.5143 7.4841 -2.4069 0.9623
-8.6379 8.1697 -3.0784 0.9521
-10.8869 5.8094 -3.1950 0.9503
-11.7562 4.9851 -3.3062 0.9486
-12.8885 4.1560 -3.5063 0.9456
-5.8747 -2.4911 -1.6522 0.9740
-5.5975 -3.6617 -1.7319 0.9727
-5.6028 -6.3352 -2.1898 0.9657
-5.5143 -7.4841 -2.4069 0.9623
-4.1000 -8.3432 -2.4069 0.9623
-2.5557 -8.9379 -2.4069 0.9623
-1.7501 -9.1300 -2.4069 0.9623
-0.9704 -9.6456 -2.5100 0.9607
-0.1080 -9.6937 -2.5100 0.9607
4.0807 -8.7936 -2.5100 0.9607
4.8472 -8.3955 -2.5100 0.9607
5.5752 -7.9308 -2.5100 0.9607
6.6095 -6.5362 -2.4068 0.9623
7.6636 -5.2608 -2.4068 0.9623
6.7821 -3.0559 -1.9260 0.9697
9.0178 -2.2555 -2.4068 0.9623
9.1827 -1.4439 -2.4068 0.9623
9.2379 1.0334 -2.4068 0.9623
9.1093 1.8515 -2.4068 0.9623
8.9083 2.6550 -2.4068 0.9623
4.4684 8.6031 -2.5100 0.9607
1.1850 9.6216 -2.5100 0.9607
0.3239 9.6889 -2.5100 0.9607
-0.5397 9.6793 -2.5100 0.9607
-2.1550 9.0429 -2.4069 0.9623
-3.7242 8.5176 -2.4069 0.9623
-9.8110 7.0615 -3.1298 0.9513
-5.5011 2.6276 -1.5785 0.9751
-5.5982 -4.0294 -1.9526 0.9717
-5.5999 -4.8424 -2.0958 0.9697
-2.6993 -8.0625 -2.4069 0.9653
0.2963 -8.8615 -2.5100 0.9638
2.6269 -8.4684 -2.5100 0.9638
3.3702 -8.2010 -2.5100 0.9638
4.7709 -7.4735 -2.5100 0.9638
5.4171 -7.0192 -2.5100 0.9638
6.0204 -6.5092 -2.5100 0.9638
6.4630 -5.8454 -2.4670 0.9644
6.7879 -5.1190 -2.4068 0.9653
8.1476 -2.4282 -2.4068 0.9653
8.4996 -0.1894 -2.4068 0.9653
8.4828 0.5679 -2.4068 0.9653
8.0313 2.7888 -2.4068 0.9653
6.3044 6.2345 -2.5100 0.9638
5.7244 6.7709 -2.5100 0.9638
4.4332 7.6786 -2.5100 0.9638
2.2471 8.5770 -2.5100 0.9638
0.6907 8.8396 -2.5100 0.9638
-0.8875 8.8220 -2.5100 0.9638
-1.6006 8.3503 -2.4069 0.9653
-2.3375 8.1747 -2.4069 0.9653
-3.0558 7.9342 -2.4069 0.9653
-4.4141 7.2667 -2.4069 0.9653
-7.9610 7.5294 -3.1020 0.9555
-8.7984 6.9480 -3.1738 0.9545
-11.9630 3.8576 -3.5583 0.9491
-5.5015 0.7398 -1.5715 0.9772
-5.5072 0.2455 -1.5606 0.9773
-5.5065 -0.2456 -1.5604 0.9773
-5.5018 -1.2466 -1.5970 0.9768
-5.6915 -1.8353 -1.6929 0.9754
-5.5975 -3.6617 -1.8936 0.9726
-5.5990 -4.4215 -2.0197 0.9708
-5.6028 -6.3352 -2.3942 0.9655
-5.0434 -6.8450 -2.4069 0.9653
-3.7498 -7.6307 -2.4069 0.9653
-3.0558 -7.9342 -2.4069 0.9653
-1.6006 -8.3503 -2.4069 0.9653
-0.8875 -8.8220 -2.5100 0.9638
0.6907 -8.8395 -2.5100 0.9638
2.2471 -8.5770 -2.5100 0.9638
3.0016 -8.3429 -2.5100 0.9638
3.7322 -8.0427 -2.5100 0.9638
4.4332 -7.6786 -2.5100 0.9638
5.7244 -6.7709 -2.5100 0.9638
6.7821 -3.0559 -2.1059 0.9695
8.3986 -1.3206 -2.4068 0.9653
8.4828 -0.5679 -2.4068 0.9653
8.4996 0.1894 -2.4068 0.9653
8.3314 1.6934 -2.4068 0.9653
7.8991 3.1438 -2.4068 0.9653
7.5880 3.8344 -2.4068 0.9653
6.7879 5.1190 -2.4068 0.9653
6.4630 5.8454 -2.4670 0.9644
4.7709 7.4735 -2.5100 0.9638
4.0868 7.8684 -2.5100 0.9638
3.3702 8.2010 -2.5100 0.9638
1.0838 8.8000 -2.5100 0.9638
-1.9710 8.2707 -2.4069 0.9653
-3.4062 7.7902 -2.4069 0.9653
-4.0861 7.4561 -2.4069 0.9653
-4.7335 7.0629 -2.4069 0.9653
-5.3433 6.6135 -2.4069 0.9653
-5.5014 0.9911 -1.5825 0.9770
-18.9565 0.0000 -5.8306 0.9237
-18.9291 -1.6916 -5.8454 0.9235
-5.5944 -2.0834 -1.8362 0.9753
-5.5956 -2.6728 -1.9073 0.9744
-5.5968 -3.3150 -2.0008 0.9731
-5.5982 -4.0294 -2.1215 0.9715
-5.5999 -4.8424 -2.2771 0.9695
-4.9179 -6.0870 -2.4069 0.9678
-3.7608 -6.8625 -2.4069 0.9678
-1.8141 -7.6123 -2.4069 0.9678
-1.1777 -8.0752 -2.5100 0.9664
-0.4543 -8.1480 -2.5100 0.9664
2.4178 -7.7942 -2.5100 0.9664
3.1019 -7.5481 -2.5100 0.9664
3.7614 -7.2421 -2.5100 0.9664
4.3911 -6.8785 -2.5100 0.9664
4.9859 -6.4604 -2.5100 0.9664
5.5411 -5.9910 -2.5100 0.9664
6.0523 -5.4740 -2.5100 0.9664
6.4630 -4.8740 -2.4898 0.9667
6.6421 -4.1367 -2.4068 0.9678
6.9839 -3.5291 -2.4068 0.9678
7.4990 -2.2349 -2.4068 0.9678
7.6681 -1.5586 -2.4068 0.9678
7.8075 0.5226 -2.4068 0.9678
7.7300 1.2155 -2.4068 0.9678
7.5911 1.8987 -2.4068 0.9678
7.3920 2.5668 -2.4068 0.9678
6.8198 3.8367 -2.4068 0.9678
6.2902 5.1990 -2.5100 0.9664
4.6932 6.6761 -2.5100 0.9664
2.0682 7.8942 -2.5100 0.9664
1.3574 8.0470 -2.5100 0.9664
-0.0909 8.1601 -2.5100 0.9664
-2.1514 7.5239 -2.4069 0.9678
-3.4513 7.0233 -2.4069 0.9678
-4.6419 6.3001 -2.4069 0.9678
-7.4835 7.0779 -3.1682 0.9578
-8.9219 5.8364 -3.2792 0.9564
-11.1912 3.6087 -3.6167 0.9520
-18.8753 0.8417 -5.8114 0.9240
-5.5950 -2.3725 -1.8692 0.9749
-5.1842 -5.8619 -2.4069 0.9678
-4.0627 -6.6882 -2.4069 0.9678
-2.1514 -7.5239 -2.4069 0.9678
-0.8168 -8.1196 -2.5100 0.9664
0.6357 -8.1358 -2.5100 0.9664
1.3574 -8.0470 -2.5100 0.9664
3.4351 -7.4024 -2.5100 0.9664
4.0803 -7.0673 -2.5100 0.9664
5.8025 -5.7382 -2.5100 0.9664
6.4736 -4.4439 -2.4152 0.9677
6.8198 -3.8367 -2.4068 0.9678
6.7821 -3.0559 -2.2880 0.9693
7.3920 -2.5668 -2.4068 0.9678
7.5911 -1.8987 -2.4068 0.9678
7.8075 -0.5227 -2.4068 0.9678
7.8230 0.1743 -2.4068 0.9678
7.7764 0.8699 -2.4068 0.9678
7.2703 2.8935 -2.4068 0.9678
6.6421 4.1367 -2.4068 0.9678
6.4630 4.8740 -2.4898 0.9667
6.0523 5.4740 -2.5100 0.9664
4.9859 6.4604 -2.5100 0.9664
4.3911 6.8785 -2.5100 0.9664
3.7614 7.2421 -2.5100 0.9664
3.1019 7.5481 -2.5100 0.9664
2.4178 7.7942 -2.5100 0.9664
1.7145 7.9785 -2.5100 0.9664
0.9975 8.0994 -2.5100 0.9664
0.2727 8.1561 -2.5100 0.9664
-0.4543 8.1480 -2.5100 0.9664
-1.1777 8.0752 -2.5100 0.9664
-1.8141 7.6123 -2.4069 0.9678
-3.1350 7.1700 -2.4069 0.9678
-3.7608 6.8625 -2.4069 0.9678
-4.3567 6.5006 -2.4069 0.9678
-5.4402 5.6251 -2.4069 0.9678
-8.5992 6.1893 -3.2588 0.9566
-10.0107 4.7817 -3.4123 0.9546
-11.8076 3.2345 -3.7656 0.9501
-14.1696 2.5528 -4.4284 0.9415
-18.5761 0.0000 -6.1748 0.9247
-5.5956 -2.6728 -2.0613 0.9742
-5.5982 -4.0294 -2.2928 0.9713
-5.0339 -5.2050 -2.4069 0.9699
-4.5506 -5.6324 -2.4069 0.9699
-4.0313 -6.0150 -2.4069 0.9699
-3.4799 -6.3500 -2.4069 0.9699
-2.9009 -6.6345 -2.4069 0.9699
-2.2989 -6.8664 -2.4069 0.9699
-1.0898 -7.4721 -2.5100 0.9687
0.2523 -7.5469 -2.5100 0.9687
2.2372 -7.2121 -2.5100 0.9687
2.8702 -6.9843 -2.5100 0.9687
4.6135 -5.9779 -2.5100 0.9687
5.1273 -5.5435 -2.5100 0.9687
6.4746 -3.2718 -2.4114 0.9699
6.7273 -2.6774 -2.4068 0.9699
6.9389 -2.0680 -2.4068 0.9699
6.8399 2.3751 -2.4068 0.9699
4.8752 5.7664 -2.5100 0.9687
3.1785 6.8495 -2.5100 0.9687
1.9137 7.3046 -2.5100 0.9687
-0.0841 7.5507 -2.5100 0.9687
-0.7558 7.5132 -2.5100 0.9687
-1.9907 6.9620 -2.4069 0.9699
-2.6025 6.7571 -2.4069 0.9699
-3.1936 6.4987 -2.4069 0.9699
-3.7593 6.1887 -2.4069 0.9699
-4.7970 5.4241 -2.4069 0.9699
-9.1240 4.8687 -3.4376 0.9573
-9.8290 4.1678 -3.5488 0.9560
-10.5870 3.4138 -3.6976 0.9542
-5.5088 0.2456 -1.8330 0.9770
-18.8539 -0.8408 -6.2734 0.9235
-5.5950 -2.3725 -2.0201 0.9747
-5.5975 -3.6617 -2.2234 0.9722
-5.5990 -4.4215 -2.3715 0.9704
-3.7593 -6.1887 -2.4069 0.9699
-2.6025 -6.7571 -2.4069 0.9699
-1.9907 -6.9620 -2.4069 0.9699
-0.7558 -7.5132 -2.5100 0.9687
-0.0841 -7.5507 -2.5100 0.9687
3.1785 -6.8496 -2.5100 0.9687
3.7756 -6.5395 -2.5100 0.9687
4.3426 -6.1775 -2.5100 0.9687
4.8752 -5.7664 -2.5100 0.9687
5.3691 -5.3096 -2.5100 0.9687
5.8204 -4.8107 -2.5100 0.9687
6.6013 -2.9744 -2.4068 0.9699
7.1526 -1.1247 -2.4068 0.9699
7.2243 -0.4836 -2.4068 0.9699
6.9389 2.0680 -2.4068 0.9699
6.4746 3.2718 -2.4114 0.9699
6.4097 3.9920 -2.5100 0.9687
5.6003 5.0652 -2.5100 0.9687
4.6135 5.9779 -2.5100 0.9687
4.0631 6.3648 -2.5100 0.9687
3.4805 6.7012 -2.5100 0.9687
2.2372 7.2121 -2.5100 0.9687
1.5864 7.3826 -2.5100 0.9687
0.9230 7.4945 -2.5100 0.9687
0.2523 7.5469 -2.5100 0.9687
-1.0898 7.4721 -2.5100 0.9687
-1.6786 7.0437 -2.4069 0.9699
-2.2989 6.8664 -2.4069 0.9699
-3.4799 6.3500 -2.4069 0.9699
-4.0313 6.0151 -2.4069 0.9699
-8.1007 5.8305 -3.3177 0.9588
-8.7667 5.1925 -3.3869 0.9580
-9.4784 4.5275 -3.4917 0.9567
-5.5084 2.0513 -1.9539 0.9755
-11.1285 3.0484 -3.8354 0.9525
-12.7939 2.3049 -4.3212 0.9467
-18.5270 1.6556 -6.1830 0.9246
-18.4541 0.0000 -6.5993 0.9246
-5.5944 -2.0834 -2.1348 0.9750
-5.5968 -3.3150 -2.3262 0.9727
-5.4628 -3.9319 -2.4069 0.9718
-5.0912 -4.4025 -2.4069 0.9718
-4.6791 -4.8382 -2.4069 0.9718
-4.2299 -5.2354 -2.4069 0.9718
-3.2346 -5.9025 -2.4069 0.9718
-2.6965 -6.1670 -2.4069 0.9718
-2.1369 -6.3825 -2.4069 0.9718
-1.5855 -6.6531 -2.4458 0.9714
0.2345 -7.0151 -2.5100 0.9706
0.8580 -6.9663 -2.5100 0.9706
1.4746 -6.8623 -2.5100 0.9706
2.0796 -6.7038 -2.5100 0.9706
2.6680 -6.4921 -2.5100 0.9706
3.7768 -5.9162 -2.5100 0.9706
4.2884 -5.5566 -2.5100 0.9706
4.7659 -5.1529 -2.5100 0.9706
5.2056 -4.7082 -2.5100 0.9706
6.6885 -0.7482 -2.4068 0.9718
6.7152 0.4495 -2.4068 0.9718
6.6486 1.0454 -2.4068 0.9718
6.5291 1.6330 -2.4068 0.9718
6.4654 2.2450 -2.4475 0.9713
6.3994 2.8834 -2.5100 0.9706
5.4102 4.4716 -2.5100 0.9706
4.9907 4.9354 -2.5100 0.9706
3.5095 6.0786 -2.5100 0.9706
-0.0782 7.0185 -2.5100 0.9706
-2.4191 6.2810 -2.4069 0.9718
-3.9925 5.4187 -2.4069 0.9718
-4.4590 5.0418 -2.4069 0.9718
-8.6604 4.6213 -3.5104 0.9592
-5.5014 1.2464 -2.0172 0.9763
-18.5319 -0.8264 -6.6338 0.9242
-18.6317 -2.5058 -6.7229 0.9232
-5.5090 -1.2482 -2.0200 0.9763
-5.6915 -1.8353 -2.1385 0.9749
-5.5975 -3.6617 -2.3920 0.9720
-5.2822 -4.1713 -2.4069 0.9718
-3.9925 -5.4187 -2.4069 0.9718
-3.4944 -5.7525 -2.4069 0.9718
-2.9685 -6.0407 -2.4069 0.9718
-2.4191 -6.2809 -2.4069 0.9718
-1.8504 -6.4713 -2.4069 0.9718
-1.3214 -6.8935 -2.5100 0.9706
-0.0782 -7.0186 -2.5100 0.9706
1.7788 -6.7898 -2.5100 0.9706
3.5095 -6.0786 -2.5100 0.9706
4.0366 -5.7421 -2.5100 0.9706
4.5316 -5.3601 -2.5100 0.9706
5.7867 -3.9724 -2.5100 0.9706
6.1173 -3.4415 -2.5100 0.9706
6.3994 -2.8834 -2.5100 0.9706
6.4654 -2.2450 -2.4475 0.9713
6.5291 -1.6330 -2.4068 0.9718
6.7152 -0.4495 -2.4068 0.9718
6.7286 0.1499 -2.4068 0.9718
6.6885 0.7482 -2.4068 0.9718
6.5954 1.3406 -2.4068 0.9718
6.2646 3.1656 -2.5100 0.9706
5.9579 3.7106 -2.5100 0.9706
4.2884 5.5566 -2.5100 0.9706
3.7768 5.9162 -2.5100 0.9706
2.6680 6.4921 -2.5100 0.9706
1.4746 6.8623 -2.5100 0.9706
0.8580 6.9663 -2.5100 0.9706
0.2345 7.0150 -2.5100 0.9706
-2.1369 6.3825 -2.4069 0.9718
-3.2346 5.9025 -2.4069 0.9718
-3.7472 5.5912 -2.4069 0.9718
-4.2299 5.2355 -2.4069 0.9718
-4.6791 4.8382 -2.4069 0.9718
-5.4628 3.9319 -2.4069 0.9718
-5.5078 3.2622 -2.2892 0.9732
-9.6436 3.5913 -3.6800 0.9572
-18.1289 0.0000 -6.9473 0.9253
-5.5956 -2.6728 -2.3764 0.9738
-4.7509 -4.1083 -2.4069 0.9735
-4.3664 -4.5148 -2.4069 0.9735
-3.9472 -4.8856 -2.4069 0.9735
-3.4967 -5.2175 -2.4069 0.9735
-1.5184 -6.3715 -2.5100 0.9723
1.3761 -6.4037 -2.5100 0.9723
1.9406 -6.2558 -2.5100 0.9723
2.4897 -6.0583 -2.5100 0.9723
3.0190 -5.8126 -2.5100 0.9723
3.5244 -5.5208 -2.5100 0.9723
4.0018 -5.1853 -2.5100 0.9723
6.4630 -0.7230 -2.4922 0.9725
6.4630 0.4327 -2.4823 0.9726
6.4630 1.0163 -2.5072 0.9724
6.3542 1.5893 -2.5100 0.9723
5.9717 2.6907 -2.5100 0.9723
5.0486 4.1728 -2.5100 0.9723
4.6572 4.6056 -2.5100 0.9723
4.2288 5.0018 -2.5100 0.9723
3.7668 5.3584 -2.5100 0.9723
2.7571 5.9413 -2.5100 0.9723
2.2173 6.1631 -2.5100 0.9723
1.6600 6.3361 -2.5100 0.9723
-0.6556 6.5170 -2.5100 0.9723
-2.2574 5.8612 -2.4069 0.9735
-2.7701 5.6370 -2.4069 0.9735
-4.5632 4.3159 -2.4069 0.9735
-4.9292 3.8926 -2.4069 0.9735
-18.4032 0.8206 -7.0595 0.9241
-18.5126 -0.8255 -7.1014 0.9237
-4.1610 -4.7049 -2.4069 0.9735
-2.7701 -5.6370 -2.4069 0.9735
-2.2574 -5.8612 -2.4069 0.9735
-1.2331 -6.4328 -2.5100 0.9723
-0.6556 -6.5170 -2.5100 0.9723
0.5103 -6.5300 -2.5100 0.9723
1.6600 -6.3361 -2.5100 0.9723
2.2173 -6.1632 -2.5100 0.9723
2.7571 -5.9413 -2.5100 0.9723
3.2749 -5.6724 -2.5100 0.9723
3.7668 -5.3584 -2.5100 0.9723
4.2288 -5.0018 -2.5100 0.9723
5.4000 -3.7069 -2.5100 0.9723
5.7085 -3.2116 -2.5100 0.9723
6.3542 -1.5893 -2.5100 0.9723
6.4630 -0.4326 -2.4823 0.9726
6.4630 0.7230 -2.4922 0.9725
6.4186 1.3046 -2.5100 0.9723
6.2770 1.8708 -2.5100 0.9723
5.8459 2.9541 -2.5100 0.9723
5.2295 3.9437 -2.5100 0.9723
4.4474 4.8085 -2.5100 0.9723
4.0018 5.1853 -2.5100 0.9723
3.5244 5.5209 -2.5100 0.9723
1.3761 6.4037 -2.5100 0.9723
0.8006 6.5008 -2.5100 0.9723
-0.3647 6.5397 -2.5100 0.9723
-0.9453 6.4813 -2.5100 0.9723
-1.5184 6.3714 -2.5100 0.9723
-2.5162 5.7548 -2.4069 0.9735
-3.4967 5.2175 -2.4069 0.9735
-3.9472 4.8856 -2.4069 0.9735
-4.7509 4.1083 -2.4069 0.9735
-5.4041 3.2008 -2.4069 0.9735
-9.1646 3.4129 -3.7477 0.9590
-11.1006 1.9999 -4.3224 0.9528
-17.9719 0.0000 -7.3554 0.9253
-1.6200 -0.2919 -0.6737 0.9929
-5.5112 -2.0524 -2.4069 0.9749
-5.3067 -2.5348 -2.4069 0.9749
-5.0600 -2.9971 -2.4069 0.9749
-4.0884 -4.2274 -2.4069 0.9749
-3.2741 -4.8853 -2.4069 0.9749
-1.8671 -5.5768 -2.4069 0.9749
-0.8851 -6.0687 -2.5100 0.9738
0.7497 -6.0869 -2.5100 0.9738
1.2885 -5.9960 -2.5100 0.9738
1.8170 -5.8575 -2.5100 0.9738
2.8268 -5.4426 -2.5100 0.9738
3.7470 -4.8551 -2.5100 0.9738
4.1643 -4.5023 -2.5100 0.9738
4.8966 -3.6927 -2.5100 0.9738
5.2058 -3.2422 -2.5100 0.9738
5.6982 -2.2678 -2.5100 0.9738
6.0949 -0.6818 -2.5100 0.9738
6.1314 -0.1366 -2.5100 0.9738
6.1192 0.4096 -2.5100 0.9738
5.7935 2.0117 -2.5100 0.9738
5.0562 3.4709 -2.5100 0.9738
4.7272 3.9071 -2.5100 0.9738
4.3607 4.3124 -2.5100 0.9738
3.9596 4.6834 -2.5100 0.9738
3.0664 5.3112 -2.5100 0.9738
2.5815 5.5631 -2.5100 0.9738
1.0201 6.0475 -2.5100 0.9738
0.4778 6.1142 -2.5100 0.9738
-0.0683 6.1325 -2.5100 0.9738
-0.6139 6.1021 -2.5100 0.9738
-1.1546 6.0232 -2.5100 0.9738
-2.1137 5.4880 -2.4069 0.9749
-2.5937 5.2781 -2.4069 0.9749
-3.0532 5.0263 -2.4069 0.9749
-3.8960 4.4053 -2.4069 0.9749
-4.2727 4.0411 -2.4069 0.9749
-4.6154 3.6447 -2.4069 0.9749
-5.1885 2.7687 -2.4069 0.9749
-5.4143 2.2959 -2.4069 0.9749
-1.5889 0.5124 -0.6833 0.9928
-1.6146 0.3658 -0.6776 0.9929
-18.2588 0.8142 -7.4803 0.9240
-1.6301 -0.2192 -0.6732 0.9929
-1.6146 -0.3658 -0.6776 0.9929
-1.5889 -0.5124 -0.6833 0.9928
-4.6154 -3.6448 -2.4069 0.9749
-3.8961 -4.4053 -2.4069 0.9749
-3.4885 -4.7346 -2.4069 0.9749
-2.5938 -5.2781 -2.4069 0.9749
-0.6139 -6.1021 -2.5100 0.9738
1.0201 -6.0475 -2.5100 0.9738
2.0762 -5.7708 -2.5100 0.9738
2.5815 -5.5631 -2.5100 0.9738
3.9596 -4.6834 -2.5100 0.9738
5.5915 -2.5194 -2.5100 0.9738
5.7935 -2.0117 -2.5100 0.9738
6.1314 0.1366 -2.5100 0.9738
6.0949 0.6818 -2.5100 0.9738
6.0100 1.2216 -2.5100 0.9738
5.2058 3.2422 -2.5100 0.9738
3.7470 4.8551 -2.5100 0.9738
2.3312 5.6726 -2.5100 0.9738
1.2885 5.9960 -2.5100 0.9738
0.7497 6.0869 -2.5100 0.9738
0.2049 6.1295 -2.5100 0.9738
-0.8851 6.0687 -2.5100 0.9738
-1.4217 5.9658 -2.5100 0.9738
-1.8671 5.5768 -2.4069 0.9749
-4.0884 4.2274 -2.4069 0.9749
-5.0600 2.9971 -2.4069 0.9749
-5.5112 2.0524 -2.4069 0.9749
-1.6390 0.1465 -0.6735 0.9929
-1.5015 -0.2705 -0.6649 0.9934
-4.4825 -3.2263 -2.4069 0.9762
-4.1775 -3.6125 -2.4069 0.9762
-3.8394 -3.9699 -2.4069 0.9762
-3.0747 -4.5878 -2.4069 0.9762
-2.6542 -4.8433 -2.4069 0.9762
-1.7703 -5.2877 -2.4302 0.9760
-0.3206 -5.7504 -2.5100 0.9752
1.2100 -5.6308 -2.5100 0.9752
1.7064 -5.5008 -2.5100 0.9752
2.1892 -5.3271 -2.5100 0.9752
2.6546 -5.1111 -2.5100 0.9752
3.0990 -4.8545 -2.5100 0.9752
3.9107 -4.2282 -2.5100 0.9752
4.2715 -3.8633 -2.5100 0.9752
4.8888 -3.0447 -2.5100 0.9752
5.1404 -2.5975 -2.5100 0.9752
5.3511 -2.1297 -2.5100 0.9752
5.5195 -1.6450 -2.5100 0.9752
5.7237 -0.6403 -2.5100 0.9752
5.7580 -0.1283 -2.5100 0.9752
5.6895 0.8946 -2.5100 0.9752
5.5873 1.3975 -2.5100 0.9752
5.2510 2.3660 -2.5100 0.9752
3.3122 4.7117 -2.5100 0.9752
2.4243 5.2243 -2.5100 0.9752
1.4596 5.5713 -2.5100 0.9752
0.4487 5.7419 -2.5100 0.9752
-0.5765 5.7304 -2.5100 0.9752
-1.5829 5.5359 -2.5093 0.9752
-1.9849 5.1538 -2.4069 0.9762
-3.6588 4.1370 -2.4069 0.9762
-4.6218 3.0234 -2.4069 0.9762
-4.8725 2.6001 -2.4069 0.9762
-5.0846 2.1561 -2.4069 0.9762
-1.5133 0.2035 -0.6654 0.9934
-1.5259 -0.0680 -0.6657 0.9934
-1.5133 -0.2035 -0.6654 0.9934
-1.5029 -0.3405 -0.6716 0.9933
-1.4861 -0.4792 -0.6805 0.9932
-4.6218 -3.0234 -2.4069 0.9762
-4.3343 -3.4228 -2.4069 0.9762
-3.2760 -4.4463 -2.4069 0.9762
-2.8673 -4.7202 -2.4069 0.9762
-2.4358 -4.9567 -2.4069 0.9762
-1.9850 -5.1538 -2.4069 0.9762
-1.0842 -5.6564 -2.5100 0.9752
-0.5765 -5.7305 -2.5100 0.9752
-0.0642 -5.7590 -2.5100 0.9752
0.9580 -5.6791 -2.5100 0.9752
1.4596 -5.5713 -2.5100 0.9752
2.8797 -4.9878 -2.5100 0.9752
3.3122 -4.7117 -2.5100 0.9752
3.7184 -4.3982 -2.5100 0.9752
5.0195 -2.8239 -2.5100 0.9752
5.4407 -1.8892 -2.5100 0.9752
5.5873 -1.3975 -2.5100 0.9752
5.7465 -0.3847 -2.5100 0.9752
5.7237 0.6403 -2.5100 0.9752
4.8888 3.0447 -2.5100 0.9752
4.5984 3.4678 -2.5100 0.9752
4.2715 3.8633 -2.5100 0.9752
3.5188 4.5595 -2.5100 0.9752
3.0990 4.8545 -2.5100 0.9752
2.1892 5.3271 -2.5100 0.9752
1.7064 5.5008 -2.5100 0.9752
-0.3206 5.7504 -2.5100 0.9752
-3.0747 4.5878 -2.4069 0.9762
-4.1775 3.6125 -2.4069 0.9762
-4.4825 3.2263 -2.4069 0.9762
-4.7519 2.8145 -2.4069 0.9762
-4.9835 2.3804 -2.4069 0.9762
-5.1756 1.9274 -2.4069 0.9762
-1.5001 0.4109 -0.6779 0.9932
-1.5215 0.1360 -0.6657 0.9934
-1.4219 0.0000 -0.6582 0.9938
-1.3993 -0.2521 -0.6581 0.9938
-1.3946 -0.3820 -0.6693 0.9936
-4.2204 -3.0376 -2.4069 0.9773
-3.9333 -3.4012 -2.4069 0.9773
-3.6149 -3.7378 -2.4069 0.9773
-3.2679 -4.0447 -2.4069 0.9773
-2.4990 -4.5600 -2.4069 0.9773
-2.0832 -4.7644 -2.4069 0.9773
-0.7826 -5.3658 -2.5100 0.9764
0.1812 -5.4196 -2.5100 0.9764
0.6628 -5.3819 -2.5100 0.9764
1.6066 -5.1791 -2.5100 0.9764
2.0612 -5.0156 -2.5100 0.9764
2.4994 -4.8122 -2.5100 0.9764
3.3130 -4.2928 -2.5100 0.9764
4.0217 -3.6374 -2.5100 0.9764
4.6029 -2.8667 -2.5100 0.9764
4.8398 -2.4456 -2.5100 0.9764
5.3890 -0.6029 -2.5100 0.9764
5.4105 0.3622 -2.5100 0.9764
5.2605 1.3157 -2.5100 0.9764
5.1226 1.7787 -2.5100 0.9764
4.9439 2.2276 -2.5100 0.9764
3.8557 3.8129 -2.5100 0.9764
3.5010 4.1410 -2.5100 0.9764
2.7113 4.6961 -2.5100 0.9764
2.2826 4.9188 -2.5100 0.9764
1.8357 5.1024 -2.5100 0.9764
0.9019 5.3471 -2.5100 0.9764
0.4224 5.4061 -2.5100 0.9764
-0.0604 5.4223 -2.5100 0.9764
-1.4908 5.2137 -2.5100 0.9764
-1.8689 4.8524 -2.4069 0.9773
-2.2933 4.6668 -2.4069 0.9773
-2.6996 4.4442 -2.4069 0.9773
-3.4448 3.8951 -2.4069 0.9773
-4.0809 3.2226 -2.4069 0.9773
-1.3890 0.4479 -0.6755 0.9936
-1.3967 0.3165 -0.6629 0.9937
-1.4212 0.0634 -0.6585 0.9937
-1.3890 -0.4479 -0.6755 0.9936
-4.5876 -2.4480 -2.4069 0.9773
-3.7778 -3.5730 -2.4069 0.9773
-2.6996 -4.4442 -2.4069 0.9773
-1.8689 -4.8524 -2.4069 0.9773
-1.4908 -5.2136 -2.5100 0.9764
-0.5428 -5.3954 -2.5100 0.9764
0.9019 -5.3471 -2.5100 0.9764
1.3743 -5.2455 -2.5100 0.9764
1.8357 -5.1024 -2.5100 0.9764
2.2826 -4.9188 -2.5100 0.9764
2.7113 -4.6961 -2.5100 0.9764
3.1185 -4.4361 -2.5100 0.9764
3.8556 -3.8129 -2.5100 0.9764
4.4706 -3.0689 -2.5100 0.9764
4.7260 -2.6588 -2.5100 0.9764
4.9439 -2.2276 -2.5100 0.9764
5.1226 -1.7787 -2.5100 0.9764
5.3568 -0.8423 -2.5100 0.9764
5.4105 -0.3622 -2.5100 0.9764
5.4212 0.1208 -2.5100 0.9764
5.3890 0.6029 -2.5100 0.9764
5.3139 1.0801 -2.5100 0.9764
5.1967 1.5488 -2.5100 0.9764
5.0382 2.0052 -2.5100 0.9764
4.3295 3.2650 -2.5100 0.9764
3.6820 3.9809 -2.5100 0.9764
3.3130 4.2928 -2.5100 0.9764
2.9178 4.5706 -2.5100 0.9764
1.6066 5.1791 -2.5100 0.9764
1.1392 5.3016 -2.5100 0.9764
0.6628 5.3819 -2.5100 0.9764
0.1812 5.4196 -2.5100 0.9764
-0.7826 5.3658 -2.5100 0.9764
-3.6149 3.7378 -2.4069 0.9773
-4.2204 3.0376 -2.4069 0.9773
-1.3946 0.3820 -0.6693 0.9936
-1.3061 -0.3578 -0.6642 0.9940
-1.2931 -0.4815 -0.6768 0.9939
-3.9826 -2.8665 -2.4069 0.9784
-3.0838 -3.8168 -2.4069 0.9784
-1.9658 -4.4959 -2.4069 0.9784
-1.1862 -4.9777 -2.5100 0.9775
-0.7385 -5.0635 -2.5100 0.9775
0.6255 -5.0787 -2.5100 0.9775
1.0750 -5.0029 -2.5100 0.9775
1.5161 -4.8873 -2.5100 0.9775
2.3586 -4.5411 -2.5100 0.9775
3.7951 -3.4324 -2.5100 0.9775
4.0855 -3.0810 -2.5100 0.9775
4.5671 -2.3079 -2.5100 0.9775
5.0145 -1.0192 -2.5100 0.9775
5.0853 -0.5689 -2.5100 0.9775
5.1056 0.3418 -2.5100 0.9775
4.9641 1.2416 -2.5100 0.9775
4.6653 2.1021 -2.5100 0.9775
4.4597 2.5090 -2.5100 0.9775
3.6384 3.5981 -2.5100 0.9775
1.7323 4.8149 -2.5100 0.9775
1.2968 4.9500 -2.5100 0.9775
-0.5122 5.0914 -2.5100 0.9775
-1.4068 4.9199 -2.5100 0.9775
-2.1641 4.4039 -2.4069 0.9784
-2.1818 2.9612 -1.8042 0.9837
-3.8509 3.0411 -2.4069 0.9784
-1.3003 0.4193 -0.6702 0.9939
-1.3251 0.1782 -0.6559 0.9941
-1.3355 0.0596 -0.6558 0.9941
-1.3089 -0.2966 -0.6583 0.9940
-4.5175 -1.9156 -2.4069 0.9784
-4.3291 -2.3101 -2.4069 0.9784
-2.1641 -4.4039 -2.4069 0.9784
-1.7729 -4.6031 -2.4196 0.9783
-1.4068 -4.9199 -2.5100 0.9775
-0.0570 -5.1167 -2.5100 0.9775
0.3986 -5.1015 -2.5100 0.9775
0.8511 -5.0458 -2.5100 0.9775
2.5585 -4.4315 -2.5100 0.9775
2.9428 -4.1862 -2.5100 0.9775
3.3037 -3.9077 -2.5100 0.9775
3.9442 -3.2600 -2.5100 0.9775
4.2187 -2.8960 -2.5100 0.9775
4.4597 -2.5090 -2.5100 0.9775
4.6653 -2.1021 -2.5100 0.9775
4.8339 -1.6785 -2.5100 0.9775
4.9641 -1.2416 -2.5100 0.9775
5.1056 -0.3418 -2.5100 0.9775
5.1158 0.1140 -2.5100 0.9775
5.0145 1.0192 -2.5100 0.9775
4.0855 3.0810 -2.5100 0.9775
3.7951 3.4324 -2.5100 0.9775
3.1264 4.0509 -2.5100 0.9775
1.5161 4.8873 -2.5100 0.9775
1.0750 5.0029 -2.5100 0.9775
-1.9658 4.4959 -2.4069 0.9784
-3.4112 3.5272 -2.4069 0.9784
-1.3061 0.3578 -0.6642 0.9940
-1.3159 0.2371 -0.6559 0.9941
-1.3317 0.1190 -0.6558 0.9941
-1.2576 -0.1124 -0.6550 0.9943
-1.2426 -0.2239 -0.6550 0.9943
-1.2283 -0.3365 -0.6607 0.9943
-1.2162 -0.4529 -0.6733 0.9942
-4.1866 -1.9997 -2.4069 0.9793
-3.9919 -2.3644 -2.4069 0.9793
-3.2254 -3.3351 -2.4069 0.9793
-2.0470 -3.0543 -1.9075 0.9836
-2.2297 -4.0687 -2.4069 0.9793
-1.8587 -4.2510 -2.4069 0.9793
-1.1216 -4.7066 -2.5100 0.9784
-0.6983 -4.7877 -2.5100 0.9784
1.4335 -4.6211 -2.5100 0.9784
1.8391 -4.4752 -2.5100 0.9784
2.9561 -3.8303 -2.5100 0.9784
3.2853 -3.5520 -2.5100 0.9784
3.5884 -3.2455 -2.5100 0.9784
3.8630 -2.9132 -2.5100 0.9784
4.3183 -2.1821 -2.5100 0.9784
4.4954 -1.7891 -2.5100 0.9784
4.6368 -1.3819 -2.5100 0.9784
4.7414 -0.9637 -2.5100 0.9784
4.8084 -0.5379 -2.5100 0.9784
4.8275 0.3232 -2.5100 0.9784
4.6938 1.1740 -2.5100 0.9784
4.4112 1.9876 -2.5100 0.9784
3.9889 2.7382 -2.5100 0.9784
3.4402 3.4021 -2.5100 0.9784
2.7825 3.9582 -2.5100 0.9784
1.6379 4.5527 -2.5100 0.9784
1.2262 4.6804 -2.5100 0.9784
0.3769 4.8236 -2.5100 0.9784
-0.4843 4.8141 -2.5100 0.9784
-1.3302 4.6519 -2.5100 0.9784
-1.6675 4.3296 -2.4069 0.9793
-2.4088 3.9654 -2.4069 0.9793
-3.0737 3.4754 -2.4069 0.9793
-1.2222 0.3941 -0.6662 0.9942
-1.2316 0.2790 -0.6551 0.9943
-1.2514 0.1683 -0.6551 0.9943
-1.2613 0.0562 -0.6550 0.9943
-1.2613 -0.0562 -0.6550 0.9943
-1.2514 -0.1683 -0.6551 0.9943
-1.2222 -0.3941 -0.6662 0.9942
-4.0933 -2.1843 -2.4069 0.9793
-3.8827 -2.5399 -2.4069 0.9793
-3.3708 -3.1881 -2.4069 0.9793
-3.0737 -3.4754 -2.4069 0.9793
-2.7521 -3.7352 -2.4069 0.9793
-1.6675 -4.3296 -2.4069 0.9793
-1.3302 -4.6519 -2.5100 0.9784
-0.9109 -4.7518 -2.5100 0.9784
0.8048 -4.7709 -2.5100 0.9784
1.2262 -4.6804 -2.5100 0.9784
2.0366 -4.3888 -2.5100 0.9784
2.4192 -4.1901 -2.5100 0.9784
3.1238 -3.6948 -2.5100 0.9784
3.4402 -3.4021 -2.5100 0.9784
4.2168 -2.3723 -2.5100 0.9784
4.5706 -1.5871 -2.5100 0.9784
4.8371 0.1078 -2.5100 0.9784
4.7414 0.9637 -2.5100 0.9784
4.4954 1.7891 -2.5100 0.9784
4.3183 2.1821 -2.5100 0.9784
4.1070 2.5578 -2.5100 0.9784
3.8630 2.9132 -2.5100 0.9784
2.2301 4.2937 -2.5100 0.9784
1.8391 4.4752 -2.5100 0.9784
0.5914 4.8021 -2.5100 0.9784
0.1617 4.8357 -2.5100 0.9784
-2.0372 3.0397 -1.8983 0.9836
-2.9158 3.6089 -2.4069 0.9793
-3.2254 3.3351 -2.4069 0.9793
-3.5095 3.0348 -2.4069 0.9793
-1.2283 0.3365 -0.6607 0.9943
-1.2576 0.1124 -0.6550 0.9943
-1.1899 -0.1063 -0.6543 0.9946
-1.1756 -0.2118 -0.6543 0.9946
-1.1464 -0.4269 -0.6700 0.9944
-3.9655 -1.8941 -2.4069 0.9802
-3.7811 -2.2396 -2.4069 0.9802
-3.5668 -2.5672 -2.4069 0.9802
-2.0404 -3.0445 -2.0074 0.9834
-1.4550 -4.3457 -2.5100 0.9793
-1.0624 -4.4580 -2.5100 0.9793
-0.2551 -4.5757 -2.5100 0.9793
0.1531 -4.5803 -2.5100 0.9793
0.5602 -4.5485 -2.5100 0.9793
1.3578 -4.3771 -2.5100 0.9793
2.4659 -3.8628 -2.5100 0.9793
2.8000 -3.6280 -2.5100 0.9793
3.3989 -3.0741 -2.5100 0.9793
3.6590 -2.7594 -2.5100 0.9793
3.8901 -2.4228 -2.5100 0.9793
4.3919 -1.3089 -2.5100 0.9793
4.5817 -0.1021 -2.5100 0.9793
4.5272 0.7119 -2.5100 0.9793
4.3293 1.5033 -2.5100 0.9793
3.9941 2.2471 -2.5100 0.9793
3.2586 3.2224 -2.5100 0.9793
2.9588 3.4997 -2.5100 0.9793
2.2914 3.9688 -2.5100 0.9793
1.9291 4.1571 -2.5100 0.9793
1.5514 4.3123 -2.5100 0.9793
1.1615 4.4332 -2.5100 0.9793
0.7623 4.5190 -2.5100 0.9793
0.3570 4.5689 -2.5100 0.9793
-0.0511 4.5825 -2.5100 0.9793
-0.4587 4.5598 -2.5100 0.9793
-0.8627 4.5009 -2.5100 0.9793
-1.2599 4.4062 -2.5100 0.9793
-1.5906 4.1299 -2.4239 0.9800
-2.2816 3.7559 -2.4069 0.9802
-2.1754 2.9525 -2.0086 0.9834
-3.1928 3.0197 -2.4069 0.9802
-3.6776 2.4058 -2.4069 0.9802
-3.8771 2.0689 -2.4069 0.9802
-1.1411 0.4838 -0.6788 0.9944
-1.1649 0.2639 -0.6542 0.9946
-1.1840 0.1592 -0.6543 0.9946
-1.1933 0.0532 -0.6542 0.9946
-1.1515 -0.3713 -0.6626 0.9945
-1.1411 -0.4838 -0.6788 0.9944
-3.8771 -2.0689 -2.4069 0.9802
-3.6776 -2.4058 -2.4069 0.9802
-3.4489 -2.7236 -2.4069 0.9802
-3.1928 -3.0197 -2.4069 0.9802
-2.9113 -3.2919 -2.4069 0.9802
-1.9382 -3.9441 -2.4069 0.9802
-1.5906 -4.1299 -2.4239 0.9800
-1.2599 -4.4062 -2.5100 0.9793
0.7623 -4.5190 -2.5100 0.9793
1.1614 -4.4332 -2.5100 0.9793
1.5514 -4.3122 -2.5100 0.9793
2.2914 -3.9689 -2.5100 0.9793
2.9588 -3.4997 -2.5100 0.9793
3.2586 -3.2225 -2.5100 0.9793
3.5324 -2.9196 -2.5100 0.9793
3.7783 -2.5936 -2.5100 0.9793
4.1783 -1.8826 -2.5100 0.9793
4.4459 -1.1120 -2.5100 0.9793
4.5544 0.5095 -2.5100 0.9793
4.3919 1.3089 -2.5100 0.9793
4.2580 1.6946 -2.5100 0.9793
3.8901 2.4228 -2.5100 0.9793
3.6590 2.7594 -2.5100 0.9793
3.3989 3.0741 -2.5100 0.9793
3.1118 3.3644 -2.5100 0.9793
2.8000 3.6280 -2.5100 0.9793
2.4659 3.8628 -2.5100 0.9793
2.1123 4.0670 -2.5100 0.9793
1.7420 4.2388 -2.5100 0.9793
0.5602 4.5485 -2.5100 0.9793
0.1531 4.5803 -2.5100 0.9793
-0.2551 4.5757 -2.5100 0.9793
-0.6614 4.5349 -2.5100 0.9793
-1.4550 4.3457 -2.5100 0.9793
-1.7721 4.0530 -2.4227 0.9800
-1.1577 0.3171 -0.6575 0.9945
-1.1756 0.2118 -0.6543 0.9946
-1.1899 0.1063 -0.6543 0.9946
-1.1141 -0.2007 -0.6536 0.9948
-1.0934 -0.2995 -0.6545 0.9948
-1.0827 -0.4032 -0.6671 0.9947
-3.7618 -1.7969 -2.4069 0.9809
-3.3836 -2.4354 -2.4069 0.9809
-2.6200 -3.2428 -2.4069 0.9809
-2.0404 -3.0445 -2.1160 0.9832
-2.0035 -3.6560 -2.4069 0.9809
-1.3802 -4.1226 -2.5100 0.9801
-0.2420 -4.3408 -2.5100 0.9801
0.5314 -4.3149 -2.5100 0.9801
1.6525 -4.0212 -2.5100 0.9801
3.2243 -2.9162 -2.5100 0.9801
3.4711 -2.6177 -2.5100 0.9801
3.6903 -2.2983 -2.5100 0.9801
3.8802 -1.9608 -2.5100 0.9801
4.0394 -1.6076 -2.5100 0.9801
4.2604 -0.8660 -2.5100 0.9801
4.3378 0.2904 -2.5100 0.9801
4.2176 1.0549 -2.5100 0.9801
4.1070 1.4261 -2.5100 0.9801
3.9637 1.7860 -2.5100 0.9801
3.7890 2.1317 -2.5100 0.9801
2.5002 3.5566 -2.5100 0.9801
1.8300 3.9436 -2.5100 0.9801
1.4718 4.0908 -2.5100 0.9801
0.7231 4.2870 -2.5100 0.9801
0.3387 4.3343 -2.5100 0.9801
-1.5625 4.0570 -2.5100 0.9801
-1.8387 3.7416 -2.4069 0.9809
-2.1721 2.9480 -2.1142 0.9832
-2.7619 3.1229 -2.4069 0.9809
-3.0288 2.8646 -2.4069 0.9809
-3.2718 2.5837 -2.4069 0.9809
-3.4888 2.2823 -2.4069 0.9809
-3.6781 1.9627 -2.4069 0.9809
-1.0769 0.4566 -0.6753 0.9946
-1.1220 0.1509 -0.6536 0.9948
-1.1309 -0.0504 -0.6536 0.9948
-1.1039 -0.2501 -0.6535 0.9948
-1.0870 -0.3505 -0.6594 0.9947
-1.0769 -0.4566 -0.6753 0.9946
-3.6781 -1.9627 -2.4069 0.9809
-3.2718 -2.5837 -2.4069 0.9809
-2.7619 -3.1229 -2.4069 0.9809
-2.4729 -3.3563 -2.4069 0.9809
-0.8184 -4.2698 -2.5100 0.9801
-0.0484 -4.3472 -2.5100 0.9801
0.3387 -4.3343 -2.5100 0.9801
0.7231 -4.2870 -2.5100 0.9801
1.4718 -4.0908 -2.5100 0.9801
1.8300 -3.9436 -2.5100 0.9801
2.1738 -3.7650 -2.5100 0.9801
2.8069 -3.3200 -2.5100 0.9801
3.3510 -2.7697 -2.5100 0.9801
3.5843 -2.4605 -2.5100 0.9801
3.9637 -1.7860 -2.5100 0.9801
4.1070 -1.4261 -2.5100 0.9801
4.2176 -1.0549 -2.5100 0.9801
4.2947 -0.6753 -2.5100 0.9801
4.3378 -0.2904 -2.5100 0.9801
4.3464 0.0969 -2.5100 0.9801
4.3206 0.4833 -2.5100 0.9801
4.2604 0.8660 -2.5100 0.9801
4.1664 1.2417 -2.5100 0.9801
4.0394 1.6076 -2.5100 0.9801
3.8802 1.9608 -2.5100 0.9801
2.9520 3.1916 -2.5100 0.9801
2.6562 3.4417 -2.5100 0.9801
2.3393 3.6645 -2.5100 0.9801
2.0039 3.8581 -2.5100 0.9801
1.6525 4.0212 -2.5100 0.9801
1.2881 4.1523 -2.5100 0.9801
0.1453 4.3451 -2.5100 0.9801
-0.2420 4.3408 -2.5100 0.9801
-1.0078 4.2291 -2.5100 0.9801
-1.3802 4.1226 -2.5100 0.9801
-2.0285 3.0267 -2.1036 0.9833
-2.6200 3.2428 -2.4069 0.9809
-2.8982 2.9968 -2.4069 0.9809
-3.1534 2.7269 -2.4069 0.9809
-3.5870 2.1246 -2.4069 0.9809
-3.7618 1.7969 -2.4069 0.9809
-1.0934 0.2995 -0.6545 0.9948
-1.1141 0.2007 -0.6536 0.9948
-1.1276 0.1008 -0.6536 0.9948
