ply
format ascii 1.0
element vertex 1415
property float32 x
property float32 y
property float32 z
property float32 I
end_header
7.0664 -15.2276 2.9601 0.9341
7.0656 -15.2260 2.1858 0.9345
12.0285 15.5858 2.5637 0.9237
7.0652 -15.2252 1.8024 0.9347
12.0285 15.5858 2.1141 0.9239
12.8555 15.2055 1.6856 0.9232
11.4502 16.2882 1.6854 0.9232
12.0353 15.5945 1.2215 0.9241
7.0636 -15.2216 0.6617 0.9350
11.4575 16.2986 0.3365 0.9234
12.0353 15.5945 0.3327 0.9242
11.4575 16.2986 -0.1122 0.9234
-18.5629 5.9857 -0.1098 0.9249
7.0621 -15.2184 -0.0945 0.9351
17.9263 0.3995 -0.1010 0.9308
17.7860 -0.3964 -0.5009 0.9313
7.0613 -15.2168 -0.4724 0.9351
17.7860 -0.3963 -0.9022 0.9312
-18.0915 5.8337 -0.9640 0.9267
7.0606 -15.2152 -0.8507 0.9350
17.9263 0.3995 -0.9093 0.9307
12.0353 15.5945 -0.9990 0.9241
17.7860 -0.3964 -1.3044 0.9311
11.4575 16.2986 -1.4608 0.9232
-9.2633 15.2495 -1.3083 0.9309
-10.0586 13.6516 -1.2433 0.9343
-11.3409 12.8233 -1.2552 0.9336
-12.3789 11.7079 -1.2493 0.9339
-15.2299 9.9629 -1.3344 0.9296
-17.8205 7.5565 -1.4193 0.9253
7.0598 -15.2136 -1.2297 0.9349
10.8303 -12.8102 -1.2300 0.9349
17.6476 -1.1814 -1.2969 0.9315
17.9263 0.3995 -1.3147 0.9306
12.0353 15.5945 -1.4443 0.9240
-9.1492 16.6952 -1.3959 0.9265
-11.8939 12.2982 -1.2545 0.9337
-17.6687 8.4396 -1.4357 0.9245
-17.7772 6.6203 -1.3909 0.9267
10.4619 -16.3884 -1.8666 0.9248
17.7860 -0.3963 -1.7080 0.9310
-10.8678 12.2884 -1.5749 0.9362
-11.8783 11.2344 -1.5696 0.9364
-16.7326 8.9288 -1.8208 0.9266
-18.0516 7.6545 -1.8824 0.9242
7.0272 -15.1432 -1.6027 0.9351
10.4983 -12.4175 -1.5611 0.9367
10.5246 -8.6988 -1.3109 0.9466
17.6476 -1.1813 -1.6981 0.9314
17.9263 0.3995 -1.7214 0.9305
12.0353 15.5945 -1.8912 0.9239
-8.7491 15.9652 -1.7478 0.9295
-9.0163 13.4533 -1.5548 0.9370
-10.5324 13.0361 -1.6090 0.9349
-11.0675 11.4437 -1.5284 0.9380
-15.3005 9.0625 -1.7073 0.9310
-17.5904 8.4021 -1.8715 0.9247
-5.6582 -10.3248 -1.3985 0.9537
-5.6157 -12.8436 -1.6651 0.9451
-5.6236 -16.7968 -2.1041 0.9311
10.4675 -13.5632 -2.0351 0.9333
10.4720 -11.3222 -1.8320 0.9398
17.7860 -0.3963 -2.1133 0.9308
-8.5367 14.0533 -1.9532 0.9359
-10.4308 11.7943 -1.8703 0.9385
-11.4759 10.8538 -1.8763 0.9384
-12.9978 10.2643 -1.9673 0.9355
-14.0848 9.2139 -1.9993 0.9345
-16.0004 8.5380 -2.1543 0.9296
-17.5797 5.6687 -2.1941 0.9283
10.4739 -10.3579 -1.7498 0.9424
10.4773 -8.6597 -1.6146 0.9467
10.5366 -2.6354 -1.2902 0.9572
-8.3797 15.2911 -2.0712 0.9322
-12.3881 10.7124 -1.9454 0.9362
-17.3349 6.4556 -2.1973 0.9282
-3.8655 -16.2205 -2.3626 0.9349
-2.4065 -16.5002 -2.3626 0.9349
5.1559 -16.6210 -2.4657 0.9321
6.4638 -15.7287 -2.4094 0.9336
7.6853 -14.7968 -2.3625 0.9349
8.9718 -14.0541 -2.3625 0.9349
10.1870 -13.1997 -2.3625 0.9349
10.4788 -7.9024 -1.8596 0.9484
10.4840 -5.2978 -1.6644 0.9537
10.5202 -3.1354 -1.5554 0.9566
10.8636 -2.2081 -1.5707 0.9562
16.7337 -1.8720 -2.3858 0.9342
16.8339 -0.3751 -2.3858 0.9342
16.8005 1.1246 -2.3858 0.9342
16.6337 2.6155 -2.3858 0.9342
16.3349 4.0856 -2.3858 0.9342
14.6751 8.2561 -2.3858 0.9342
11.9725 11.8398 -2.3858 0.9342
9.5889 13.6404 -2.3625 0.9349
8.3368 14.4398 -2.3625 0.9349
2.8945 17.1599 -2.4657 0.9321
-0.1939 17.4012 -2.4657 0.9321
-1.6691 16.5910 -2.3626 0.9349
-4.5843 16.0322 -2.3626 0.9349
-7.8587 15.9920 -2.5247 0.9305
-9.0779 12.3207 -2.1684 0.9400
-10.0709 11.3873 -2.1539 0.9404
-11.1080 10.5059 -2.1663 0.9401
-13.6456 8.9265 -2.3104 0.9362
-15.3268 8.1786 -2.4615 0.9322
-17.4376 7.3942 -2.6837 0.9263
-17.4480 5.6262 -2.5976 0.9286
-4.5843 -16.0322 -2.3626 0.9349
-3.1391 -16.3766 -2.3626 0.9349
-1.6691 -16.5910 -2.3626 0.9349
-0.1939 -17.4012 -2.4657 0.9321
2.8945 -17.1599 -2.4657 0.9321
4.4104 -16.8342 -2.4657 0.9321
5.8912 -16.3748 -2.4657 0.9321
7.0185 -15.1245 -2.3625 0.9349
10.4739 -10.3579 -2.0872 0.9422
10.4828 -5.8975 -1.7042 0.9526
10.4851 -4.7244 -1.6295 0.9546
10.5067 -3.6483 -1.5759 0.9561
13.3337 -2.0966 -1.9125 0.9469
16.8005 -1.1247 -2.3858 0.9342
16.8339 0.3751 -2.3858 0.9342
16.7337 1.8719 -2.3858 0.9342
16.1367 4.8092 -2.3858 0.9342
15.0283 7.5941 -2.3858 0.9342
14.2928 8.9016 -2.3858 0.9342
12.4880 11.2947 -2.3858 0.9342
11.4332 12.3614 -2.3858 0.9342
10.1871 13.1997 -2.3625 0.9349
7.6853 14.7968 -2.3625 0.9349
6.4638 15.7286 -2.4094 0.9336
0.5815 17.3926 -2.4657 0.9321
-3.8655 16.2205 -2.3626 0.9349
-5.5065 12.5938 -1.9475 0.9460
-8.0377 14.6668 -2.3697 0.9347
-9.7986 12.1278 -2.2092 0.9390
-10.3744 10.7271 -2.1144 0.9415
-11.9656 10.3470 -2.2414 0.9381
-13.0319 9.3798 -2.2750 0.9372
-16.7250 7.9889 -2.6262 0.9279
-17.2343 6.4181 -2.6058 0.9284
-5.6069 -8.3660 -1.6591 0.9600
-5.6106 -10.2380 -1.9233 0.9538
-2.0698 -14.1915 -2.3626 0.9435
-0.8333 -14.9442 -2.4657 0.9411
3.1445 -14.6334 -2.4657 0.9411
4.4345 -14.2954 -2.4657 0.9411
10.4788 -7.9024 -2.1621 0.9482
10.4815 -6.5280 -2.0342 0.9512
10.4862 -4.1734 -1.8593 0.9553
10.4883 -3.1259 -1.8029 0.9566
10.4902 -2.1322 -1.7635 0.9575
14.3924 -1.6100 -2.3858 0.9430
13.2037 5.9493 -2.3858 0.9430
12.6218 7.1009 -2.3858 0.9430
11.1628 9.2263 -2.3858 0.9430
3.7933 14.4788 -2.4657 0.9411
2.4895 14.7589 -2.4657 0.9411
1.1660 14.9220 -2.4657 0.9411
-0.1667 14.9665 -2.4657 0.9411
-1.4982 14.8922 -2.4657 0.9411
-7.5301 15.3232 -2.8127 0.9331
-9.7569 11.0323 -2.4262 0.9420
-12.1694 9.6101 -2.5545 0.9391
-16.9476 7.1864 -3.0326 0.9281
-17.4024 5.6115 -3.0122 0.9286
-5.6483 -5.3421 -1.2807 0.9690
-5.7894 -7.8575 -1.6079 0.9612
-5.6129 -11.4220 -2.0966 0.9497
-5.1545 -13.3834 -2.3626 0.9435
-3.9429 -13.7890 -2.3626 0.9435
-2.6999 -14.0852 -2.3626 0.9435
-1.4982 -14.8923 -2.4657 0.9411
-0.1667 -14.9665 -2.4657 0.9411
1.1660 -14.9220 -2.4657 0.9411
2.4895 -14.7589 -2.4657 0.9411
3.7933 -14.4788 -2.4657 0.9411
5.0669 -14.0837 -2.4657 0.9411
6.3003 -13.5768 -2.4657 0.9411
7.1703 -12.4194 -2.3625 0.9435
8.2473 -11.7319 -2.3625 0.9435
9.2587 -10.9513 -2.3625 0.9435
10.4773 -8.6597 -2.2393 0.9464
10.4802 -7.1943 -2.0941 0.9498
10.4828 -5.8975 -1.9815 0.9524
13.3794 -2.1038 -2.2312 0.9466
14.4498 -0.9673 -2.3858 0.9430
14.4786 0.3227 -2.3858 0.9430
14.3924 1.6100 -2.3858 0.9430
14.1920 2.8846 -2.3858 0.9430
13.4557 5.3552 -2.3858 0.9430
9.7374 10.5280 -2.3625 0.9435
7.7165 12.0876 -2.3625 0.9435
6.6100 12.7265 -2.3625 0.9435
5.6893 13.8440 -2.4657 0.9411
3.1445 14.6334 -2.4657 0.9411
-0.8333 14.9442 -2.4657 0.9411
-3.3247 13.9510 -2.3626 0.9435
-4.5532 13.5997 -2.3626 0.9435
-7.2763 16.6412 -2.9921 0.9290
-8.1940 12.2262 -2.4247 0.9421
-9.4518 11.6986 -2.4776 0.9409
-11.5685 10.0037 -2.5195 0.9399
-13.7157 8.1238 -2.6261 0.9374
-16.9923 6.3280 -2.9871 0.9291
-19.0133 5.2083 -3.2476 0.9232
-5.8650 -5.0716 -1.4574 0.9689
-5.6493 -5.8413 -1.5274 0.9675
-5.6040 -6.9362 -1.6761 0.9644
-5.6069 -8.3660 -1.8930 0.9598
-5.0357 -11.5170 -2.3626 0.9501
-1.8141 -12.4382 -2.3626 0.9501
-0.7303 -13.0979 -2.4657 0.9480
2.7560 -12.8255 -2.4657 0.9480
3.8866 -12.5293 -2.4657 0.9480
6.0465 -11.6417 -2.4657 0.9480
6.7631 -10.5943 -2.3625 0.9501
8.5344 -9.2273 -2.3625 0.9501
10.4840 -5.2978 -2.2079 0.9533
10.4883 -3.1259 -2.0571 0.9564
12.3136 3.0798 -2.3858 0.9497
11.9906 4.1636 -2.3858 0.9497
11.0624 6.2236 -2.3858 0.9497
10.3624 7.1134 -2.3625 0.9501
8.9370 8.8379 -2.3625 0.9501
8.1149 9.5983 -2.3625 0.9501
7.2284 10.2825 -2.3625 0.9501
6.4630 11.1942 -2.4296 0.9488
5.5219 11.8995 -2.4657 0.9480
3.3246 12.6900 -2.4657 0.9480
2.1820 12.9355 -2.4657 0.9480
1.0220 13.0784 -2.4657 0.9480
-1.3131 13.0524 -2.4657 0.9480
-3.4557 12.0855 -2.3626 0.9501
-4.5177 11.7299 -2.3626 0.9501
-5.5438 11.2812 -2.3626 0.9501
-7.6054 12.5203 -2.7535 0.9421
-11.6330 9.1865 -2.7861 0.9415
-15.1670 6.4314 -3.0965 0.9351
-17.0154 5.4868 -3.3604 0.9298
-5.6483 -5.3421 -1.4613 0.9689
-5.6054 -7.6077 -1.7762 0.9623
-5.5438 -11.2813 -2.3626 0.9501
-4.5177 -11.7299 -2.3626 0.9501
-3.4557 -12.0854 -2.3626 0.9501
-2.3664 -12.3451 -2.3626 0.9501
-0.1461 -13.1175 -2.4657 0.9480
1.0220 -13.0784 -2.4657 0.9480
2.1820 -12.9355 -2.4657 0.9480
3.3246 -12.6900 -2.4657 0.9480
7.2284 -10.2825 -2.3625 0.9501
8.9370 -8.8380 -2.3625 0.9501
10.3624 -7.1134 -2.3625 0.9501
10.4828 -5.8975 -2.2608 0.9522
12.5389 -1.9717 -2.3858 0.9497
12.1642 3.6253 -2.3858 0.9497
10.7742 6.7102 -2.3858 0.9497
9.3218 8.4311 -2.3625 0.9501
7.6793 9.9503 -2.3625 0.9501
6.7631 10.5943 -2.3625 0.9501
6.0465 11.6417 -2.4657 0.9480
4.9864 12.1336 -2.4657 0.9480
3.8866 12.5293 -2.4657 0.9480
0.4384 13.1110 -2.4657 0.9480
-0.7303 13.0979 -2.4657 0.9480
-2.9139 12.2274 -2.3626 0.9501
-3.9907 11.9195 -2.3626 0.9501
-5.0357 11.5170 -2.3626 0.9501
-7.4272 13.5530 -2.9049 0.9390
-5.5073 8.2175 -1.8594 0.9605
-9.7557 10.0873 -2.6377 0.9445
-11.8820 8.5521 -2.7517 0.9422
-13.2063 7.8221 -2.8850 0.9394
-14.5617 6.9555 -3.0332 0.9364
-15.7759 5.8750 -3.1642 0.9338
-5.6223 -4.8618 -1.5711 0.9701
-5.6017 -5.7922 -1.7033 0.9676
-5.6040 -6.9362 -1.8849 0.9642
-5.6069 -8.3660 -2.1288 0.9597
-4.4778 -10.2410 -2.3626 0.9553
-1.6131 -11.0602 -2.3626 0.9553
0.3898 -11.6584 -2.4657 0.9534
1.4259 -11.5774 -2.4657 0.9534
4.4339 -10.7894 -2.4657 0.9534
9.4869 -5.9085 -2.3625 0.9553
10.3842 -4.1328 -2.3625 0.9553
10.4883 -3.1258 -2.3134 0.9562
11.2167 -1.2548 -2.3858 0.9549
11.2839 -0.2515 -2.3858 0.9549
10.9494 2.7386 -2.3858 0.9549
9.7407 5.4800 -2.3625 0.9553
9.2143 6.3253 -2.3625 0.9553
8.6148 7.1203 -2.3625 0.9553
7.9468 7.8588 -2.3625 0.9553
7.2158 8.5349 -2.3625 0.9553
6.4716 9.2060 -2.3787 0.9550
5.8324 10.1021 -2.4657 0.9534
2.9563 11.2841 -2.4657 0.9534
-0.1299 11.6642 -2.4657 0.9534
-3.0729 10.7465 -2.3626 0.9553
-4.9296 10.0314 -2.3626 0.9553
-8.9921 10.1675 -2.8691 0.9460
-10.8843 8.5952 -2.9316 0.9449
-11.7254 7.6704 -2.9617 0.9443
-12.7354 6.7958 -3.0513 0.9427
-13.5872 5.7615 -3.1196 0.9414
-15.3790 4.9591 -3.4156 0.9361
-5.8605 -4.6280 -1.5785 0.9699
-5.6028 -6.3352 -1.7877 0.9660
-3.0729 -10.7465 -2.3626 0.9553
-0.1299 -11.6642 -2.4657 0.9534
0.9087 -11.6295 -2.4657 0.9534
2.9563 -11.2841 -2.4657 0.9534
3.9489 -10.9762 -2.4657 0.9534
4.9102 -10.5811 -2.4657 0.9534
5.8324 -10.1021 -2.4657 0.9534
6.4716 -9.2060 -2.3787 0.9550
7.9468 -7.8588 -2.3625 0.9553
8.6148 -7.1203 -2.3625 0.9553
9.7407 -5.4800 -2.3625 0.9553
10.1898 -4.5913 -2.3625 0.9553
10.4872 -3.6416 -2.3466 0.9556
10.4893 -2.6236 -2.2855 0.9568
11.2839 0.2515 -2.3858 0.9549
11.2167 1.2548 -2.3858 0.9549
11.0605 2.2481 -2.3858 0.9549
10.3842 4.1328 -2.3625 0.9553
9.4869 5.9085 -2.3625 0.9553
8.2890 7.4970 -2.3625 0.9553
7.5889 8.2050 -2.3625 0.9553
6.8285 8.8479 -2.3625 0.9553
5.3766 10.3519 -2.4657 0.9534
3.4560 11.1412 -2.4657 0.9534
1.4259 11.5774 -2.4657 0.9534
0.3898 11.6584 -2.4657 0.9534
-0.6494 11.6468 -2.4657 0.9534
-2.5911 10.8727 -2.3626 0.9553
-3.5485 10.5989 -2.3626 0.9553
-4.4778 10.2410 -2.3626 0.9553
-7.6803 11.4598 -2.9161 0.9452
-9.4698 9.7917 -2.8794 0.9458
-5.5007 4.7566 -1.5372 0.9707
-11.3633 8.1788 -2.9595 0.9444
-12.3018 7.2864 -3.0223 0.9432
-17.4414 4.7777 -3.8226 0.9287
-5.8862 -3.4864 -1.6079 0.9723
-5.5982 -4.0294 -1.6211 0.9721
-5.6040 -6.9362 -2.0957 0.9640
-3.1916 -9.5327 -2.3626 0.9595
-1.5141 -10.3816 -2.4657 0.9578
-0.5841 -10.4751 -2.4657 0.9578
1.2825 -10.4127 -2.4657 0.9578
3.9879 -9.7039 -2.4657 0.9578
4.8358 -9.3105 -2.4657 0.9578
5.6452 -8.8431 -2.4657 0.9578
6.4099 -8.3056 -2.4657 0.9578
7.4552 -6.7428 -2.3625 0.9595
8.5326 -5.3141 -2.3625 0.9595
8.9717 -4.5336 -2.3625 0.9595
9.8507 -2.0022 -2.3625 0.9595
9.9898 -1.1175 -2.3625 0.9595
10.0296 0.6714 -2.3625 0.9595
9.4959 3.2973 -2.3625 0.9595
9.1647 4.1294 -2.3625 0.9595
8.7608 4.9288 -2.3625 0.9595
8.2874 5.6889 -2.3625 0.9595
7.7481 6.4040 -2.3625 0.9595
7.1474 7.0682 -2.3625 0.9595
6.4899 7.6763 -2.3625 0.9595
6.0336 8.5829 -2.4657 0.9578
5.2457 9.0858 -2.4657 0.9578
1.7450 10.3453 -2.4657 0.9578
0.8173 10.4595 -2.4657 0.9578
-1.0501 10.4387 -2.4657 0.9578
-8.4564 9.5618 -3.0000 0.9489
-5.5009 3.5985 -1.5449 0.9734
-12.4970 5.2992 -3.1902 0.9458
-5.5990 -4.4215 -1.6767 0.9711
-5.6008 -5.2972 -1.8118 0.9688
-5.6028 -6.3352 -1.9877 0.9658
-4.4337 -9.0222 -2.3626 0.9595
-1.0501 -10.4387 -2.4657 0.9578
0.8173 -10.4595 -2.4657 0.9578
4.4162 -9.5167 -2.4657 0.9578
5.2457 -9.0858 -2.4657 0.9578
6.4899 -7.6763 -2.3625 0.9595
7.1474 -7.0682 -2.3625 0.9595
8.2874 -5.6890 -2.3625 0.9595
9.4959 -3.2973 -2.3625 0.9595
9.8507 2.0022 -2.3625 0.9595
9.3396 3.7171 -2.3625 0.9595
8.9717 4.5336 -2.3625 0.9595
8.0257 6.0525 -2.3625 0.9595
7.4552 6.7428 -2.3625 0.9595
6.8254 7.3796 -2.3625 0.9595
4.8358 9.3105 -2.4657 0.9578
2.2042 10.2573 -2.4657 0.9578
1.2825 10.4127 -2.4657 0.9578
0.3506 10.4855 -2.4657 0.9578
-0.5841 10.4751 -2.4657 0.9578
-2.3304 9.7789 -2.3626 0.9595
-4.0273 9.2108 -2.3626 0.9595
-4.8312 8.8158 -2.3626 0.9595
-7.9089 9.7890 -2.9577 0.9496
-9.6582 8.3518 -3.0009 0.9489
-10.4598 7.5285 -3.0288 0.9484
-11.2604 6.6696 -3.0758 0.9476
-12.0076 5.7355 -3.1275 0.9468
-15.1941 4.1621 -3.7025 0.9373
-5.8195 -2.1672 -1.6079 0.9747
-5.5982 -4.0294 -1.7859 0.9719
-5.6017 -5.7922 -2.0863 0.9673
-3.6557 -8.3607 -2.3626 0.9630
-2.8970 -8.6529 -2.3626 0.9630
-1.3744 -9.4235 -2.4657 0.9614
0.3182 -9.5179 -2.4657 0.9614
1.1641 -9.4518 -2.4657 0.9614
2.0007 -9.3106 -2.4657 0.9614
2.8215 -9.0956 -2.4657 0.9614
4.3895 -8.4513 -2.4657 0.9614
5.1243 -8.0270 -2.4657 0.9614
5.8184 -7.5391 -2.4657 0.9614
7.2850 -5.4939 -2.3625 0.9630
8.1437 -4.1152 -2.3625 0.9630
8.4777 -3.3740 -2.3625 0.9630
8.9416 -1.8175 -2.3625 0.9630
9.0679 -1.0144 -2.3625 0.9630
9.1221 -0.2033 -2.3625 0.9630
8.6195 2.9930 -2.3625 0.9630
8.3189 3.7483 -2.3625 0.9630
7.9523 4.4739 -2.3625 0.9630
7.5225 5.1639 -2.3625 0.9630
7.0331 5.8130 -2.3625 0.9630
4.0086 8.6384 -2.4657 0.9614
3.2239 8.9609 -2.4657 0.9614
2.4135 9.2123 -2.4657 0.9614
0.7419 9.4942 -2.4657 0.9614
-0.9532 9.4753 -2.4657 0.9614
-1.7178 8.9619 -2.3626 0.9630
-2.5087 8.7734 -2.3626 0.9630
-4.7374 7.7989 -2.3626 0.9630
-5.5079 5.2093 -1.9629 0.9692
-5.5083 2.9393 -1.6165 0.9745
-5.5012 2.3327 -1.5471 0.9756
-5.9102 -1.9058 -1.6079 0.9747
-5.7172 -2.4243 -1.6079 0.9747
-5.5975 -3.6617 -1.7319 0.9727
-5.5990 -4.4215 -1.8472 0.9710
-5.6008 -5.2972 -1.9960 0.9686
-5.6028 -6.3352 -2.1898 0.9657
-5.4128 -7.3463 -2.3626 0.9630
-3.2796 -8.5153 -2.3626 0.9630
-0.9532 -9.4754 -2.4657 0.9614
-0.1061 -9.5226 -2.4657 0.9614
1.5840 -9.3905 -2.4657 0.9614
4.0086 -8.6384 -2.4657 0.9614
5.4768 -7.7908 -2.4657 0.9614
6.1484 -7.2724 -2.4657 0.9614
7.5225 -5.1639 -2.3625 0.9630
6.7821 -3.0559 -1.9260 0.9697
9.0678 1.0144 -2.3625 0.9630
7.7451 4.8237 -2.3625 0.9630
6.7671 6.1205 -2.3625 0.9630
6.4630 6.9877 -2.4645 0.9614
5.8184 7.5391 -2.4657 0.9614
3.6199 8.8084 -2.4657 0.9614
0.3182 9.5179 -2.4657 0.9614
-0.5302 9.5084 -2.4657 0.9614
-1.3744 9.4235 -2.4657 0.9614
-2.8970 8.6529 -2.3626 0.9630
-4.3853 8.0022 -2.3626 0.9630
-10.4578 6.1941 -3.1470 0.9510
-5.5012 2.0487 -1.5199 0.9760
-5.5016 -0.0000 -1.5575 0.9774
-5.5956 -2.6728 -1.7555 0.9746
-5.5968 -3.3150 -1.8415 0.9733
-5.5982 -4.0294 -1.9526 0.9717
-5.2449 -6.4917 -2.3626 0.9659
-4.0108 -7.3188 -2.3626 0.9659
-2.6496 -7.9140 -2.3626 0.9659
-1.2570 -8.6188 -2.4657 0.9644
-0.4849 -8.6964 -2.4657 0.9644
1.8299 -8.5155 -2.4657 0.9644
2.5805 -8.3189 -2.4657 0.9644
3.3107 -8.0562 -2.4657 0.9644
4.0146 -7.7295 -2.4657 0.9644
4.6867 -7.3416 -2.4657 0.9644
5.3215 -6.8953 -2.4657 0.9644
6.4597 -5.8425 -2.4657 0.9644
6.6754 -5.0342 -2.3669 0.9658
7.4483 -3.7638 -2.3625 0.9659
8.1780 -1.6622 -2.3625 0.9659
8.2935 -0.9278 -2.3625 0.9659
8.0958 2.0249 -2.3625 0.9659
7.2732 4.0918 -2.3625 0.9659
6.8801 4.7229 -2.3625 0.9659
6.4721 5.3493 -2.3770 0.9657
4.3550 7.5430 -2.4657 0.9644
3.6663 7.9007 -2.4657 0.9644
2.2074 8.4256 -2.4657 0.9644
1.4487 8.5886 -2.4657 0.9644
-0.8718 8.6662 -2.4657 0.9644
-2.2945 8.0242 -2.3626 0.9659
-2.9995 7.7881 -2.3626 0.9659
-3.6808 7.4902 -2.3626 0.9659
-4.9505 6.7189 -2.3626 0.9659
-7.8771 7.4501 -3.0693 0.9559
-5.5082 3.6032 -1.8633 0.9730
-10.0927 5.3856 -3.2385 0.9536
-10.9225 4.6315 -3.3586 0.9519
-11.8377 3.8172 -3.5211 0.9496
-5.5014 1.2464 -1.5969 0.9768
-5.5089 -0.2457 -1.5611 0.9773
-5.6915 -1.8353 -1.6929 0.9754
-5.5962 -2.9862 -1.7957 0.9740
-5.6008 -5.2972 -2.1824 0.9685
-4.9506 -6.7189 -2.3626 0.9659
-4.3329 -7.1329 -2.3626 0.9659
-2.9995 -7.7881 -2.3626 0.9659
-2.2945 -8.0242 -2.3626 0.9659
-0.8718 -8.6662 -2.4657 0.9644
-0.0970 -8.7094 -2.4657 0.9644
3.6663 -7.9007 -2.4657 0.9644
6.1931 -6.1245 -2.4657 0.9644
6.4721 -5.3493 -2.3770 0.9657
6.8801 -4.7229 -2.3625 0.9659
7.2732 -4.0918 -2.3625 0.9659
6.7821 -3.0559 -2.1059 0.9695
7.8835 -2.7374 -2.3625 0.9659
8.0958 -2.0249 -2.3625 0.9659
8.3266 -0.5574 -2.3625 0.9659
8.3432 0.1859 -2.3625 0.9659
8.2935 0.9278 -2.3625 0.9659
7.7537 3.0859 -2.3625 0.9659
7.4483 3.7637 -2.3625 0.9659
5.9141 6.3943 -2.4657 0.9644
5.3215 6.8953 -2.4657 0.9644
4.6867 7.3415 -2.4657 0.9644
4.0146 7.7295 -2.4657 0.9644
3.3107 8.0562 -2.4657 0.9644
2.5806 8.3189 -2.4657 0.9644
-1.2570 8.6188 -2.4657 0.9644
-3.3435 7.6468 -2.3626 0.9659
-4.0108 7.3188 -2.3626 0.9659
-4.6463 6.9328 -2.3626 0.9659
-8.2950 7.1730 -3.1045 0.9554
-9.0599 6.5210 -3.1601 0.9547
-9.7543 5.7775 -3.2094 0.9540
-10.5018 5.0163 -3.2947 0.9528
-12.4496 3.4103 -3.6542 0.9478
-16.5845 2.9878 -4.7705 0.9323
-18.8426 -1.6838 -5.8187 0.9239
-5.5944 -2.0834 -1.8362 0.9753
-5.5968 -3.3150 -2.0008 0.9731
-5.5999 -4.8424 -2.2771 0.9695
-5.3400 -5.5216 -2.3626 0.9684
-4.2764 -6.3809 -2.3626 0.9684
-0.4463 -8.0041 -2.4657 0.9670
0.9799 -7.9564 -2.4657 0.9670
1.6842 -7.8377 -2.4657 0.9670
2.3751 -7.6566 -2.4657 0.9670
5.9455 -5.3774 -2.4657 0.9670
6.5198 -4.0606 -2.3625 0.9684
7.1364 -2.8402 -2.3625 0.9684
7.3609 -2.1938 -2.3625 0.9684
7.6333 -0.8539 -2.3625 0.9684
7.6637 0.5130 -2.3625 0.9684
7.2559 2.5195 -2.3625 0.9684
6.6942 3.7661 -2.3625 0.9684
6.4633 4.4368 -2.4113 0.9677
4.6103 6.5582 -2.4657 0.9670
3.3744 7.2718 -2.4657 0.9670
2.7138 7.5432 -2.4657 0.9670
2.0317 7.7548 -2.4657 0.9670
1.3334 7.9049 -2.4657 0.9670
-0.0893 8.0161 -2.4657 0.9670
-2.1118 7.3854 -2.3626 0.9684
-2.7608 7.1681 -2.3626 0.9684
-3.3878 6.8940 -2.3626 0.9684
-3.9880 6.5651 -2.3626 0.9684
-4.5564 6.1841 -2.3626 0.9684
-5.0888 5.7540 -2.3626 0.9684
-5.5807 5.2782 -2.3626 0.9684
-9.5428 5.0922 -3.3269 0.9557
-10.2984 4.3669 -3.4406 0.9543
-5.5014 1.2464 -1.7350 0.9767
-18.8391 0.8401 -5.8003 0.9241
-5.6915 -1.8353 -1.8393 0.9753
-5.5962 -2.9862 -1.9510 0.9738
-5.5975 -3.6617 -2.0573 0.9724
-5.0888 -5.7540 -2.3626 0.9684
-3.9880 -6.5651 -2.3626 0.9684
-3.3878 -6.8939 -2.3626 0.9684
-2.1118 -7.3854 -2.3626 0.9684
-0.8024 -7.9763 -2.4657 0.9670
-0.0893 -8.0161 -2.4657 0.9670
0.6245 -7.9922 -2.4657 0.9670
1.3334 -7.9049 -2.4657 0.9670
2.0317 -7.7549 -2.4657 0.9670
2.7138 -7.5432 -2.4657 0.9670
4.0083 -6.9426 -2.4657 0.9670
5.1757 -6.1219 -2.4657 0.9670
5.7001 -5.6369 -2.4657 0.9670
6.6942 -3.7661 -2.3625 0.9684
7.2559 -2.5195 -2.3625 0.9684
7.6790 0.1711 -2.3625 0.9684
7.5270 1.5299 -2.3625 0.9684
7.1364 2.8402 -2.3625 0.9684
6.5198 4.0606 -2.3625 0.9684
5.4433 5.8852 -2.4657 0.9670
4.8979 6.3463 -2.4657 0.9670
1.6842 7.8377 -2.4657 0.9670
0.2679 8.0121 -2.4657 0.9670
-1.1569 7.9327 -2.4657 0.9670
-1.7807 7.4721 -2.3626 0.9684
-2.4387 7.2840 -2.3626 0.9684
-3.0773 7.0380 -2.3626 0.9684
-4.2764 6.3809 -2.3626 0.9684
-4.8274 5.9750 -2.3626 0.9684
-5.3400 5.5216 -2.3626 0.9684
-5.5075 4.7625 -2.2395 0.9700
-9.1630 5.4272 -3.2756 0.9564
-11.7029 3.2058 -3.7322 0.9505
-18.7560 1.6760 -5.7919 0.9242
-5.5944 -2.0834 -1.9844 0.9752
-5.5982 -4.0294 -2.2928 0.9713
-5.3763 -4.6491 -2.3626 0.9705
-3.9570 -5.9043 -2.3626 0.9705
-2.2566 -6.7400 -2.3626 0.9705
0.2479 -7.4137 -2.4657 0.9692
1.5584 -7.2523 -2.4657 0.9692
2.1977 -7.0848 -2.4657 0.9692
3.9914 -6.2524 -2.4657 0.9692
5.0367 -5.4457 -2.4657 0.9692
5.5014 -4.9758 -2.4657 0.9692
6.8111 -2.0299 -2.3625 0.9705
6.9648 -1.4156 -2.3625 0.9705
7.0631 -0.7901 -2.3625 0.9705
7.1054 -0.1584 -2.3625 0.9705
7.0209 1.1040 -2.3625 0.9705
6.8948 1.7245 -2.3625 0.9705
6.7140 2.3313 -2.3625 0.9705
6.4630 3.6360 -2.4650 0.9692
6.1156 4.1981 -2.4657 0.9692
5.7176 4.7257 -2.4657 0.9692
4.7891 5.6646 -2.4657 0.9692
4.2660 6.0684 -2.4657 0.9692
3.7089 6.4240 -2.4657 0.9692
3.1224 6.7287 -2.4657 0.9692
1.8799 7.1756 -2.4657 0.9692
1.2338 7.3145 -2.4657 0.9692
-0.7425 7.3806 -2.4657 0.9692
-1.9541 6.8338 -2.3626 0.9705
-2.5546 6.6328 -2.3626 0.9705
-3.1348 6.3791 -2.3626 0.9705
-3.6901 6.0747 -2.3626 0.9705
-5.1639 4.8840 -2.3626 0.9705
-8.3312 5.4500 -3.3092 0.9589
-9.7402 4.1302 -3.5167 0.9564
-5.5014 1.2464 -1.8750 0.9765
-18.5098 0.8254 -6.1589 0.9249
-18.7512 -2.5218 -6.2891 0.9233
-5.6915 -1.8353 -1.9878 0.9751
-5.5950 -2.3725 -2.0201 0.9747
-5.5962 -2.9862 -2.1085 0.9736
-5.5975 -3.6617 -2.2234 0.9722
-5.5781 -4.4050 -2.3626 0.9705
-4.7087 -5.3242 -2.3626 0.9705
-4.2161 -5.7222 -2.3626 0.9705
-3.1348 -6.3790 -2.3626 0.9705
-2.5546 -6.6328 -2.3626 0.9705
-0.7425 -7.3806 -2.4657 0.9692
-0.0826 -7.4174 -2.4657 0.9692
1.8799 -7.1756 -2.4657 0.9692
2.5111 -6.9798 -2.4657 0.9692
3.7089 -6.4240 -2.4657 0.9692
4.7891 -5.6646 -2.4657 0.9692
5.2743 -5.2159 -2.4657 0.9692
5.7176 -4.7257 -2.4657 0.9692
6.1156 -4.1981 -2.4657 0.9692
6.7140 -2.3313 -2.3625 0.9705
6.8948 -1.7245 -2.3625 0.9705
7.0209 -1.1040 -2.3625 0.9705
7.1054 0.1584 -2.3625 0.9705
6.9648 1.4156 -2.3625 0.9705
6.8111 2.0299 -2.3625 0.9705
6.4643 3.2665 -2.4075 0.9699
5.0367 5.4457 -2.4657 0.9692
4.5321 5.8723 -2.4657 0.9692
3.4191 6.5829 -2.4657 0.9692
1.5584 7.2523 -2.4657 0.9692
0.9067 7.3622 -2.4657 0.9692
0.2479 7.4137 -2.4657 0.9692
-0.4130 7.4063 -2.4657 0.9692
-1.0705 7.3402 -2.4657 0.9692
-1.6477 6.9141 -2.3626 0.9705
-2.2566 6.7400 -2.3626 0.9705
-2.8475 6.5124 -2.3626 0.9705
-3.9570 5.9043 -2.3626 0.9705
-5.3763 4.6491 -2.3626 0.9705
-5.5077 3.9642 -2.2557 0.9718
-8.6869 5.1453 -3.3561 0.9583
-10.0965 3.7600 -3.5813 0.9556
-11.0289 3.0211 -3.8011 0.9529
-18.5163 1.6546 -6.1795 0.9246
-18.4635 -1.6500 -6.6290 0.9243
-5.5956 -2.6728 -2.2176 0.9740
-5.3623 -3.8595 -2.3626 0.9723
-4.9975 -4.3215 -2.3626 0.9723
-3.6782 -5.4882 -2.3626 0.9723
-3.1751 -5.7938 -2.3626 0.9723
-1.5829 -6.6423 -2.4419 0.9714
-0.9951 -6.8229 -2.4657 0.9711
0.8428 -6.8434 -2.4657 0.9711
1.4486 -6.7412 -2.4657 0.9711
2.0428 -6.5855 -2.4657 0.9711
3.1781 -6.1189 -2.4657 0.9711
3.7101 -5.8118 -2.4657 0.9711
5.1137 -4.6251 -2.4657 0.9711
5.8528 -3.6451 -2.4657 0.9711
6.4632 -1.9262 -2.4117 0.9718
6.4756 -1.3162 -2.3631 0.9723
6.5654 -0.7345 -2.3625 0.9723
6.6047 -0.1472 -2.3625 0.9723
6.5916 0.4412 -2.3625 0.9723
6.4700 1.6183 -2.3850 0.9721
6.2864 2.8325 -2.4657 0.9711
6.0093 3.3808 -2.4657 0.9711
5.6846 3.9022 -2.4657 0.9711
4.4516 5.2654 -2.4657 0.9711
3.9653 5.6408 -2.4657 0.9711
2.3342 6.4879 -2.4657 0.9711
1.7475 6.6699 -2.4657 0.9711
-1.2980 6.7718 -2.4657 0.9711
-2.3745 6.1653 -2.3626 0.9723
-2.9138 5.9295 -2.3626 0.9723
-3.4300 5.6466 -2.3626 0.9723
-3.9190 5.3189 -2.3626 0.9723
-4.3769 4.9490 -2.3626 0.9723
-4.8000 4.5398 -2.3626 0.9723
-5.5289 3.6168 -2.3626 0.9723
-9.2328 3.9150 -3.5863 0.9583
-9.9892 3.2211 -3.7533 0.9564
-12.9381 1.7400 -4.6684 0.9461
-18.5153 -0.8257 -6.6278 0.9243
-5.6915 -1.8353 -2.1385 0.9749
-5.5289 -3.6168 -2.3626 0.9723
-5.1850 -4.0946 -2.3626 0.9723
-4.8000 -4.5398 -2.3626 0.9723
-4.3769 -4.9490 -2.3626 0.9723
-3.9190 -5.3189 -2.3626 0.9723
-3.4300 -5.6466 -2.3626 0.9723
-2.9138 -5.9295 -2.3626 0.9723
-2.3745 -6.1653 -2.3626 0.9723
-1.8164 -6.3522 -2.3626 0.9723
-0.6902 -6.8604 -2.4657 0.9711
-0.0768 -6.8946 -2.4657 0.9711
0.5371 -6.8741 -2.4657 0.9711
1.1469 -6.7990 -2.4657 0.9711
1.7474 -6.6700 -2.4657 0.9711
2.3342 -6.4879 -2.4657 0.9711
2.9024 -6.2545 -2.4657 0.9711
3.4475 -5.9713 -2.4657 0.9711
3.9653 -5.6408 -2.4657 0.9711
5.3147 -4.3927 -2.4657 0.9711
6.0093 -3.3808 -2.4657 0.9711
6.4700 -1.6183 -2.3850 0.9721
6.5261 -1.0262 -2.3625 0.9723
6.5916 -0.4412 -2.3625 0.9723
6.4756 1.3162 -2.3631 0.9723
6.4632 1.9262 -2.4117 0.9718
5.8528 3.6451 -2.4657 0.9711
5.5051 4.1516 -2.4657 0.9711
5.1137 4.6251 -2.4657 0.9711
3.7101 5.8118 -2.4657 0.9711
2.6209 6.3775 -2.4657 0.9711
1.4486 6.7412 -2.4657 0.9711
0.2304 6.8912 -2.4657 0.9711
-0.3839 6.8844 -2.4657 0.9711
-0.9951 6.8229 -2.4657 0.9711
-1.5829 6.6423 -2.4419 0.9714
-2.6468 6.0534 -2.3626 0.9723
-4.1521 5.1391 -2.3626 0.9723
-4.5930 4.7491 -2.3626 0.9723
-4.9975 4.3215 -2.3626 0.9723
-5.3622 3.8595 -2.3626 0.9723
-5.5083 2.6311 -2.1830 0.9744
-10.4583 2.8648 -3.8777 0.9550
-18.5088 1.6539 -6.6453 0.9241
-5.5088 -0.0000 -2.1111 0.9767
-5.5944 -2.0834 -2.2877 0.9748
-5.3046 -3.1419 -2.3626 0.9739
-5.0039 -3.6016 -2.3626 0.9739
-3.8746 -4.7956 -2.3626 0.9739
-3.4324 -5.1214 -2.3626 0.9739
-2.9629 -5.4066 -2.3626 0.9739
-2.4699 -5.6489 -2.3626 0.9739
-1.9573 -5.8463 -2.3626 0.9739
-1.4916 -6.2590 -2.4657 0.9728
0.7865 -6.3860 -2.4657 0.9728
1.9063 -6.1454 -2.4657 0.9728
2.4457 -5.9513 -2.4657 0.9728
4.3689 -4.7236 -2.4657 0.9728
4.7720 -4.3160 -2.4657 0.9728
5.1372 -3.8741 -2.4657 0.9728
5.4616 -3.4015 -2.4657 0.9728
5.9782 -2.3793 -2.4657 0.9728
6.3053 -1.2816 -2.4657 0.9728
6.3944 -0.7153 -2.4657 0.9728
6.4327 -0.1434 -2.4657 0.9728
6.2420 1.5612 -2.4657 0.9728
5.6077 3.1549 -2.4657 0.9728
5.3047 3.6414 -2.4657 0.9728
4.5750 4.5243 -2.4657 0.9728
3.7003 5.2638 -2.4657 0.9728
2.7084 5.8364 -2.4657 0.9728
2.1782 6.0544 -2.4657 0.9728
1.6307 6.2242 -2.4657 0.9728
0.5013 6.4147 -2.4657 0.9728
-0.6440 6.4019 -2.4657 0.9728
-1.6950 5.9277 -2.3626 0.9739
-2.7191 5.5332 -2.3626 0.9739
-3.2008 5.2693 -2.3626 0.9739
-4.8385 3.8209 -2.3626 0.9739
-5.5014 1.2464 -2.1617 0.9761
-18.4003 0.8205 -7.0583 0.9241
-5.5091 -1.7765 -2.2183 0.9755
-5.4393 -2.9025 -2.3626 0.9739
-4.4792 -4.2364 -2.3626 0.9739
-4.0844 -4.6182 -2.3626 0.9739
-3.6571 -4.9635 -2.3626 0.9739
-3.2008 -5.2693 -2.3626 0.9739
-2.7191 -5.5332 -2.3626 0.9739
-1.2113 -6.3192 -2.4657 0.9728
-0.6440 -6.4020 -2.4657 0.9728
0.5013 -6.4147 -2.4657 0.9728
1.6307 -6.2242 -2.4657 0.9728
2.1782 -6.0544 -2.4657 0.9728
2.7084 -5.8365 -2.4657 0.9728
3.2171 -5.5722 -2.4657 0.9728
4.9595 -4.0991 -2.4657 0.9728
5.3047 -3.6414 -2.4657 0.9728
5.6077 -3.1548 -2.4657 0.9728
5.8663 -2.6432 -2.4657 0.9728
6.4199 -0.4298 -2.4657 0.9728
6.1662 1.8377 -2.4657 0.9728
5.9782 2.3793 -2.4657 0.9728
5.7427 2.9019 -2.4657 0.9728
5.1372 3.8741 -2.4657 0.9728
4.3689 4.7236 -2.4657 0.9728
2.4457 5.9513 -2.4657 0.9728
1.9063 6.1454 -2.4657 0.9728
-3.4324 5.1214 -2.3626 0.9739
-3.8746 4.7956 -2.3626 0.9739
-4.6635 4.0327 -2.3626 0.9739
-5.3046 3.1419 -2.3626 0.9739
-5.5080 2.0512 -2.2524 0.9751
-9.9490 2.7253 -3.9531 0.9568
-11.0013 1.9820 -4.2838 0.9532
-5.4098 -2.0146 -2.3626 0.9754
-4.9669 -2.9419 -2.3626 0.9754
-4.3666 -3.7759 -2.3626 0.9754
-3.6279 -4.4903 -2.3626 0.9754
-3.2138 -4.7954 -2.3626 0.9754
-2.7743 -5.0624 -2.3626 0.9754
-2.3127 -5.2892 -2.3626 0.9754
-1.8327 -5.4741 -2.3626 0.9754
-0.3354 -6.0153 -2.4657 0.9743
0.2013 -6.0212 -2.4657 0.9743
1.2657 -5.8902 -2.4657 0.9743
1.7849 -5.7541 -2.4657 0.9743
2.2900 -5.5724 -2.4657 0.9743
2.7769 -5.3465 -2.4657 0.9743
3.2417 -5.0781 -2.4657 0.9743
4.4682 -4.0412 -2.4657 0.9743
4.8101 -3.6275 -2.4657 0.9743
5.1139 -3.1850 -2.4657 0.9743
5.7737 -1.7207 -2.4657 0.9743
5.9039 -1.2000 -2.4657 0.9743
5.4928 2.4749 -2.4657 0.9743
4.9669 3.4096 -2.4657 0.9743
4.6438 3.8382 -2.4657 0.9743
3.8897 4.6007 -2.4657 0.9743
3.4647 4.9286 -2.4657 0.9743
3.0123 5.2175 -2.4657 0.9743
2.0395 5.6689 -2.4657 0.9743
1.5268 5.8279 -2.4657 0.9743
1.0021 5.9407 -2.4657 0.9743
-0.0671 6.0243 -2.4657 0.9743
-1.1342 5.9169 -2.4657 0.9743
-1.5926 5.5697 -2.3709 0.9753
-2.0748 5.3870 -2.3626 0.9754
-2.5460 5.1810 -2.3626 0.9754
-3.4243 4.6475 -2.3626 0.9754
-5.0930 2.7177 -2.3626 0.9754
-1.6146 0.3658 -0.6776 0.9929
-5.5084 -0.2457 -2.2567 0.9765
-1.6146 -0.3658 -0.6776 0.9929
-1.5889 -0.5124 -0.6833 0.9928
-4.8309 -3.1602 -2.3626 0.9754
-4.5304 -3.5776 -2.3626 0.9754
-4.1940 -3.9667 -2.3626 0.9754
-3.8243 -4.3242 -2.3626 0.9754
-3.4243 -4.6474 -2.3626 0.9754
-2.5460 -5.1809 -2.3626 0.9754
-2.0748 -5.3870 -2.3626 0.9754
-1.5926 -5.5696 -2.3709 0.9753
-1.1342 -5.9169 -2.4657 0.9743
-0.6030 -5.9944 -2.4657 0.9743
-0.0671 -6.0242 -2.4657 0.9743
0.4693 -6.0063 -2.4657 0.9743
1.0021 -5.9407 -2.4657 0.9743
1.5268 -5.8279 -2.4657 0.9743
3.4647 -4.9287 -2.4657 0.9743
3.8897 -4.6007 -2.4657 0.9743
4.2837 -4.2362 -2.4657 0.9743
4.6438 -3.8382 -2.4657 0.9743
4.9669 -3.4096 -2.4657 0.9743
5.2507 -2.9540 -2.4657 0.9743
5.8446 -1.4618 -2.4657 0.9743
5.9515 -0.9358 -2.4657 0.9743
6.0231 0.1342 -2.4657 0.9743
5.9873 0.6698 -2.4657 0.9743
5.9039 1.2000 -2.4657 0.9743
5.7737 1.7207 -2.4657 0.9743
5.3771 2.7172 -2.4657 0.9743
5.1139 3.1850 -2.4657 0.9743
4.8101 3.6275 -2.4657 0.9743
4.4682 4.0412 -2.4657 0.9743
4.0907 4.4229 -2.4657 0.9743
3.2417 5.0781 -2.4657 0.9743
2.2900 5.5724 -2.4657 0.9743
0.7364 5.9794 -2.4657 0.9743
-0.3354 6.0153 -2.4657 0.9743
-0.8695 5.9615 -2.4657 0.9743
-1.3966 5.8605 -2.4657 0.9743
-1.8327 5.4741 -2.3626 0.9754
-3.2138 4.7954 -2.3626 0.9754
-5.2090 2.4881 -2.3626 0.9754
-5.4098 2.0146 -2.3626 0.9754
-1.6035 0.4392 -0.6804 0.9928
-1.6200 0.2919 -0.6737 0.9929
-1.5266 0.0000 -0.6653 0.9934
-1.5215 -0.1360 -0.6657 0.9934
-1.5015 -0.2705 -0.6649 0.9934
-4.6644 -2.7627 -2.3626 0.9766
-4.4000 -3.1669 -2.3626 0.9766
-3.4070 -4.2168 -2.3626 0.9766
-3.0181 -4.5033 -2.3626 0.9766
-1.3116 -5.5036 -2.4657 0.9756
-0.8165 -5.5985 -2.4657 0.9756
-0.3150 -5.6489 -2.4657 0.9756
0.1891 -5.6545 -2.4657 0.9756
0.6916 -5.6153 -2.4657 0.9756
4.5172 -3.4066 -2.4657 0.9756
4.8025 -2.9910 -2.4657 0.9756
5.2567 -2.0921 -2.4657 0.9756
5.5443 -1.1269 -2.4657 0.9756
5.6563 -0.1261 -2.4657 0.9756
5.6451 0.3779 -2.4657 0.9756
5.4886 1.3728 -2.4657 0.9756
5.3447 1.8559 -2.4657 0.9756
5.1583 2.3242 -2.4657 0.9756
4.9309 2.7741 -2.4657 0.9756
4.6644 3.2020 -2.4657 0.9756
4.3609 3.6044 -2.4657 0.9756
3.6528 4.3205 -2.4657 0.9756
2.8289 4.8997 -2.4657 0.9756
2.3815 5.1321 -2.4657 0.9756
1.9153 5.3237 -2.4657 0.9756
1.4339 5.4730 -2.4657 0.9756
-0.0630 5.6573 -2.4657 0.9756
-0.5663 5.6293 -2.4657 0.9756
-1.0651 5.5566 -2.4657 0.9756
-1.5554 5.4397 -2.4657 0.9756
-2.2931 3.1122 -1.6847 0.9833
-3.9386 3.7251 -2.3626 0.9766
-4.2545 3.3598 -2.3626 0.9766
-4.7828 2.5522 -2.3626 0.9766
-1.4861 0.4792 -0.6805 0.9932
-1.5029 0.3405 -0.6716 0.9933
-1.5133 0.2035 -0.6654 0.9934
-1.5259 0.0680 -0.6657 0.9934
-1.5259 -0.0680 -0.6657 0.9934
-1.5133 -0.2035 -0.6654 0.9934
-4.5367 -2.9678 -2.3626 0.9766
-4.2545 -3.3598 -2.3626 0.9766
-3.9386 -3.7251 -2.3626 0.9766
-3.5914 -4.0609 -2.3626 0.9766
-2.8145 -4.6333 -2.3626 0.9766
-2.3909 -4.8654 -2.3626 0.9766
-1.9484 -5.0589 -2.3626 0.9766
-1.0651 -5.5565 -2.4657 0.9756
-0.5663 -5.6293 -2.4657 0.9756
-0.0630 -5.6573 -2.4657 0.9756
0.9410 -5.5789 -2.4657 0.9756
1.9153 -5.3236 -2.4657 0.9756
2.3815 -5.1321 -2.4657 0.9756
4.0228 -3.9783 -2.4657 0.9756
4.9309 -2.7741 -2.4657 0.9756
5.3447 -1.8559 -2.4657 0.9756
5.4886 -1.3728 -2.4657 0.9756
5.6451 -0.3779 -2.4657 0.9756
5.6226 0.6290 -2.4657 0.9756
5.5443 1.1269 -2.4657 0.9756
5.4220 1.6159 -2.4657 0.9756
5.0496 2.5517 -2.4657 0.9756
4.5172 3.4066 -2.4657 0.9756
4.1961 3.7951 -2.4657 0.9756
3.4567 4.4789 -2.4657 0.9756
2.6078 5.0209 -2.4657 0.9756
0.6916 5.6153 -2.4657 0.9756
0.1891 5.6545 -2.4657 0.9756
-1.3116 5.5036 -2.4657 0.9756
-1.7211 5.1407 -2.3626 0.9766
-2.1718 4.9671 -2.3626 0.9766
-2.1522 3.2112 -1.6847 0.9833
-4.1006 3.5460 -2.3626 0.9766
-4.4000 3.1669 -2.3626 0.9766
-4.8918 2.3366 -2.3626 0.9766
-5.0803 1.8919 -2.3626 0.9766
-1.5001 0.4109 -0.6779 0.9932
-1.5015 0.2705 -0.6649 0.9934
-1.4172 -0.1266 -0.6586 0.9937
-1.3946 -0.3820 -0.6693 0.9936
-4.3916 -2.6012 -2.3626 0.9778
-3.8608 -3.3386 -2.3626 0.9778
-3.5484 -3.6690 -2.3626 0.9778
-3.2077 -3.9703 -2.3626 0.9778
-2.0553 -3.0667 -1.7089 0.9839
-2.4530 -4.4761 -2.3626 0.9778
-1.2349 -5.1817 -2.4657 0.9768
-0.2966 -5.3186 -2.4657 0.9768
0.6511 -5.2869 -2.4657 0.9768
1.1191 -5.2080 -2.4657 0.9768
2.8663 -4.4900 -2.4657 0.9768
3.6170 -3.9106 -2.4657 0.9768
3.9507 -3.5732 -2.4657 0.9768
4.2530 -3.2074 -2.4657 0.9768
4.5216 -2.8161 -2.4657 0.9768
4.7543 -2.4025 -2.4657 0.9768
4.9493 -1.9698 -2.4657 0.9768
5.2938 -0.5922 -2.4657 0.9768
5.3255 -0.1187 -2.4657 0.9768
5.2622 0.8274 -2.4657 0.9768
5.0321 1.7473 -2.4657 0.9768
4.8566 2.1883 -2.4657 0.9768
4.6426 2.6119 -2.4657 0.9768
4.3917 3.0147 -2.4657 0.9768
4.1059 3.3936 -2.4657 0.9768
3.7876 3.7456 -2.4657 0.9768
3.0635 4.3578 -2.4657 0.9768
2.6634 4.6132 -2.4657 0.9768
2.2423 4.8320 -2.4657 0.9768
1.8033 5.0123 -2.4657 0.9768
-0.0593 5.3265 -2.4657 0.9768
-0.5332 5.3001 -2.4657 0.9768
-1.0028 5.2316 -2.4657 0.9768
-1.8345 4.7631 -2.3626 0.9778
-2.2511 4.5809 -2.3626 0.9778
-2.6499 4.3624 -2.3626 0.9778
-3.7083 3.5073 -2.3626 0.9778
-4.2714 2.7942 -2.3626 0.9778
-1.3967 0.3165 -0.6629 0.9937
-1.3890 -0.4479 -0.6755 0.9936
-4.6991 -1.9926 -2.3626 0.9778
-3.7083 -3.5073 -2.3626 0.9778
-3.3814 -3.8234 -2.3626 0.9778
-3.0277 -4.1092 -2.3626 0.9778
-2.2511 -4.5809 -2.3626 0.9778
-1.4645 -5.1216 -2.4657 0.9768
-0.5332 -5.3001 -2.4657 0.9768
0.8860 -5.2527 -2.4657 0.9768
1.3500 -5.1530 -2.4657 0.9768
3.7876 -3.7456 -2.4657 0.9768
4.3917 -3.0147 -2.4657 0.9768
4.8566 -2.1883 -2.4657 0.9768
5.0321 -1.7473 -2.4657 0.9768
5.2622 -0.8274 -2.4657 0.9768
5.3150 -0.3558 -2.4657 0.9768
5.3255 0.1187 -2.4657 0.9768
5.2938 0.5922 -2.4657 0.9768
5.2201 1.0610 -2.4657 0.9768
4.9493 1.9698 -2.4657 0.9768
4.7543 2.4025 -2.4657 0.9768
4.2530 3.2074 -2.4657 0.9768
3.9507 3.5732 -2.4657 0.9768
3.2545 4.2170 -2.4657 0.9768
2.8663 4.4900 -2.4657 0.9768
2.0248 4.9270 -2.4657 0.9768
1.1191 5.2080 -2.4657 0.9768
0.6511 5.2869 -2.4657 0.9768
-0.7688 5.2711 -2.4657 0.9768
-2.0438 3.0495 -1.6993 0.9839
-3.2077 3.9702 -2.3626 0.9778
-3.5484 3.6690 -2.3626 0.9778
-3.8608 3.3386 -2.3626 0.9778
-4.1427 2.9817 -2.3626 0.9778
-4.3916 2.6012 -2.3626 0.9778
-4.7832 1.7813 -2.3626 0.9778
-1.3993 0.2521 -0.6581 0.9938
-1.3367 0.0000 -0.6557 0.9941
-1.3061 -0.3578 -0.6642 0.9940
-4.3462 -2.0760 -2.3626 0.9788
-4.1442 -2.4546 -2.3626 0.9788
-3.9093 -2.8137 -2.3626 0.9788
-3.3484 -3.4623 -2.3626 0.9788
-1.9296 -4.4131 -2.3626 0.9788
-1.1653 -4.8898 -2.4657 0.9779
-0.2799 -5.0189 -2.4657 0.9779
0.6145 -4.9890 -2.4657 0.9779
1.0561 -4.9145 -2.4657 0.9779
2.3169 -4.4609 -2.4657 0.9779
2.7048 -4.2370 -2.4657 0.9779
3.0712 -3.9794 -2.4657 0.9779
3.4132 -3.6903 -2.4657 0.9779
3.7281 -3.3719 -2.4657 0.9779
4.0134 -3.0266 -2.4657 0.9779
4.2669 -2.6574 -2.4657 0.9779
4.4864 -2.2671 -2.4657 0.9779
4.6704 -1.8588 -2.4657 0.9779
4.9260 -1.0013 -2.4657 0.9779
5.0255 -0.1120 -2.4657 0.9779
5.0155 0.3357 -2.4657 0.9779
4.8765 1.2197 -2.4657 0.9779
4.5830 2.0650 -2.4657 0.9779
4.3810 2.4647 -2.4657 0.9779
4.1442 2.8448 -2.4657 0.9779
3.8746 3.2024 -2.4657 0.9779
3.5742 3.5346 -2.4657 0.9779
2.8908 4.1123 -2.4657 0.9779
2.1159 4.5597 -2.4657 0.9779
1.7017 4.7299 -2.4657 0.9779
1.2739 4.8626 -2.4657 0.9779
0.3916 5.0114 -2.4657 0.9779
-0.0560 5.0264 -2.4657 0.9779
-0.9463 4.9368 -2.4657 0.9779
-1.7311 4.4947 -2.3626 0.9788
-2.5006 4.1166 -2.3626 0.9788
-2.1805 2.9594 -1.8031 0.9838
-3.1909 3.6080 -2.3626 0.9788
-3.7800 2.9851 -2.3626 0.9788
-4.2494 2.2676 -2.3626 0.9788
-1.3089 0.2966 -0.6583 0.9940
-1.3355 0.0596 -0.6558 0.9941
-1.3251 -0.1782 -0.6559 0.9941
-1.3089 -0.2966 -0.6583 0.9940
-1.3003 -0.4193 -0.6702 0.9939
-4.0307 -2.6368 -2.3626 0.9788
-3.1909 -3.6080 -2.3626 0.9788
-2.1243 -4.3228 -2.3626 0.9788
-1.3820 -4.8330 -2.4657 0.9779
-0.0560 -5.0264 -2.4657 0.9779
0.8361 -4.9567 -2.4657 0.9779
1.2739 -4.8626 -2.4657 0.9779
1.7017 -4.7299 -2.4657 0.9779
2.5134 -4.3533 -2.4657 0.9779
2.8908 -4.1123 -2.4657 0.9779
3.2454 -3.8387 -2.4657 0.9779
3.5742 -3.5346 -2.4657 0.9779
3.8746 -3.2024 -2.4657 0.9779
4.3810 -2.4647 -2.4657 0.9779
4.5830 -2.0650 -2.4657 0.9779
4.7486 -1.6489 -2.4657 0.9779
4.9956 0.5588 -2.4657 0.9779
4.9260 1.0013 -2.4657 0.9779
4.6704 1.8588 -2.4657 0.9779
4.4864 2.2671 -2.4657 0.9779
3.7281 3.3718 -2.4657 0.9779
3.0712 3.9794 -2.4657 0.9779
2.7048 4.2370 -2.4657 0.9779
1.9107 4.6494 -2.4657 0.9779
0.6145 4.9890 -2.4657 0.9779
-0.2799 5.0189 -2.4657 0.9779
-1.1653 4.8898 -2.4657 0.9779
-3.0270 3.7465 -2.3626 0.9788
-3.3484 3.4623 -2.3626 0.9788
-3.6433 3.1505 -2.3626 0.9788
-3.9093 2.8137 -2.3626 0.9788
-4.3462 2.0760 -2.3626 0.9788
-1.3159 0.2371 -0.6559 0.9941
-1.3317 0.1190 -0.6558 0.9941
-1.2576 -0.1124 -0.6550 0.9943
-1.2283 -0.3365 -0.6607 0.9943
-1.2162 -0.4529 -0.6733 0.9942
-3.9185 -2.3209 -2.3626 0.9797
-3.6963 -2.6604 -2.3626 0.9797
-1.5090 -4.5070 -2.4657 0.9788
-1.1018 -4.6235 -2.4657 0.9788
-0.6859 -4.7032 -2.4657 0.9788
0.5810 -4.7173 -2.4657 0.9788
1.4082 -4.5396 -2.4657 0.9788
2.1907 -4.2179 -2.4657 0.9788
2.5575 -4.0062 -2.4657 0.9788
2.9039 -3.7627 -2.4657 0.9788
3.2273 -3.4893 -2.4657 0.9788
3.5250 -3.1882 -2.4657 0.9788
3.7948 -2.8618 -2.4657 0.9788
4.2421 -2.1436 -2.4657 0.9788
4.4160 -1.7575 -2.4657 0.9788
4.5549 -1.3575 -2.4657 0.9788
4.6952 0.7383 -2.4657 0.9788
4.6109 1.1532 -2.4657 0.9788
4.3334 1.9525 -2.4657 0.9788
4.1424 2.3305 -2.4657 0.9788
3.6635 3.0280 -2.4657 0.9788
3.3795 3.3421 -2.4657 0.9788
2.3765 4.1162 -2.4657 0.9788
2.0007 4.3113 -2.4657 0.9788
0.3703 4.7385 -2.4657 0.9788
-0.0529 4.7526 -2.4657 0.9788
-1.3067 4.5698 -2.4657 0.9788
-1.6368 4.2499 -2.3626 0.9797
-2.0086 4.0874 -2.3626 0.9797
-2.1773 2.9551 -1.9042 0.9836
-3.3087 3.1294 -2.3626 0.9797
-4.0180 2.1440 -2.3626 0.9797
-1.2222 0.3941 -0.6662 0.9942
-1.2316 0.2790 -0.6551 0.9943
-1.2613 -0.0562 -0.6550 0.9943
-1.2222 -0.3941 -0.6662 0.9942
-4.1928 -1.7779 -2.3626 0.9797
-3.8112 -2.4932 -2.3626 0.9797
-3.3087 -3.1294 -2.3626 0.9797
-3.0171 -3.4115 -2.3626 0.9797
-2.3644 -3.8924 -2.3626 0.9797
-1.3067 -4.5698 -2.4657 0.9788
-0.0529 -4.7526 -2.4657 0.9788
0.7906 -4.6867 -2.4657 0.9788
1.2046 -4.5978 -2.4657 0.9788
3.0686 -3.6296 -2.4657 0.9788
3.6635 -3.0280 -2.4657 0.9788
4.4899 -1.5591 -2.4657 0.9788
4.6109 -1.1533 -2.4657 0.9788
4.5549 1.3575 -2.4657 0.9788
4.0345 2.5127 -2.4657 0.9788
3.7948 2.8618 -2.4657 0.9788
3.5250 3.1882 -2.4657 0.9788
3.2273 3.4893 -2.4657 0.9788
2.9039 3.7627 -2.4657 0.9788
2.5575 4.0062 -2.4657 0.9788
1.4082 4.5396 -2.4657 0.9788
0.1588 4.7503 -2.4657 0.9788
-0.6859 4.7032 -2.4657 0.9788
-1.5090 4.5071 -2.4657 0.9788
-2.1887 3.9938 -2.3626 0.9797
-2.0354 3.0370 -1.8967 0.9837
-3.6963 2.6604 -2.3626 0.9797
-3.9185 2.3209 -2.3626 0.9797
-1.1944 0.0000 -0.6542 0.9946
-1.1756 -0.2118 -0.6543 0.9946
-3.8925 -1.8593 -2.3626 0.9805
-3.5011 -2.5200 -2.3626 0.9805
-3.2629 -2.8216 -2.3626 0.9805
-2.9989 -3.1008 -2.3626 0.9805
-2.0404 -3.0445 -2.0074 0.9834
-1.7282 -3.9524 -2.3626 0.9805
-1.4293 -4.2690 -2.4657 0.9797
-1.0436 -4.3793 -2.4657 0.9797
-0.6497 -4.4548 -2.4657 0.9797
-0.2506 -4.4950 -2.4657 0.9797
0.9458 -4.4014 -2.4657 0.9797
1.3338 -4.2998 -2.4657 0.9797
1.7112 -4.1640 -2.4657 0.9797
2.4224 -3.7946 -2.4657 0.9797
2.7505 -3.5640 -2.4657 0.9797
3.3389 -3.0198 -2.4657 0.9797
3.5944 -2.7107 -2.4657 0.9797
4.0181 -2.0304 -2.4657 0.9797
4.3144 -1.2858 -2.4657 0.9797
4.5008 -0.1003 -2.4657 0.9797
4.2528 1.4768 -2.4657 0.9797
3.9236 2.2074 -2.4657 0.9797
3.7116 2.5479 -2.4657 0.9797
3.4701 2.8681 -2.4657 0.9797
3.2010 3.1656 -2.4657 0.9797
2.9066 3.4379 -2.4657 0.9797
2.5890 3.6830 -2.4657 0.9797
0.7488 4.4392 -2.4657 0.9797
0.3507 4.4882 -2.4657 0.9797
-0.4506 4.4793 -2.4657 0.9797
-0.8475 4.4214 -2.4657 0.9797
-2.2395 3.6868 -2.3626 0.9805
-3.6099 2.3615 -2.3626 0.9805
-3.8058 2.0308 -2.3626 0.9805
-1.1411 0.4838 -0.6788 0.9944
-1.1515 0.3713 -0.6626 0.9945
-1.1649 0.2639 -0.6542 0.9946
-1.1840 0.1592 -0.6543 0.9946
-1.1933 -0.0532 -0.6542 0.9946
-1.1515 -0.3713 -0.6626 0.9945
-1.1411 -0.4838 -0.6788 0.9944
-3.8058 -2.0308 -2.3626 0.9805
-3.6099 -2.3615 -2.3626 0.9805
-3.1340 -2.9641 -2.3626 0.9805
-2.8578 -3.2313 -2.3626 0.9805
-2.5588 -3.4728 -2.3626 0.9805
-1.5830 -4.1102 -2.4124 0.9801
-1.2377 -4.3285 -2.4657 0.9797
-0.8475 -4.4214 -2.4657 0.9797
-0.4506 -4.4793 -2.4657 0.9797
-0.0502 -4.5017 -2.4657 0.9797
0.3507 -4.4882 -2.4657 0.9797
0.7488 -4.4392 -2.4657 0.9797
1.5240 -4.2361 -2.4657 0.9797
2.9066 -3.4379 -2.4657 0.9797
3.2010 -3.1656 -2.4657 0.9797
3.4701 -2.8681 -2.4657 0.9797
3.9236 -2.2074 -2.4657 0.9797
4.2528 -1.4768 -2.4657 0.9797
4.3674 -1.0923 -2.4657 0.9797
4.4473 -0.6993 -2.4657 0.9797
4.4919 -0.3007 -2.4657 0.9797
4.3144 1.2858 -2.4657 0.9797
4.1828 1.6647 -2.4657 0.9797
4.0181 2.0304 -2.4657 0.9797
3.5944 2.7107 -2.4657 0.9797
3.3389 3.0198 -2.4657 0.9797
2.7505 3.5640 -2.4657 0.9797
2.4224 3.7946 -2.4657 0.9797
-0.6497 4.4548 -2.4657 0.9797
-1.0436 4.3793 -2.4657 0.9797
-1.7282 3.9524 -2.3626 0.9805
-2.0731 3.7829 -2.3626 0.9805
-2.0311 3.0306 -1.9982 0.9835
-2.7110 3.3554 -2.3626 0.9805
-2.9989 3.1008 -2.3626 0.9805
-3.2629 2.8216 -2.3626 0.9805
-3.8925 1.8593 -2.3626 0.9805
-1.1577 0.3171 -0.6575 0.9945
-1.1899 0.1063 -0.6543 0.9946
-1.1319 0.0000 -0.6535 0.9948
-1.1276 -0.1008 -0.6536 0.9948
-1.0934 -0.2995 -0.6545 0.9948
-3.5209 -2.0854 -2.3626 0.9813
-3.3213 -2.3905 -2.3626 0.9813
-3.0954 -2.6767 -2.3626 0.9813
-2.0404 -3.0445 -2.1160 0.9832
-1.6394 -3.7495 -2.3626 0.9813
-1.3559 -4.0498 -2.4657 0.9805
0.5220 -4.2387 -2.4657 0.9805
0.8972 -4.1754 -2.4657 0.9805
1.2653 -4.0790 -2.4657 0.9805
1.9685 -3.7900 -2.4657 0.9805
2.2980 -3.5998 -2.4657 0.9805
2.6093 -3.3810 -2.4657 0.9805
3.6252 -2.2578 -2.4657 0.9805
4.0929 -1.2198 -2.4657 0.9805
4.1852 -0.8507 -2.4657 0.9805
4.2697 -0.0952 -2.4657 0.9805
4.2189 0.6634 -2.4657 0.9805
4.1431 1.0363 -2.4657 0.9805
4.0345 1.4009 -2.4657 0.9805
3.7221 2.0940 -2.4657 0.9805
3.2919 2.7208 -2.4657 0.9805
2.4561 3.4938 -2.4657 0.9805
2.1354 3.6986 -2.4657 0.9805
1.4458 4.0186 -2.4657 0.9805
1.0824 4.1313 -2.4657 0.9805
0.7104 4.2113 -2.4657 0.9805
0.3327 4.2578 -2.4657 0.9805
-0.4275 4.2493 -2.4657 0.9805
-0.8040 4.1944 -2.4657 0.9805
-1.5349 3.9854 -2.4657 0.9805
-1.8048 3.6727 -2.3626 0.9813
-2.1708 2.9462 -2.1129 0.9832
-3.6103 1.9265 -2.3626 0.9813
-1.0870 0.3505 -0.6594 0.9947
-1.1039 0.2501 -0.6535 0.9948
-1.1220 0.1509 -0.6536 0.9948
-1.1309 0.0504 -0.6536 0.9948
-1.1309 -0.0504 -0.6536 0.9948
-1.1039 -0.2501 -0.6535 0.9948
-3.4245 -2.2402 -2.3626 0.9813
-2.9731 -2.8119 -2.3626 0.9813
-2.7110 -3.0654 -2.3626 0.9813
-2.1245 -3.4975 -2.3626 0.9813
-1.8048 -3.6727 -2.3626 0.9813
-1.5349 -3.9854 -2.4657 0.9805
-1.1741 -4.1062 -2.4657 0.9805
-0.8040 -4.1944 -2.4657 0.9805
-0.4275 -4.2493 -2.4657 0.9805
0.3327 -4.2578 -2.4657 0.9805
1.0824 -4.1313 -2.4657 0.9805
1.4458 -4.0186 -2.4657 0.9805
2.1354 -3.6986 -2.4657 0.9805
3.2919 -2.7208 -2.4657 0.9805
3.5210 -2.4170 -2.4657 0.9805
3.7221 -2.0940 -2.4657 0.9805
3.8938 -1.7544 -2.4657 0.9805
4.1431 -1.0363 -2.4657 0.9805
4.2189 -0.6634 -2.4657 0.9805
4.2612 -0.2853 -2.4657 0.9805
4.2443 0.4748 -2.4657 0.9805
3.8117 1.9262 -2.4657 0.9805
3.1674 2.8648 -2.4657 0.9805
2.8999 3.1353 -2.4657 0.9805
2.6093 3.3810 -2.4657 0.9805
2.2980 3.5998 -2.4657 0.9805
1.9685 3.7900 -2.4657 0.9805
1.6234 3.9502 -2.4657 0.9805
0.8973 4.1754 -2.4657 0.9805
0.5221 4.2387 -2.4657 0.9805
-0.6164 4.2260 -2.4657 0.9805
-0.9900 4.1544 -2.4657 0.9805
-1.3559 4.0498 -2.4657 0.9805
-1.6394 3.7495 -2.3626 0.9813
-2.5718 3.1831 -2.3626 0.9813
-3.0954 2.6767 -2.3626 0.9813
-3.6926 1.7638 -2.3626 0.9813
-1.0827 0.4032 -0.6671 0.9947
-1.0934 0.2995 -0.6545 0.9948
-1.1141 0.2007 -0.6536 0.9948
-1.1276 0.1008 -0.6536 0.9948
