ply
format ascii 1.0
element vertex 1316
property float32 x
property float32 y
property float32 z
property float32 I
end_header
12.0285 15.5858 3.0160 0.9234
7.0655 -15.2258 1.8024 0.9347
12.0285 15.5858 2.1141 0.9239
11.4502 16.2882 1.2346 0.9233
7.0648 -15.2242 1.0408 0.9349
11.4575 16.2986 0.7856 0.9233
7.0641 -15.2228 0.6617 0.9350
7.0634 -15.2212 0.2834 0.9351
17.9263 0.3995 0.3029 0.9308
12.0353 15.5945 0.3327 0.9242
11.4575 16.2986 -0.1122 0.9234
-18.6832 6.0245 -0.1105 0.9245
17.9263 0.3995 -0.1010 0.9308
12.0353 15.5945 -0.1109 0.9242
11.4575 16.2986 -0.5610 0.9234
17.6476 -1.1814 -0.4980 0.9317
17.9263 0.3995 -0.5049 0.9308
17.6476 -1.1814 -0.8970 0.9316
12.0353 15.5945 -0.9990 0.9241
-18.1469 6.7579 -0.9821 0.9254
-11.7773 15.9843 -1.4558 0.9235
-18.0390 5.8168 -1.3897 0.9268
7.0604 -15.2148 -1.2298 0.9349
17.9263 0.3995 -1.3147 0.9306
-17.9384 6.6803 -1.4035 0.9261
10.5830 -16.5781 -1.8882 0.9240
-9.9597 13.5174 -1.6120 0.9348
-11.2094 12.6746 -1.6244 0.9343
-12.1918 11.5309 -1.6111 0.9348
-14.9951 9.8093 -1.7203 0.9305
-17.8486 7.5684 -1.8612 0.9251
-17.9351 5.7833 -1.8092 0.9271
-5.8345 -15.1490 -1.5585 0.9368
17.9263 0.3995 -1.7214 0.9305
-9.2862 13.8559 -1.6014 0.9352
-10.8213 13.3936 -1.6531 0.9331
-11.3760 11.7627 -1.5710 0.9364
-14.8416 10.6823 -1.7556 0.9292
-17.6911 8.4503 -1.8822 0.9242
10.4619 -16.3884 -2.3096 0.9247
10.4675 -13.5632 -2.0351 0.9333
10.7935 -11.6699 -1.8882 0.9380
-8.7878 14.4668 -2.0107 0.9341
-11.7788 11.1403 -1.9258 0.9368
-13.3237 10.5216 -2.0167 0.9339
-14.4145 9.4296 -2.0461 0.9330
-16.4755 8.7916 -2.2183 0.9275
-17.9589 7.6152 -2.3171 0.9244
-17.8447 5.7542 -2.2272 0.9273
7.0252 -15.1390 -1.9825 0.9350
10.4649 -14.8865 -2.1615 0.9293
10.4699 -12.3838 -1.9263 0.9368
10.5246 -8.6988 -1.6219 0.9465
17.6476 -1.1814 -2.1010 0.9312
17.9263 0.3995 -2.1299 0.9303
12.0353 15.5945 -2.3399 0.9237
-8.6299 15.7476 -2.1331 0.9302
-8.9330 13.3289 -1.9060 0.9374
-10.9865 11.3600 -1.8772 0.9383
-15.1078 8.9484 -2.0858 0.9317
-17.6078 8.4105 -2.3179 0.9244
-17.3946 6.4778 -2.2049 0.9280
-5.6582 -10.3248 -1.6682 0.9535
-4.3243 -18.1454 -2.6430 0.9274
-1.0790 -19.3511 -2.7461 0.9247
4.0718 -18.9486 -2.7461 0.9247
7.0899 -17.2524 -2.6428 0.9274
8.5974 -16.5529 -2.6428 0.9274
10.4945 -7.9143 -1.8624 0.9483
18.8123 -0.4192 -2.6662 0.9268
18.7749 1.2568 -2.6662 0.9268
17.7758 6.1724 -2.6662 0.9268
17.1558 7.7300 -2.6662 0.9268
14.5040 11.9879 -2.6662 0.9268
13.3795 13.2312 -2.6662 0.9268
12.1487 14.3696 -2.6662 0.9268
7.8514 16.9194 -2.6428 0.9274
6.4630 17.9642 -2.7050 0.9258
3.2237 19.1112 -2.7461 0.9247
1.5099 19.3222 -2.7461 0.9247
-1.8671 18.5599 -2.6430 0.9274
-3.5117 18.3200 -2.6430 0.9274
-5.5188 14.3292 -2.1757 0.9399
-8.4538 13.9168 -2.3072 0.9363
-9.2916 12.6106 -2.2194 0.9387
-10.3407 11.6923 -2.2116 0.9389
-17.6406 7.4802 -2.7149 0.9255
-17.4801 5.6366 -2.6023 0.9285
-5.1283 -17.9348 -2.6430 0.9274
-3.5117 -18.3200 -2.6430 0.9274
-1.8672 -18.5599 -2.6430 0.9274
4.9119 -18.7484 -2.7461 0.9247
6.4630 -17.9642 -2.7050 0.9258
7.0177 -15.1229 -2.3622 0.9349
9.3262 -16.1535 -2.6428 0.9274
10.5366 -2.6354 -1.5389 0.9571
18.7003 2.0919 -2.6662 0.9268
18.4399 3.7480 -2.6662 0.9268
16.7945 8.4866 -2.6662 0.9268
15.9724 9.9477 -2.6662 0.9268
13.9556 12.6221 -2.6662 0.9268
12.7768 13.8141 -2.6662 0.9268
11.4965 14.8965 -2.6662 0.9268
7.0900 17.2524 -2.6428 0.9274
5.7422 18.5110 -2.7461 0.9247
4.0718 18.9486 -2.7461 0.9247
2.3691 19.2358 -2.7461 0.9247
0.6476 19.3703 -2.7461 0.9247
-2.6921 18.4583 -2.6430 0.9274
-4.3243 18.1454 -2.6430 0.9274
-5.5058 16.4450 -2.4572 0.9323
-7.8733 18.0068 -2.7846 0.9237
-8.6327 12.8808 -2.1971 0.9393
-10.6416 11.0033 -2.1689 0.9400
-12.2814 10.6201 -2.3005 0.9365
-13.4764 9.6997 -2.3526 0.9351
-14.5112 8.5950 -2.3897 0.9341
-17.2233 8.2269 -2.7045 0.9258
-17.3032 6.4437 -2.6162 0.9281
-5.0935 -15.2136 -2.6430 0.9370
-2.3154 -15.8756 -2.6430 0.9370
-0.9280 -16.6435 -2.7461 0.9347
2.0376 -16.5444 -2.7461 0.9347
4.9387 -15.9210 -2.7461 0.9347
6.3362 -15.4182 -2.7461 0.9347
7.3944 -14.2369 -2.6428 0.9370
8.6323 -13.5222 -2.6428 0.9370
10.4757 -9.4747 -2.3269 0.9443
10.4815 -6.5280 -2.0342 0.9512
10.4840 -5.2978 -1.9351 0.9535
10.5353 -3.1399 -1.8110 0.9564
16.0838 -1.7993 -2.6662 0.9365
16.1480 1.0810 -2.6662 0.9365
15.9877 2.5139 -2.6662 0.9365
14.7554 6.6485 -2.6662 0.9365
14.1051 7.9354 -2.6662 0.9365
12.4747 10.3106 -2.6662 0.9365
10.3576 12.2510 -2.6428 0.9370
8.0213 13.8933 -2.6428 0.9370
6.7529 14.5521 -2.6428 0.9370
4.2246 16.1252 -2.7461 0.9347
2.7726 16.4372 -2.7461 0.9347
-0.1857 16.6684 -2.7461 0.9347
-5.5058 14.2954 -2.5237 0.9398
-7.7548 15.7805 -2.8966 0.9312
-8.1372 13.3957 -2.5821 0.9384
-9.0244 12.2480 -2.5063 0.9402
-10.0081 11.3164 -2.4887 0.9406
-12.4746 9.8511 -2.6186 0.9376
-13.5401 8.8575 -2.6655 0.9365
-15.1410 8.0795 -2.8272 0.9328
-17.3623 7.3622 -3.1068 0.9264
-5.6129 -11.4220 -2.0966 0.9497
-5.6192 -14.5899 -2.5756 0.9386
1.2986 -16.6187 -2.7461 0.9347
2.7726 -16.4372 -2.7461 0.9347
5.6431 -15.6852 -2.7461 0.9347
6.7529 -14.5521 -2.6428 0.9370
9.2261 -13.1242 -2.6428 0.9370
10.4739 -10.3579 -2.4267 0.9420
10.4773 -8.6597 -2.2393 0.9464
10.4802 -7.1943 -2.0941 0.9498
10.4828 -5.8975 -1.9815 0.9524
10.4851 -4.7244 -1.8945 0.9544
10.5366 -2.6354 -1.7893 0.9569
16.1801 0.3606 -2.6662 0.9365
15.8598 3.2236 -2.6662 0.9365
13.7376 8.5559 -2.6662 0.9365
10.9891 11.8813 -2.6662 0.9365
7.3945 14.2369 -2.6428 0.9370
6.3362 15.4182 -2.7461 0.9347
4.9387 15.9210 -2.7461 0.9347
-3.7192 15.6066 -2.6430 0.9370
-8.3868 12.5140 -2.4817 0.9408
-9.7254 12.0373 -2.5494 0.9392
-11.8738 10.2677 -2.5860 0.9383
-12.8866 9.2752 -2.6156 0.9377
-14.0367 8.3140 -2.6876 0.9360
-17.1427 6.3840 -3.0136 0.9285
-5.6493 -5.8413 -1.5274 0.9675
-5.6106 -10.2380 -2.1944 0.9536
-4.4643 -13.3340 -2.6430 0.9444
-0.8134 -14.5873 -2.7461 0.9423
1.7859 -14.5004 -2.7461 0.9423
3.0694 -14.2839 -2.7461 0.9423
5.5534 -13.5134 -2.7461 0.9423
7.5658 -11.8516 -2.6428 0.9444
9.5472 -10.3224 -2.6428 0.9444
10.4281 -9.4317 -2.6428 0.9444
10.4788 -7.9024 -2.4669 0.9480
10.4840 -5.2978 -2.2079 0.9533
10.4902 -2.1322 -2.0121 0.9574
14.0967 -1.5770 -2.6662 0.9439
14.0125 2.2034 -2.6662 0.9439
12.9325 5.8271 -2.6662 0.9439
12.3625 6.9550 -2.6662 0.9439
11.6944 8.0278 -2.6662 0.9439
9.9976 9.8868 -2.6428 0.9444
9.0779 10.7374 -2.6428 0.9444
8.0862 11.5028 -2.6428 0.9444
7.0303 12.1769 -2.6428 0.9444
6.1498 13.2526 -2.7461 0.9423
4.9459 13.7473 -2.7461 0.9423
3.7027 14.1330 -2.7461 0.9423
1.1382 14.5656 -2.7461 0.9423
-0.1628 14.6091 -2.7461 0.9423
-2.6472 13.8101 -2.6430 0.9444
-5.0538 13.1219 -2.6430 0.9444
-7.4407 15.1413 -3.1711 0.9336
-9.7033 10.9717 -2.7531 0.9421
-12.0578 9.5220 -2.8879 0.9394
-12.9094 8.4449 -2.8995 0.9391
-14.5482 7.7631 -3.0995 0.9351
-5.8379 -5.5215 -1.5103 0.9678
-5.6129 -11.4220 -2.3921 0.9495
-5.0538 -13.1219 -2.6430 0.9444
-3.8658 -13.5196 -2.6430 0.9444
1.1382 -14.5656 -2.7461 0.9423
2.4301 -14.4064 -2.7461 0.9423
3.7027 -14.1330 -2.7461 0.9423
4.9459 -13.7473 -2.7461 0.9423
7.0303 -12.1769 -2.6428 0.9444
8.0862 -11.5028 -2.6428 0.9444
9.0779 -10.7374 -2.6428 0.9444
10.4802 -7.1943 -2.3893 0.9496
10.4828 -5.8975 -2.2608 0.9522
10.4851 -4.7244 -2.1616 0.9543
10.4893 -2.6236 -2.0323 0.9569
13.3309 -2.0962 -2.5365 0.9466
14.1530 -0.9474 -2.6662 0.9439
14.1811 0.3160 -2.6662 0.9439
12.6601 6.3974 -2.6662 0.9439
12.0404 7.4988 -2.6662 0.9439
11.3252 8.5407 -2.6662 0.9439
9.5473 10.3224 -2.6428 0.9444
8.5906 11.1312 -2.6428 0.9444
7.5658 11.8516 -2.6428 0.9444
0.4882 14.6018 -2.7461 0.9423
-0.8134 14.5873 -2.7461 0.9423
-2.0293 13.9143 -2.6430 0.9444
-4.4642 13.3340 -2.6430 0.9444
-8.1529 12.1650 -2.7526 0.9421
-9.3836 11.6142 -2.8065 0.9410
-10.0069 10.3471 -2.7056 0.9431
-11.4897 9.9355 -2.8551 0.9400
-12.3159 8.8645 -2.8522 0.9401
-5.8650 -5.0716 -1.6390 0.9688
-5.6493 -5.8413 -1.7177 0.9673
-5.6139 -6.9484 -1.8882 0.9641
-3.9696 -11.8567 -2.6430 0.9502
2.7294 -12.7013 -2.7461 0.9483
4.9381 -12.0162 -2.7461 0.9483
7.6388 -9.8979 -2.6428 0.9502
8.4895 -9.1788 -2.6428 0.9502
9.9824 -7.5281 -2.6428 0.9502
10.4815 -6.5280 -2.6101 0.9508
10.4840 -5.2978 -2.4830 0.9531
10.4862 -4.1734 -2.3857 0.9549
10.4902 -2.1322 -2.2628 0.9572
12.6100 -0.2810 -2.6662 0.9497
12.5849 0.8425 -2.6662 0.9497
12.4600 1.9593 -2.6662 0.9497
10.9928 6.1845 -2.6662 0.9497
8.0722 9.5478 -2.6428 0.9502
7.1903 10.2284 -2.6428 0.9502
6.4630 11.1942 -2.7323 0.9485
5.4685 11.7843 -2.7461 0.9483
4.3979 12.2242 -2.7461 0.9483
3.2925 12.5672 -2.7461 0.9483
1.0121 12.9518 -2.7461 0.9483
-0.1447 12.9905 -2.7461 0.9483
-4.4939 11.6681 -2.6430 0.9502
-8.4734 11.5001 -3.0195 0.9433
-9.4142 10.6448 -3.0038 0.9436
-10.3862 9.8232 -3.0218 0.9432
-11.5362 9.1100 -3.1072 0.9417
-12.2428 8.0088 -3.0924 0.9419
-14.7328 6.2473 -3.3826 0.9367
-5.8109 -6.5705 -1.8541 0.9648
-5.5146 -11.2218 -2.6430 0.9502
-2.3539 -12.2800 -2.6430 0.9502
1.0121 -12.9518 -2.7461 0.9483
4.3979 -12.2242 -2.7461 0.9483
7.1903 -10.2284 -2.6428 0.9502
8.0722 -9.5478 -2.6428 0.9502
8.8899 -8.7915 -2.6428 0.9502
10.4828 -5.8975 -2.5424 0.9520
10.4872 -3.6416 -2.3466 0.9556
12.6100 0.2810 -2.6662 0.9497
12.5349 1.4022 -2.6662 0.9497
12.3604 2.5123 -2.6662 0.9497
12.0877 3.6025 -2.6662 0.9497
11.7191 4.6641 -2.6662 0.9497
9.9824 7.5281 -2.6428 0.9502
9.2728 8.3867 -2.6428 0.9502
8.4895 9.1788 -2.6428 0.9502
7.6388 9.8979 -2.6428 0.9502
6.7276 10.5385 -2.6428 0.9502
5.9880 11.5290 -2.7461 0.9483
3.8490 12.4080 -2.7461 0.9483
1.5880 12.8939 -2.7461 0.9483
0.4341 12.9841 -2.7461 0.9483
-0.7233 12.9712 -2.7461 0.9483
-3.9696 11.8567 -2.6430 0.9502
-7.9299 11.8322 -3.0108 0.9434
-15.3257 5.7074 -3.4569 0.9353
-18.2853 5.0089 -4.0075 0.9254
-5.8357 -5.0463 -1.8132 0.9688
-5.6069 -8.3660 -2.3669 0.9595
-5.4045 -9.8620 -2.6430 0.9548
-3.5703 -10.6639 -2.6430 0.9548
-2.6070 -10.9394 -2.6430 0.9548
-0.6505 -11.6663 -2.7461 0.9531
0.3904 -11.6779 -2.7461 0.9531
2.4548 -11.4236 -2.7461 0.9531
5.3856 -10.3692 -2.7461 0.9531
6.8704 -8.9022 -2.6428 0.9548
7.6355 -8.2554 -2.6428 0.9548
10.4883 -3.1259 -2.5721 0.9560
10.4902 -2.1322 -2.5159 0.9570
11.2739 -1.2612 -2.6662 0.9545
11.0052 2.7526 -2.6662 0.9545
10.7166 3.7212 -2.6662 0.9545
7.9956 7.9070 -2.6428 0.9548
5.8422 10.1190 -2.7461 0.9531
4.9184 10.5988 -2.7461 0.9531
3.9555 10.9945 -2.7461 0.9531
1.9435 11.5216 -2.7461 0.9531
0.9103 11.6489 -2.7461 0.9531
-0.1302 11.6837 -2.7461 0.9531
-1.1695 11.6257 -2.7461 0.9531
-2.1171 11.0447 -2.6430 0.9548
-3.0917 10.8124 -2.6430 0.9548
-8.9257 10.0924 -3.1665 0.9461
-9.9871 9.4457 -3.2307 0.9451
-11.6361 7.6120 -3.2679 0.9445
-12.5372 6.6901 -3.3398 0.9433
-5.6028 -6.3352 -1.9877 0.9658
-5.6086 -9.2330 -2.5389 0.9566
-4.9598 -10.0929 -2.6430 0.9548
-3.0917 -10.8124 -2.6430 0.9548
-2.1171 -11.0447 -2.6430 0.9548
-0.1302 -11.6837 -2.7461 0.9531
1.9435 -11.5216 -2.7461 0.9531
3.9555 -10.9945 -2.7461 0.9531
6.4750 -9.2107 -2.6461 0.9548
8.6677 -7.1640 -2.6428 0.9548
9.2709 -6.3641 -2.6428 0.9548
9.8005 -5.5137 -2.6428 0.9548
10.2524 -4.6195 -2.6428 0.9548
10.4872 -3.6416 -2.6091 0.9554
10.4893 -2.6236 -2.5412 0.9565
11.2065 -1.7621 -2.6662 0.9545
11.2739 1.2612 -2.6662 0.9545
10.8717 3.2401 -2.6662 0.9545
10.4480 4.1582 -2.6428 0.9548
10.0364 5.0716 -2.6428 0.9548
9.5452 5.9448 -2.6428 0.9548
8.3399 7.5430 -2.6428 0.9548
6.8704 8.9022 -2.6428 0.9548
6.2872 9.8487 -2.7461 0.9531
2.4548 11.4236 -2.7461 0.9531
0.3904 11.6779 -2.7461 0.9531
-0.6505 11.6663 -2.7461 0.9531
-1.6230 11.1280 -2.6430 0.9548
-2.6070 10.9394 -2.6430 0.9548
-3.5703 10.6639 -2.6430 0.9548
-4.5053 10.3039 -2.6430 0.9548
-7.6100 11.3548 -3.2126 0.9454
-11.2249 8.0792 -3.2504 0.9448
-12.1213 7.1795 -3.3110 0.9438
-12.9505 6.1859 -3.3731 0.9427
-16.3579 4.4809 -3.9861 0.9327
-5.6040 -6.9362 -2.3088 0.9638
-4.0895 -9.3529 -2.6430 0.9587
-3.2408 -9.6798 -2.6430 0.9587
-0.5905 -10.5896 -2.7461 0.9571
0.3544 -10.6002 -2.7461 0.9571
2.2282 -10.3694 -2.7461 0.9571
4.8886 -9.4122 -2.7461 0.9571
5.7069 -8.9398 -2.7461 0.9571
6.4630 -8.3743 -2.7389 0.9572
6.9308 -7.4935 -2.6428 0.9587
8.1496 -6.1459 -2.6428 0.9587
9.1102 -4.6036 -2.6428 0.9587
9.4838 -3.7745 -2.6428 0.9587
10.1440 -1.1348 -2.6428 0.9587
10.0834 1.5855 -2.6428 0.9587
9.6425 3.3482 -2.6428 0.9587
9.3062 4.1932 -2.6428 0.9587
8.4153 5.7768 -2.6428 0.9587
7.8678 6.5029 -2.6428 0.9587
4.4645 9.6207 -2.7461 0.9571
1.7641 10.4583 -2.7461 0.9571
-0.1182 10.6054 -2.7461 0.9571
-1.0616 10.5528 -2.7461 0.9571
-3.6688 9.5258 -2.6430 0.9587
-4.5021 9.1615 -2.6430 0.9587
-5.2996 8.7244 -2.6430 0.9587
-9.2497 8.7483 -3.2964 0.9488
-5.5008 4.3439 -1.8148 0.9715
-11.5267 6.1508 -3.3828 0.9474
-13.6121 4.3893 -3.7031 0.9426
-17.1378 3.8829 -4.5498 0.9300
-5.6813 -4.4865 -1.8744 0.9705
-5.6028 -6.3352 -2.1898 0.9657
-5.6054 -7.6077 -2.4467 0.9617
-2.8064 -9.8146 -2.6430 0.9587
-1.0616 -10.5528 -2.7461 0.9571
-0.1182 -10.6054 -2.7461 0.9571
2.6880 -10.2598 -2.7461 0.9571
4.4645 -9.6207 -2.7461 0.9571
7.2577 -7.1773 -2.6428 0.9587
8.4153 -5.7768 -2.6428 0.9587
8.8961 -5.0048 -2.6428 0.9587
9.6425 -3.3482 -2.6428 0.9587
9.9023 -2.4767 -2.6428 0.9587
10.1845 -0.6818 -2.6428 0.9587
10.2048 0.2274 -2.6428 0.9587
10.1440 1.1348 -2.6428 0.9587
10.0028 2.0331 -2.6428 0.9587
9.4838 3.7745 -2.6428 0.9587
9.1102 4.6036 -2.6428 0.9587
8.6643 5.3962 -2.6428 0.9587
6.9308 7.4935 -2.6428 0.9587
6.4630 8.3743 -2.7389 0.9572
5.7069 8.9397 -2.7461 0.9571
4.8886 9.4122 -2.7461 0.9571
4.0315 9.8100 -2.7461 0.9571
0.3544 10.6002 -2.7461 0.9571
-0.5905 10.5896 -2.7461 0.9571
-3.2408 9.6798 -2.6430 0.9587
-4.9057 8.9518 -2.6430 0.9587
-7.0556 10.5276 -3.2813 0.9490
-8.8348 9.1351 -3.2904 0.9488
-10.3920 7.4797 -3.3152 0.9485
-11.1774 6.6204 -3.3636 0.9477
-12.9552 4.8246 -3.5794 0.9445
-14.6902 4.0241 -3.9437 0.9390
-5.6017 -5.7922 -2.2811 0.9671
-5.6040 -6.9362 -2.5244 0.9636
-4.4868 -8.1874 -2.6430 0.9619
-2.1643 -9.0819 -2.6430 0.9619
-1.4000 -9.5988 -2.7461 0.9605
-0.5400 -9.6853 -2.7461 0.9605
1.1858 -9.6276 -2.7461 0.9605
2.0380 -9.4839 -2.7461 0.9605
3.6872 -8.9723 -2.7461 0.9605
5.9266 -7.6793 -2.7461 0.9605
6.9238 -6.2622 -2.6428 0.9619
7.9244 -4.9354 -2.6428 0.9619
8.6739 -3.4521 -2.6428 0.9619
8.9467 -2.6664 -2.6428 0.9619
9.1486 -1.8595 -2.6428 0.9619
9.3148 0.6235 -2.6428 0.9619
9.0566 2.2652 -2.6428 0.9619
8.5115 3.8351 -2.6428 0.9619
8.1364 4.5775 -2.6428 0.9619
6.6379 6.5644 -2.6428 0.9619
5.5786 7.9357 -2.7461 0.9605
3.2838 9.1276 -2.7461 0.9605
-1.7711 9.2395 -2.6633 0.9616
-2.5667 8.9764 -2.6430 0.9619
-3.3555 8.7123 -2.6430 0.9619
-5.5380 7.5163 -2.6430 0.9619
-7.7345 8.7455 -3.3051 0.9526
-8.5154 8.0538 -3.3181 0.9524
-12.6303 4.0728 -3.7569 0.9463
-14.6924 3.3289 -4.2647 0.9393
-5.8846 -3.1401 -1.8882 0.9727
-5.5990 -4.4215 -2.0197 0.9708
-5.6008 -5.2972 -2.1824 0.9685
-5.6028 -6.3352 -2.3942 0.9655
-5.5380 -7.5163 -2.6430 0.9619
-4.8471 -7.9794 -2.6430 0.9619
-4.1176 -8.3791 -2.6430 0.9619
-1.7711 -9.2395 -2.6632 0.9616
-0.9710 -9.6516 -2.7461 0.9605
0.7557 -9.6709 -2.7461 0.9605
1.6135 -9.5652 -2.7461 0.9605
2.4584 -9.3837 -2.7461 0.9605
4.8502 -8.4007 -2.7461 0.9605
5.5786 -7.9357 -2.7461 0.9605
6.2628 -7.4077 -2.7461 0.9605
7.1959 -5.9475 -2.6428 0.9619
7.6967 -5.2835 -2.6428 0.9619
8.1364 -4.5775 -2.6428 0.9619
6.7903 -3.0596 -2.1084 0.9695
8.8191 -3.0623 -2.6428 0.9619
9.3333 0.2080 -2.6428 0.9619
8.9467 2.6664 -2.6428 0.9619
8.3322 4.2104 -2.6428 0.9619
7.9244 4.9354 -2.6428 0.9619
6.9238 6.2622 -2.6428 0.9619
6.4630 6.9877 -2.6946 0.9612
5.9266 7.6793 -2.7461 0.9605
5.2196 8.1763 -2.7461 0.9605
3.6872 8.9722 -2.7461 0.9605
2.8740 9.2648 -2.7461 0.9605
-1.3999 9.5988 -2.7461 0.9605
-2.1643 9.0819 -2.6430 0.9619
-3.7403 8.5542 -2.6430 0.9619
-4.4868 8.1874 -2.6430 0.9619
-8.1347 8.4113 -3.3126 0.9525
-8.8812 7.6799 -3.3239 0.9524
-9.6822 6.9688 -3.3771 0.9516
-11.1075 5.3056 -3.4848 0.9501
-19.0915 0.0000 -5.8722 0.9232
-5.5968 -3.3150 -2.0008 0.9731
-5.5999 -4.8424 -2.2771 0.9695
-5.4003 -6.6840 -2.6430 0.9647
-2.7281 -8.1484 -2.6430 0.9647
-1.9920 -8.3589 -2.6430 0.9647
-1.2885 -8.8346 -2.7461 0.9633
0.2983 -8.9231 -2.7461 0.9633
2.6452 -8.5273 -2.7461 0.9633
4.1152 -7.9232 -2.7461 0.9633
6.0622 -6.5544 -2.7461 0.9633
6.8603 -5.1736 -2.6428 0.9647
7.9834 -3.1773 -2.6428 0.9647
8.4203 -1.7115 -2.6428 0.9647
8.5392 -0.9553 -2.6428 0.9647
8.5903 -0.1914 -2.6428 0.9647
8.5733 0.5739 -2.6428 0.9647
8.4881 1.3347 -2.6428 0.9647
7.4887 4.2130 -2.6428 0.9647
7.0840 4.8629 -2.6428 0.9647
6.3482 6.2779 -2.7461 0.9633
5.1345 7.3040 -2.7461 0.9633
4.4641 7.7320 -2.7461 0.9633
3.7582 8.0986 -2.7461 0.9633
2.2627 8.6366 -2.7461 0.9633
1.4850 8.8038 -2.7461 0.9633
0.6955 8.9010 -2.7461 0.9633
-0.0995 8.9276 -2.7461 0.9633
-0.8937 8.8833 -2.7461 0.9633
-2.3624 8.2618 -2.6430 0.9647
-3.0884 8.0188 -2.6430 0.9647
-3.7898 7.7121 -2.6430 0.9647
-5.0972 6.9179 -2.6430 0.9647
-7.1611 8.0972 -3.3248 0.9558
-9.4189 6.1615 -3.4619 0.9540
-13.3351 3.0213 -4.2055 0.9444
-5.8428 -1.8841 -1.8882 0.9746
-5.5962 -2.9862 -1.9510 0.9738
-5.5990 -4.4215 -2.1944 0.9706
-5.6008 -5.2972 -2.3711 0.9683
-5.6028 -6.3352 -2.6013 0.9652
-3.0884 -8.0188 -2.6430 0.9647
-2.3624 -8.2618 -2.6430 0.9647
-1.6177 -8.4393 -2.6430 0.9647
2.2627 -8.6366 -2.7461 0.9633
3.7582 -8.0986 -2.7461 0.9633
5.1345 -7.3040 -2.7461 0.9633
5.7642 -6.8180 -2.7461 0.9633
6.3482 -6.2779 -2.7461 0.9633
7.4887 -4.2131 -2.6428 0.9647
6.7821 -3.0559 -2.2880 0.9693
8.3357 -2.0849 -2.6428 0.9647
8.5733 -0.5739 -2.6428 0.9647
8.5903 0.1914 -2.6428 0.9647
8.2345 2.4541 -2.6428 0.9647
7.9834 3.1773 -2.6428 0.9647
7.6689 3.8753 -2.6428 0.9647
7.2936 4.5425 -2.6428 0.9647
6.4659 5.8480 -2.6815 0.9642
6.0623 6.5544 -2.7461 0.9633
5.4548 7.0680 -2.7461 0.9633
3.3937 8.2580 -2.7461 0.9633
1.8757 8.7289 -2.7461 0.9633
1.0914 8.8612 -2.7461 0.9633
0.2983 8.9231 -2.7461 0.9633
-0.4971 8.9143 -2.7461 0.9633
-1.2885 8.8346 -2.7461 0.9633
-1.9920 8.3589 -2.6430 0.9647
-3.4425 7.8733 -2.6430 0.9647
-4.1296 7.5356 -2.6430 0.9647
-4.7839 7.1381 -2.6430 0.9647
-5.4003 6.6840 -2.6430 0.9647
-8.3172 7.1922 -3.3820 0.9550
-9.7605 5.7812 -3.4892 0.9536
-5.5083 2.6311 -1.8776 0.9748
-12.3653 3.3872 -3.9434 0.9478
-18.9486 1.6933 -5.8514 0.9235
-5.5968 -3.3150 -2.1623 0.9730
-5.5982 -4.0294 -2.2928 0.9713
-5.5276 -5.7155 -2.6430 0.9670
-4.9969 -6.1848 -2.6430 0.9670
-4.4266 -6.6050 -2.6430 0.9670
-3.8212 -6.9728 -2.6430 0.9670
-3.1854 -7.2852 -2.6430 0.9670
3.1402 -7.6412 -2.7461 0.9658
3.8078 -7.3314 -2.7461 0.9658
5.0474 -6.5401 -2.7461 0.9658
5.6095 -6.0649 -2.7461 0.9658
6.1270 -5.5415 -2.7461 0.9658
6.7488 -4.2032 -2.6428 0.9670
7.0961 -3.5858 -2.6428 0.9670
7.3871 -2.9400 -2.6428 0.9670
7.6195 -2.2709 -2.6428 0.9670
7.9014 -0.8839 -2.6428 0.9670
7.2488 3.2662 -2.6428 0.9670
6.9293 3.8984 -2.6428 0.9670
6.5549 4.4996 -2.6428 0.9670
6.3678 5.2631 -2.7461 0.9658
5.3337 6.3087 -2.7461 0.9658
4.7510 6.7584 -2.7461 0.9658
2.7967 7.7735 -2.7461 0.9658
2.0937 7.9916 -2.7461 0.9658
0.6436 8.2362 -2.7461 0.9658
-0.0920 8.2608 -2.7461 0.9658
-0.8269 8.2198 -2.7461 0.9658
-3.5068 7.1361 -2.6430 0.9670
-4.1280 6.7956 -2.6430 0.9670
-5.2675 5.9560 -2.6430 0.9670
-5.5074 5.2089 -2.5198 0.9686
-9.5648 5.1039 -3.6037 0.9553
-5.5224 2.3417 -1.9939 0.9750
-5.5014 1.2464 -1.8750 0.9765
-5.5016 -0.2454 -1.8306 0.9771
-5.6915 -1.8353 -1.9878 0.9751
-5.5990 -4.4215 -2.3715 0.9704
-5.6008 -5.2972 -2.5625 0.9680
-4.1280 -6.7956 -2.6430 0.9670
-3.5068 -7.1361 -2.6430 0.9670
-2.8577 -7.4199 -2.6430 0.9670
-2.1860 -7.6448 -2.6430 0.9670
-1.5552 -8.1136 -2.7461 0.9658
-0.0920 -8.2608 -2.7461 0.9658
2.0937 -7.9916 -2.7461 0.9658
2.7967 -7.7735 -2.7461 0.9658
5.3337 -6.3087 -2.7461 0.9658
6.5549 -4.4997 -2.6428 0.9670
6.9293 -3.8984 -2.6428 0.9670
6.7822 -3.0559 -2.4727 0.9691
7.5108 -2.6080 -2.6428 0.9670
7.8542 -1.2350 -2.6428 0.9670
7.9014 0.8839 -2.6428 0.9670
7.7914 1.5837 -2.6428 0.9670
7.6195 2.2709 -2.6428 0.9670
7.3871 2.9400 -2.6428 0.9670
7.0961 3.5858 -2.6428 0.9670
6.7488 4.2032 -2.6428 0.9670
6.1270 5.5416 -2.7461 0.9658
5.0474 6.5401 -2.7461 0.9658
4.4453 6.9634 -2.7461 0.9658
2.4476 7.8904 -2.7461 0.9658
0.2761 8.2567 -2.7461 0.9658
-0.4599 8.2485 -2.7461 0.9658
-1.8432 7.7346 -2.6430 0.9670
-2.5243 7.5398 -2.6430 0.9670
-3.1854 7.2852 -2.6430 0.9670
-3.8212 6.9728 -2.6430 0.9670
-4.9969 6.1848 -2.6430 0.9670
-7.8356 6.7757 -3.4434 0.9573
-13.7116 2.4703 -4.6312 0.9430
-5.5956 -2.6728 -2.2176 0.9740
-5.5968 -3.3150 -2.3262 0.9727
-5.5905 -4.8343 -2.6430 0.9691
-5.1380 -5.3127 -2.6430 0.9691
-4.6448 -5.7489 -2.6430 0.9691
-2.3464 -7.0085 -2.6430 0.9691
-1.7133 -7.1895 -2.6430 0.9691
-1.1082 -7.5987 -2.7461 0.9679
0.2566 -7.6748 -2.7461 0.9679
2.2751 -7.3343 -2.7461 0.9679
4.1320 -6.4727 -2.7461 0.9679
4.6917 -6.0792 -2.7461 0.9679
5.2141 -5.6375 -2.7461 0.9679
6.5960 -3.3331 -2.6428 0.9691
7.3739 0.4936 -2.6428 0.9691
7.3007 1.1480 -2.6428 0.9691
6.7380 3.0360 -2.6428 0.9691
5.9190 4.8922 -2.7461 0.9679
4.9578 5.8642 -2.7461 0.9679
1.9462 7.4284 -2.7461 0.9679
1.2773 7.5721 -2.7461 0.9679
-0.7686 7.6405 -2.7461 0.9679
-1.4456 7.5418 -2.7461 0.9679
-2.0319 7.1060 -2.6430 0.9691
-2.6563 6.8970 -2.6430 0.9691
-3.8371 6.3167 -2.6430 0.9691
-4.8963 5.5363 -2.6430 0.9691
-5.3696 5.0785 -2.6430 0.9691
-8.3795 5.4816 -3.5808 0.9584
-9.0803 4.8454 -3.6806 0.9572
-9.7663 4.1413 -3.7935 0.9559
-5.5085 1.7762 -2.0698 0.9757
-5.5014 1.2464 -2.0172 0.9763
-14.5126 1.9518 -5.2365 0.9397
-5.6915 -1.8353 -2.1385 0.9749
-5.5990 -4.4215 -2.5513 0.9701
-5.3696 -5.0785 -2.6430 0.9691
-4.8963 -5.5363 -2.6430 0.9691
-4.3841 -5.9501 -2.6430 0.9691
-2.0319 -7.1060 -2.6430 0.9691
-1.4456 -7.5418 -2.7461 0.9679
-0.7686 -7.6405 -2.7461 0.9679
0.5982 -7.6558 -2.7461 0.9679
1.2773 -7.5721 -2.7461 0.9679
1.9461 -7.4284 -2.7461 0.9679
3.2324 -6.9656 -2.7461 0.9679
3.8395 -6.6503 -2.7461 0.9679
4.4162 -6.2821 -2.7461 0.9679
4.9578 -5.8642 -2.7461 0.9679
5.4601 -5.3996 -2.7461 0.9679
5.9190 -4.8922 -2.7461 0.9679
6.4725 -3.6413 -2.6558 0.9689
6.7380 -3.0360 -2.6428 0.9691
7.3007 -1.1480 -2.6428 0.9691
7.3739 -0.4936 -2.6428 0.9691
7.3885 0.1647 -2.6428 0.9691
7.2423 1.4721 -2.6428 0.9691
6.5960 3.3331 -2.6428 0.9691
6.4630 4.0252 -2.7228 0.9682
6.1311 4.6237 -2.7461 0.9679
5.6952 5.1510 -2.7461 0.9679
4.6917 6.0792 -2.7461 0.9679
4.1320 6.4727 -2.7461 0.9679
3.5395 6.8147 -2.7461 0.9679
2.9189 7.1027 -2.7461 0.9679
2.2751 7.3343 -2.7461 0.9679
-2.3464 7.0085 -2.6430 0.9691
-2.9609 6.7718 -2.6430 0.9691
-5.5905 4.8343 -2.6430 0.9691
-8.0730 5.8105 -3.5570 0.9586
-9.4259 4.5023 -3.7356 0.9566
-10.1142 3.7666 -3.8596 0.9552
-11.0123 3.0166 -4.0832 0.9527
-18.4974 1.6529 -6.6412 0.9241
-18.3772 0.0000 -7.0425 0.9243
-18.5472 -1.6574 -7.1360 0.9233
-5.5977 -4.0290 -2.6430 0.9709
-3.3145 -6.0482 -2.6430 0.9709
-2.7630 -6.3192 -2.6430 0.9709
-1.5988 -6.7090 -2.6430 0.9709
-0.3990 -7.1548 -2.7461 0.9698
2.1231 -6.8442 -2.7461 0.9698
5.3146 -4.8068 -2.7461 0.9698
5.7213 -4.3147 -2.7461 0.9698
6.0827 -3.7883 -2.7461 0.9698
6.3957 -3.2319 -2.7461 0.9698
6.4693 -2.5747 -2.6683 0.9706
6.6092 -1.9697 -2.6428 0.9709
6.7583 -1.3737 -2.6428 0.9709
6.8537 -0.7667 -2.6428 0.9709
6.5149 2.2622 -2.6428 0.9709
6.4630 2.9121 -2.7165 0.9701
6.2454 3.5136 -2.7461 0.9698
5.0952 5.0387 -2.7461 0.9698
4.6265 5.4723 -2.7461 0.9698
4.1211 5.8623 -2.7461 0.9698
3.0164 6.5001 -2.7461 0.9698
0.5583 7.1441 -2.7461 0.9698
-3.0418 6.1899 -2.6430 0.9709
-3.5807 5.8946 -2.6430 0.9709
-4.5691 5.1663 -2.6430 0.9709
-5.4127 4.2744 -2.6430 0.9709
-5.5077 3.6030 -2.5222 0.9722
-8.6345 4.6075 -3.7505 0.9589
-10.0095 3.2276 -4.0303 0.9559
-5.5014 1.2464 -2.1617 0.9761
-5.5975 -3.6617 -2.5633 0.9718
-5.4127 -4.2744 -2.6430 0.9709
-5.0107 -4.7391 -2.6430 0.9709
-4.5691 -5.1663 -2.6430 0.9709
-3.0418 -6.1899 -2.6430 0.9709
-2.4788 -6.4361 -2.6430 0.9709
-1.3490 -7.0378 -2.7461 0.9698
-0.7173 -7.1299 -2.7461 0.9698
1.1919 -7.0661 -2.7461 0.9698
1.8161 -6.9320 -2.7461 0.9698
2.4259 -6.7428 -2.7461 0.9698
5.5235 -4.5653 -2.7461 0.9698
6.2454 -3.5136 -2.7461 0.9698
6.4630 -2.9121 -2.7165 0.9701
6.6904 -1.6734 -2.6428 0.9709
6.8128 -1.0712 -2.6428 0.9709
6.8811 -0.4606 -2.6428 0.9709
6.6092 1.9697 -2.6428 0.9709
6.3957 3.2319 -2.7461 0.9698
6.0827 3.7883 -2.7461 0.9698
5.7213 4.3146 -2.7461 0.9698
5.3146 4.8068 -2.7461 0.9698
4.8657 5.2607 -2.7461 0.9698
3.8558 6.0401 -2.7461 0.9698
3.3029 6.3593 -2.7461 0.9698
2.7238 6.6280 -2.7461 0.9698
1.5055 7.0060 -2.7461 0.9698
0.8759 7.1121 -2.7461 0.9698
-0.3989 7.1548 -2.7461 0.9698
-1.0342 7.0909 -2.7461 0.9698
-1.5988 6.7090 -2.6430 0.9709
-2.1896 6.5401 -2.6430 0.9709
-3.8397 5.7292 -2.6430 0.9709
-4.3344 5.3647 -2.6430 0.9709
-4.7947 4.9577 -2.6430 0.9709
-5.5977 4.0290 -2.6430 0.9709
-8.3083 4.9210 -3.7005 0.9595
-10.4632 2.8662 -4.1574 0.9546
-11.6274 2.0948 -4.5276 0.9506
-17.9685 0.0000 -7.3541 0.9253
-1.6200 -0.2919 -0.6737 0.9929
-1.6035 -0.4392 -0.6804 0.9928
-5.5944 -2.0834 -2.4433 0.9745
-5.5563 -3.2910 -2.6430 0.9725
-5.2413 -3.7725 -2.6430 0.9725
-4.8848 -4.2240 -2.6430 0.9725
-3.5952 -5.3645 -2.6430 0.9725
-2.0502 -6.1237 -2.6430 0.9725
-1.5554 -6.5269 -2.7461 0.9714
-0.3735 -6.6993 -2.7461 0.9714
0.2242 -6.7059 -2.7461 0.9714
1.4096 -6.5599 -2.7461 0.9714
2.5504 -6.2061 -2.7461 0.9714
4.5559 -4.9258 -2.7461 0.9714
4.9762 -4.5007 -2.7461 0.9714
5.9885 -3.0261 -2.7461 0.9714
6.4739 -0.1443 -2.6503 0.9724
6.4727 0.4333 -2.6550 0.9724
6.4665 1.0168 -2.6791 0.9721
6.3384 2.2009 -2.7461 0.9714
6.1174 2.7564 -2.7461 0.9714
5.5317 3.7973 -2.7461 0.9714
5.1718 4.2746 -2.7461 0.9714
4.3320 5.1238 -2.7461 0.9714
2.8243 6.0863 -2.7461 0.9714
1.7005 6.4906 -2.7461 0.9714
1.1160 6.6162 -2.7461 0.9714
-0.0747 6.7093 -2.7461 0.9714
-2.3210 6.0263 -2.6430 0.9725
-2.8481 5.7958 -2.6430 0.9725
-3.3527 5.5193 -2.6430 0.9725
-4.2782 4.8374 -2.6430 0.9725
-4.6917 4.4374 -2.6430 0.9725
-5.4042 3.5353 -2.6430 0.9725
-8.2237 4.3883 -3.8150 0.9605
-1.6146 0.3658 -0.6776 0.9929
-1.6301 0.2192 -0.6732 0.9929
-5.5088 0.2456 -2.2568 0.9764
-1.6301 -0.2192 -0.6732 0.9929
-1.6146 -0.3658 -0.6776 0.9929
-5.5950 -2.3725 -2.4872 0.9741
-5.4042 -3.5352 -2.6430 0.9725
-5.0681 -4.0022 -2.6430 0.9725
-4.6917 -4.4374 -2.6430 0.9725
-3.3527 -5.5193 -2.6430 0.9725
-2.8481 -5.7958 -2.6430 0.9725
-2.3210 -6.0263 -2.6430 0.9725
-1.2631 -6.5897 -2.7461 0.9714
-0.6716 -6.6760 -2.7461 0.9714
2.8243 -6.0863 -2.7461 0.9714
4.7708 -4.7180 -2.7461 0.9714
5.1718 -4.2746 -2.7461 0.9714
5.5317 -3.7973 -2.7461 0.9714
5.8478 -3.2899 -2.7461 0.9714
6.3384 -2.2009 -2.7461 0.9714
6.4630 -1.6165 -2.7266 0.9716
6.4665 -1.0168 -2.6791 0.9721
6.4739 0.1443 -2.6503 0.9724
6.4630 1.3137 -2.6992 0.9719
6.4302 1.9164 -2.7461 0.9714
6.2341 2.4811 -2.7461 0.9714
5.3571 4.0400 -2.7461 0.9714
4.5559 4.9258 -2.7461 0.9714
4.0994 5.3117 -2.7461 0.9714
3.0927 5.9544 -2.7461 0.9714
1.9879 6.4084 -2.7461 0.9714
0.8202 6.6594 -2.7461 0.9714
0.2242 6.7059 -2.7461 0.9714
-0.9683 6.6394 -2.7461 0.9714
-3.5952 5.3644 -2.6430 0.9725
-4.0584 5.0232 -2.6430 0.9725
-5.2413 3.7725 -2.6430 0.9725
-8.5251 4.0721 -3.8667 0.9600
-1.6200 0.2919 -0.6737 0.9929
-1.6390 0.1465 -0.6735 0.9929
-1.5015 -0.2705 -0.6649 0.9934
-5.2179 -3.0906 -2.6430 0.9739
-3.3763 -5.0378 -2.6430 0.9739
-2.9145 -5.3183 -2.6430 0.9739
-0.9094 -6.2351 -2.7461 0.9729
-0.3508 -6.2912 -2.7461 0.9729
0.7702 -6.2538 -2.7461 0.9729
1.3238 -6.1604 -2.7461 0.9729
1.8668 -6.0181 -2.7461 0.9729
2.9043 -5.5918 -2.7461 0.9729
3.3905 -5.3111 -2.7461 0.9729
3.8497 -4.9882 -2.7461 0.9729
4.2784 -4.6258 -2.7461 0.9729
4.6732 -4.2266 -2.7461 0.9729
5.8544 -2.3300 -2.7461 0.9729
6.2995 -0.1404 -2.7461 0.9729
6.2870 0.4209 -2.7461 0.9729
6.2246 0.9788 -2.7461 0.9729
4.0681 4.8118 -2.7461 0.9729
3.1505 5.4569 -2.7461 0.9729
2.6523 5.7156 -2.7461 0.9729
1.5969 6.0953 -2.7461 0.9729
1.0481 6.2133 -2.7461 0.9729
0.4909 6.2819 -2.7461 0.9729
-0.6307 6.2694 -2.7461 0.9729
-2.6747 5.4428 -2.6430 0.9739
-3.1485 5.1831 -2.6430 0.9739
-4.0176 4.5428 -2.6430 0.9739
-4.7594 3.7585 -2.6430 0.9739
-5.0750 3.3199 -2.6430 0.9739
-5.3504 2.8551 -2.6430 0.9739
-1.4861 0.4792 -0.6805 0.9932
-1.5029 0.3405 -0.6716 0.9933
-1.5133 0.2035 -0.6654 0.9934
-1.5259 0.0680 -0.6657 0.9934
-1.5259 -0.0680 -0.6657 0.9934
-5.5833 -2.3675 -2.6430 0.9739
-5.3504 -2.8551 -2.6430 0.9739
-4.4060 -4.1672 -2.6430 0.9739
-3.1485 -5.1832 -2.6430 0.9739
-2.6747 -5.4428 -2.6430 0.9739
-1.6673 -5.8308 -2.6430 0.9739
-0.6307 -6.2694 -2.7461 0.9729
-0.0702 -6.3006 -2.7461 0.9729
0.4909 -6.2819 -2.7461 0.9729
3.6237 -5.1548 -2.7461 0.9729
4.0681 -4.8118 -2.7461 0.9729
5.1948 -3.5661 -2.7461 0.9729
5.4916 -3.0895 -2.7461 0.9729
5.7448 -2.5885 -2.7461 0.9729
6.1127 -1.5289 -2.7461 0.9729
6.2246 -0.9788 -2.7461 0.9729
6.2995 0.1404 -2.7461 0.9729
6.1748 1.2551 -2.7461 0.9729
5.6238 2.8418 -2.7461 0.9729
5.3485 3.3311 -2.7461 0.9729
5.0308 3.7939 -2.7461 0.9729
4.2784 4.6258 -2.7461 0.9729
2.3951 5.8281 -2.7461 0.9729
1.8668 6.0181 -2.7461 0.9729
1.3238 6.1604 -2.7461 0.9729
-0.3508 6.2913 -2.7461 0.9729
-0.9094 6.2351 -2.7461 0.9729
-1.4607 6.1294 -2.7461 0.9729
-2.4296 5.5566 -2.6430 0.9739
-3.8113 4.7173 -2.6430 0.9739
-4.2160 4.3593 -2.6430 0.9739
-4.9221 3.5427 -2.6430 0.9739
-5.2179 3.0906 -2.6430 0.9739
-5.4723 2.6139 -2.6430 0.9739
-8.7238 3.2488 -4.0571 0.9602
-1.5001 0.4109 -0.6779 0.9932
-1.5015 0.2705 -0.6649 0.9934
-1.4219 0.0000 -0.6582 0.9938
-1.3993 -0.2521 -0.6581 0.9938
-1.3946 -0.3820 -0.6693 0.9936
-4.9128 -2.9098 -2.6430 0.9751
-3.9695 -4.1044 -2.6430 0.9751
-3.5884 -4.4414 -2.6430 0.9751
-2.7441 -5.0073 -2.6430 0.9751
-2.2875 -5.2316 -2.6430 0.9751
-1.8128 -5.4145 -2.6430 0.9751
-1.3753 -5.7710 -2.7461 0.9742
0.1982 -5.9293 -2.7461 0.9742
2.7345 -5.2648 -2.7461 0.9742
4.0283 -4.3553 -2.7461 0.9742
4.3999 -3.9795 -2.7461 0.9742
4.7366 -3.5721 -2.7461 0.9742
5.5121 -2.1937 -2.7461 0.9742
5.6854 -1.6945 -2.7461 0.9742
5.9193 0.3962 -2.7461 0.9742
5.8606 0.9215 -2.7461 0.9742
5.4089 2.4371 -2.7461 0.9742
4.8911 3.3575 -2.7461 0.9742
2.4972 5.3814 -2.7461 0.9742
0.9868 5.8499 -2.7461 0.9742
-0.0661 5.9322 -2.7461 0.9742
-2.9644 4.8801 -2.6430 0.9751
-3.3870 4.5968 -2.6430 0.9751
-4.1484 3.9235 -2.6430 0.9751
-5.2568 2.2291 -2.6430 0.9751
-1.4099 -0.1896 -0.6585 0.9937
-1.3967 -0.3165 -0.6629 0.9937
-5.2568 -2.2291 -2.6430 0.9751
-2.5183 -5.1245 -2.6430 0.9751
-2.0522 -5.3283 -2.6430 0.9751
-1.1168 -5.8265 -2.7461 0.9742
-0.5938 -5.9028 -2.7461 0.9742
-0.0661 -5.9322 -2.7461 0.9742
0.9868 -5.8499 -2.7461 0.9742
1.5035 -5.7389 -2.7461 0.9742
2.0083 -5.5823 -2.7461 0.9742
2.4972 -5.3814 -2.7461 0.9742
4.2183 -4.1715 -2.7461 0.9742
4.5728 -3.7795 -2.7461 0.9742
4.8911 -3.3575 -2.7461 0.9742
5.1705 -2.9088 -2.7461 0.9742
5.6043 -1.9460 -2.7461 0.9742
5.8606 -0.9215 -2.7461 0.9742
5.9193 -0.3962 -2.7461 0.9742
5.9311 0.1322 -2.7461 0.9742
5.8137 1.1817 -2.7461 0.9742
5.0358 3.1363 -2.7461 0.9742
4.7366 3.5721 -2.7461 0.9742
4.0283 4.3553 -2.7461 0.9742
3.1922 5.0005 -2.7461 0.9742
2.7345 5.2648 -2.7461 0.9742
2.2550 5.4873 -2.7461 0.9742
1.7577 5.6662 -2.7461 0.9742
1.2464 5.8002 -2.7461 0.9742
-0.3303 5.9234 -2.7461 0.9742
-0.8562 5.8705 -2.7461 0.9742
-1.3753 5.7710 -2.7461 0.9742
-1.8128 5.4145 -2.6430 0.9751
-3.5884 4.4414 -2.6430 0.9751
-3.9695 4.1044 -2.6430 0.9751
-4.6343 3.3355 -2.6430 0.9751
-5.1523 2.4610 -2.6430 0.9751
-5.3509 1.9927 -2.6430 0.9751
-1.3317 -0.1190 -0.6558 0.9941
-1.3061 -0.3578 -0.6643 0.9940
-1.2931 -0.4815 -0.6768 0.9939
-4.6360 -2.7459 -2.6430 0.9763
-4.0757 -3.5244 -2.6430 0.9763
-3.7458 -3.8731 -2.6430 0.9763
-3.3862 -4.1912 -2.6430 0.9763
-2.9997 -4.4759 -2.6430 0.9763
-2.5894 -4.7251 -2.6430 0.9763
-2.1586 -4.9368 -2.6430 0.9763
-1.7106 -5.1094 -2.6430 0.9763
-0.3117 -5.5896 -2.7461 0.9754
0.1871 -5.5952 -2.7461 0.9754
1.1762 -5.4734 -2.7461 0.9754
1.6586 -5.3470 -2.7461 0.9754
3.0124 -4.7188 -2.7461 0.9754
4.7520 -2.9596 -2.7461 0.9754
5.4861 -1.1151 -2.7461 0.9754
5.5969 -0.1247 -2.7461 0.9754
5.4310 1.3584 -2.7461 0.9754
5.1041 2.2998 -2.7461 0.9754
4.6155 3.1683 -2.7461 0.9754
3.9806 3.9365 -2.7461 0.9754
2.7992 4.8483 -2.7461 0.9754
1.8952 5.2678 -2.7461 0.9754
1.4188 5.4155 -2.7461 0.9754
0.9312 5.5203 -2.7461 0.9754
0.4361 5.5813 -2.7461 0.9754
-1.9365 5.0281 -2.6430 0.9763
-2.3764 4.8358 -2.6430 0.9763
-3.9146 3.7024 -2.6430 0.9763
-4.9606 2.1035 -2.6430 0.9763
-1.3003 0.4193 -0.6702 0.9939
-1.3355 0.0596 -0.6558 0.9941
-1.3355 -0.0596 -0.6558 0.9941
-1.3003 -0.4193 -0.6702 0.9939
-4.5090 -2.9497 -2.6430 0.9763
-4.2286 -3.3393 -2.6430 0.9763
-3.5695 -4.0361 -2.6430 0.9763
-3.1961 -4.3378 -2.6430 0.9763
-2.7974 -4.6051 -2.6430 0.9763
-2.3764 -4.8358 -2.6430 0.9763
-1.9365 -5.0281 -2.6430 0.9763
-1.5391 -5.3826 -2.7461 0.9754
-1.0539 -5.4982 -2.7461 0.9754
-0.5604 -5.5702 -2.7461 0.9754
-0.0624 -5.5979 -2.7461 0.9754
2.7992 -4.8483 -2.7461 0.9754
3.6144 -4.2752 -2.7461 0.9754
3.9806 -3.9365 -2.7461 0.9754
4.6155 -3.1684 -2.7461 0.9754
5.1041 -2.2998 -2.7461 0.9754
5.2885 -1.8364 -2.7461 0.9754
5.4310 -1.3584 -2.7461 0.9754
5.5304 -0.8696 -2.7461 0.9754
5.5858 -0.3739 -2.7461 0.9754
5.5969 0.1247 -2.7461 0.9754
5.4861 1.1151 -2.7461 0.9754
5.2015 2.0702 -2.7461 0.9754
4.9966 2.5249 -2.7461 0.9754
4.7520 2.9596 -2.7461 0.9754
3.8013 4.1099 -2.7461 0.9754
3.4204 4.4319 -2.7461 0.9754
3.0124 4.7188 -2.7461 0.9754
2.5804 4.9682 -2.7461 0.9754
2.1280 5.1781 -2.7461 0.9754
1.6586 5.3470 -2.7461 0.9754
1.1762 5.4734 -2.7461 0.9754
-0.3117 5.5896 -2.7461 0.9754
-1.2978 5.4458 -2.7461 0.9754
-2.5894 4.7251 -2.6430 0.9763
-2.9997 4.4759 -2.6430 0.9763
-3.3862 4.1912 -2.6430 0.9763
-4.0757 3.5244 -2.6430 0.9763
-4.3732 3.1476 -2.6430 0.9763
-4.6360 2.7459 -2.6430 0.9763
-4.8620 2.3224 -2.6430 0.9763
-1.2931 0.4815 -0.6768 0.9939
-1.3159 0.2371 -0.6559 0.9941
-1.3317 0.1190 -0.6558 0.9941
-1.2576 -0.1124 -0.6550 0.9943
-1.2162 -0.4529 -0.6733 0.9942
-4.5972 -2.1959 -2.6430 0.9773
-4.3835 -2.5963 -2.6430 0.9773
-4.1350 -2.9762 -2.6430 0.9773
-3.8537 -3.3324 -2.6430 0.9773
-3.2018 -3.9629 -2.6430 0.9773
-2.8363 -4.2321 -2.6430 0.9773
-1.2271 -5.1492 -2.7461 0.9764
-0.2947 -5.2852 -2.7461 0.9764
0.1769 -5.2904 -2.7461 0.9764
0.6471 -5.2537 -2.7461 0.9764
1.1121 -5.1753 -2.7461 0.9764
2.8483 -4.4618 -2.7461 0.9764
4.2263 -3.1872 -2.7461 0.9764
4.9182 -1.9574 -2.7461 0.9764
5.1873 -1.0544 -2.7461 0.9764
5.2606 -0.5885 -2.7461 0.9764
5.2816 0.3536 -2.7461 0.9764
5.1352 1.2844 -2.7461 0.9764
5.0005 1.7364 -2.7461 0.9764
4.6134 2.5955 -2.7461 0.9764
3.7638 3.7221 -2.7461 0.9764
3.0442 4.3304 -2.7461 0.9764
2.2282 4.8016 -2.7461 0.9764
1.7920 4.9808 -2.7461 0.9764
0.8804 5.2196 -2.7461 0.9764
-0.0590 5.2930 -2.7461 0.9764
-0.9965 5.1988 -2.7461 0.9764
-1.4553 5.0894 -2.7461 0.9764
-1.8311 4.7543 -2.6430 0.9773
-2.6450 4.3543 -2.6430 0.9773
-3.3751 3.8163 -2.6430 0.9773
-3.9983 3.1574 -2.6430 0.9773
-1.2613 0.0562 -0.6550 0.9943
-1.2613 -0.0562 -0.6550 0.9943
-1.2514 -0.1683 -0.6551 0.9943
-4.6904 -1.9889 -2.6430 0.9773
-4.2635 -2.7890 -2.6430 0.9773
-3.9983 -3.1574 -2.6430 0.9773
-3.7014 -3.5007 -2.6430 0.9773
-0.9965 -5.1988 -2.7461 0.9764
0.4124 -5.2773 -2.7461 0.9764
1.3415 -5.1206 -2.7461 0.9764
1.7920 -4.9808 -2.7461 0.9764
2.6467 -4.5842 -2.7461 0.9764
3.4176 -4.0423 -2.7461 0.9764
4.0801 -3.3723 -2.7461 0.9764
4.6134 -2.5955 -2.7461 0.9764
5.2291 -0.8222 -2.7461 0.9764
5.2816 -0.3536 -2.7461 0.9764
5.2606 0.5885 -2.7461 0.9764
4.4932 2.7984 -2.7461 0.9764
4.2263 3.1872 -2.7461 0.9764
3.9259 3.5507 -2.7461 0.9764
2.8483 4.4618 -2.7461 0.9764
0.6471 5.2537 -2.7461 0.9764
-0.2947 5.2852 -2.7461 0.9764
-0.7639 5.2380 -2.7461 0.9764
-1.2271 5.1492 -2.7461 0.9764
-2.1089 3.1467 -1.9651 0.9831
-3.8537 3.3324 -2.6430 0.9773
-4.1350 2.9762 -2.6430 0.9773
-4.3835 2.5963 -2.6430 0.9773
-1.2162 0.4529 -0.6733 0.9942
-1.2283 0.3365 -0.6607 0.9943
-1.1944 0.0000 -0.6542 0.9946
-1.1756 -0.2118 -0.6543 0.9946
-1.1577 -0.3171 -0.6575 0.9945
-4.1520 -2.4592 -2.6430 0.9782
-3.9166 -2.8190 -2.6430 0.9782
-3.6502 -3.1564 -2.6430 0.9782
-3.0327 -3.7536 -2.6430 0.9782
-2.0439 -3.0497 -2.0107 0.9834
-2.3191 -4.2318 -2.6430 0.9782
-1.9332 -4.4214 -2.6430 0.9782
-0.7236 -4.9614 -2.7461 0.9774
-0.2791 -5.0061 -2.7461 0.9774
0.1675 -5.0110 -2.7461 0.9774
1.0534 -4.9020 -2.7461 0.9774
1.9058 -4.6375 -2.7461 0.9774
3.4044 -3.6808 -2.7461 0.9774
4.4750 -2.2613 -2.7461 0.9774
4.8050 -1.4321 -2.7461 0.9774
4.9134 -0.9987 -2.7461 0.9774
5.0126 -0.1117 -2.7461 0.9774
5.0026 0.3349 -2.7461 0.9774
4.8640 1.2166 -2.7461 0.9774
4.7364 1.6447 -2.7461 0.9774
4.5712 2.0597 -2.7461 0.9774
4.1336 2.8376 -2.7461 0.9774
3.8647 3.1942 -2.7461 0.9774
2.5069 4.3421 -2.7461 0.9774
0.3906 4.9986 -2.7461 0.9774
-2.1283 4.3309 -2.6430 0.9782
-3.5059 3.3159 -2.6430 0.9782
-3.7871 2.9907 -2.6430 0.9782
-1.1649 0.2639 -0.6542 0.9946
-1.1933 -0.0532 -0.6542 0.9946
-1.1515 -0.3713 -0.6626 0.9945
-1.1411 -0.4838 -0.6788 0.9944
-4.0383 -2.6417 -2.6430 0.9782
-3.7871 -2.9907 -2.6430 0.9782
-3.5059 -3.3159 -2.6430 0.9782
-2.5053 -4.1243 -2.6430 0.9782
-2.1283 -4.3309 -2.6430 0.9782
-1.7344 -4.5032 -2.6430 0.9782
-1.3784 -4.8207 -2.7461 0.9774
-0.0559 -5.0135 -2.7461 0.9774
1.2707 -4.8502 -2.7461 0.9774
1.6973 -4.7178 -2.7461 0.9774
2.8834 -4.1018 -2.7461 0.9774
3.2371 -3.8288 -2.7461 0.9774
4.1336 -2.8376 -2.7461 0.9774
4.3698 -2.4584 -2.7461 0.9774
4.5712 -2.0597 -2.7461 0.9774
4.7364 -1.6447 -2.7461 0.9774
5.0026 -0.3349 -2.7461 0.9774
5.0126 0.1117 -2.7461 0.9774
4.9134 0.9987 -2.7461 0.9774
4.8050 1.4320 -2.7461 0.9774
4.4750 2.2613 -2.7461 0.9774
4.2559 2.6506 -2.7461 0.9774
4.0031 3.0189 -2.7461 0.9774
3.0633 3.9692 -2.7461 0.9774
2.3110 4.4495 -2.7461 0.9774
1.9058 4.6375 -2.7461 0.9774
1.4855 4.7887 -2.7461 0.9774
-0.2791 5.0061 -2.7461 0.9774
-0.7236 4.9614 -2.7461 0.9774
-1.1623 4.8772 -2.7461 0.9774
-1.5829 4.7280 -2.7308 0.9775
-1.9332 4.4214 -2.6430 0.9782
-3.0327 3.7536 -2.6430 0.9782
-3.6502 3.1564 -2.6430 0.9782
-3.9166 2.8190 -2.6430 0.9782
-1.1899 0.1063 -0.6543 0.9946
-1.1276 -0.1008 -0.6536 0.9948
-1.1141 -0.2007 -0.6536 0.9948
-1.0934 -0.2995 -0.6545 0.9948
-1.0827 -0.4032 -0.6671 0.9947
-4.1308 -1.9731 -2.6430 0.9791
-3.7155 -2.6743 -2.6430 0.9791
-3.1825 -3.2906 -2.6430 0.9791
-2.2000 -4.0145 -2.6430 0.9791
-1.8340 -4.1944 -2.6430 0.9791
-1.5101 -4.5103 -2.7461 0.9783
-0.6864 -4.7066 -2.7461 0.9783
-0.2648 -4.7490 -2.7461 0.9783
0.9993 -4.6502 -2.7461 0.9783
2.1923 -4.2210 -2.7461 0.9783
2.5593 -4.0091 -2.7461 0.9783
2.9060 -3.7654 -2.7461 0.9783
3.2296 -3.4918 -2.7461 0.9783
3.5276 -3.1905 -2.7461 0.9783
4.0374 -2.5145 -2.7461 0.9783
4.4192 -1.7588 -2.7461 0.9783
4.5583 -1.3585 -2.7461 0.9783
4.6611 -0.9474 -2.7461 0.9783
4.7269 -0.5288 -2.7461 0.9783
4.7552 -0.1060 -2.7461 0.9783
4.4932 1.5602 -2.7461 0.9783
4.3365 1.9539 -2.7461 0.9783
4.1454 2.3321 -2.7461 0.9783
3.6662 3.0302 -2.7461 0.9783
3.3820 3.3445 -2.7461 0.9783
3.0709 3.6322 -2.7461 0.9783
2.3782 4.1192 -2.7461 0.9783
2.0021 4.3145 -2.7461 0.9783
1.6102 4.4755 -2.7461 0.9783
1.2054 4.6011 -2.7461 0.9783
0.7911 4.6901 -2.7461 0.9783
0.3705 4.7419 -2.7461 0.9783
-0.0530 4.7561 -2.7461 0.9783
-0.4761 4.7325 -2.7461 0.9783
-0.8954 4.6713 -2.7461 0.9783
-1.6453 4.2719 -2.6430 0.9791
-2.3767 3.9125 -2.6430 0.9791
-2.1793 2.9578 -2.1211 0.9832
-3.3259 3.1456 -2.6430 0.9791
-4.0388 2.1552 -2.6430 0.9791
-1.1220 0.1509 -0.6536 0.9948
-1.1309 -0.0504 -0.6536 0.9948
-1.1220 -0.1509 -0.6536 0.9948
-1.0769 -0.4566 -0.6753 0.9946
-3.8309 -2.5061 -2.6430 0.9791
-3.5927 -2.8371 -2.6430 0.9791
-3.3259 -3.1456 -2.6430 0.9791
-3.0327 -3.4291 -2.6430 0.9791
-1.6453 -4.2720 -2.6430 0.9791
0.3705 -4.7419 -2.7461 0.9783
2.3782 -4.1192 -2.7461 0.9783
3.6662 -3.0302 -2.7461 0.9783
4.1454 -2.3321 -2.7461 0.9783
4.3365 -1.9539 -2.7461 0.9783
4.4932 -1.5602 -2.7461 0.9783
4.6142 -1.1541 -2.7461 0.9783
4.6987 -0.7388 -2.7461 0.9783
4.7552 0.1060 -2.7461 0.9783
4.7269 0.5288 -2.7461 0.9783
4.4192 1.7588 -2.7461 0.9783
4.2452 2.1452 -2.7461 0.9783
4.0374 2.5145 -2.7461 0.9783
3.7976 2.8639 -2.7461 0.9783
3.5276 3.1905 -2.7461 0.9783
2.9060 3.7654 -2.7461 0.9783
2.5593 4.0091 -2.7461 0.9783
2.1923 4.2210 -2.7461 0.9783
1.8079 4.3994 -2.7461 0.9783
0.9993 4.6502 -2.7461 0.9783
-0.2648 4.7490 -2.7461 0.9783
-1.5101 4.5103 -2.7461 0.9783
-2.0381 3.0410 -2.1136 0.9832
-2.8770 3.5608 -2.6430 0.9791
-3.1825 3.2907 -2.6430 0.9791
-3.7155 2.6743 -2.6430 0.9791
-3.9388 2.3329 -2.6430 0.9791
-4.1308 1.9731 -2.6430 0.9791
-1.0934 0.2995 -0.6545 0.9948
-1.1276 0.1008 -0.6536 0.9948
