ply
format ascii 1.0
element vertex 1403
property float32 x
property float32 y
property float32 z
property float32 I
end_header
7.0664 -15.2277 2.9601 0.9341
12.0285 15.5858 3.0160 0.9234
12.0285 15.5858 2.5637 0.9237
7.0653 -15.2253 1.8024 0.9347
12.0285 15.5858 2.1141 0.9239
11.4502 16.2882 1.6854 0.9232
7.0644 -15.2234 1.0407 0.9350
12.0353 15.5945 1.2215 0.9241
17.9263 0.3995 0.7070 0.9307
12.0353 15.5945 0.7767 0.9242
17.7860 -0.3963 0.3005 0.9313
-18.7730 6.0535 0.3332 0.9241
7.0629 -15.2202 0.2834 0.9351
17.6476 -1.1814 0.2988 0.9317
-18.6299 6.9378 0.3358 0.9235
17.7860 -0.3963 -0.1002 0.9313
18.1395 1.2143 -0.1024 0.9299
11.4575 16.2986 -0.1122 0.9234
-18.5791 5.9910 -0.1099 0.9249
-18.4169 6.8585 -0.1107 0.9244
11.4575 16.2986 -0.5610 0.9234
-18.3606 5.9205 -0.5432 0.9257
7.0614 -15.2170 -0.4724 0.9351
17.9263 0.3995 -0.5049 0.9308
-18.2262 6.7875 -0.5476 0.9251
17.7860 -0.3963 -0.9022 0.9312
17.6476 -1.1814 -0.8970 0.9316
17.9263 0.3995 -0.9093 0.9307
12.0353 15.5945 -0.9990 0.9241
17.7860 -0.3964 -1.3044 0.9311
-9.3002 15.3102 -1.3135 0.9307
-10.2568 13.9206 -1.2678 0.9330
-12.6192 11.9351 -1.2736 0.9327
-15.3005 10.0091 -1.3406 0.9293
-17.8340 7.5622 -1.4203 0.9252
-17.9753 5.7963 -1.3848 0.9270
7.0599 -15.2137 -1.2298 0.9349
17.6476 -1.1814 -1.2969 0.9315
17.9263 0.3995 -1.3147 0.9306
-10.9798 13.5898 -1.2810 0.9323
-13.3630 11.5554 -1.2953 0.9316
-5.6236 -16.7968 -1.7006 0.9313
10.4619 -16.3884 -1.8666 0.9248
10.4681 -13.5639 -1.6449 0.9335
-8.6345 17.5707 -1.8796 0.9243
-8.9213 14.6865 -1.6497 0.9333
-9.7298 13.2054 -1.5748 0.9362
-11.9207 11.2745 -1.5752 0.9362
-14.5967 9.5487 -1.6746 0.9323
-16.7998 8.9646 -1.8281 0.9263
-18.0210 7.6415 -1.8792 0.9244
10.4649 -14.8866 -1.7470 0.9295
10.6173 -12.5582 -1.5788 0.9361
-9.0534 13.5086 -1.5612 0.9367
-10.5715 13.0845 -1.6149 0.9346
-12.8848 11.1419 -1.6354 0.9338
-15.3616 9.0987 -1.7141 0.9308
-17.6005 8.4070 -1.8726 0.9246
-17.4650 6.5040 -1.7892 0.9278
10.4720 -11.3222 -1.8320 0.9398
10.5261 -7.9381 -1.5661 0.9483
10.5356 -3.1400 -1.3059 0.9567
17.7860 -0.3963 -2.1133 0.9308
-8.5706 14.1092 -1.9610 0.9357
-9.3879 12.7414 -1.8800 0.9382
-10.4752 11.8445 -1.8782 0.9383
-11.5169 10.8926 -1.8830 0.9381
-13.0419 10.2990 -1.9740 0.9353
-17.6066 5.6774 -2.1975 0.9282
-5.6192 -14.5899 -1.8572 0.9390
10.4739 -10.3579 -1.7498 0.9424
10.5346 -3.6580 -1.3247 0.9561
17.9290 0.3996 -2.1302 0.9303
-10.7480 11.1133 -1.8365 0.9396
-13.7395 9.8891 -2.0108 0.9341
-17.3420 6.4582 -2.1982 0.9282
-5.6106 -10.2380 -1.6542 0.9539
-5.6157 -12.8435 -1.9861 0.9449
-5.3788 -16.0658 -2.4005 0.9338
-3.9276 -16.4808 -2.4005 0.9338
2.1599 -17.5373 -2.5036 0.9311
3.7123 -17.2755 -2.5036 0.9311
5.2351 -16.8765 -2.5036 0.9311
7.8086 -15.0342 -2.4004 0.9338
10.4720 -11.3222 -2.1852 0.9396
10.4757 -9.4747 -2.0013 0.9445
10.4815 -6.5280 -1.7496 0.9513
10.4840 -5.2978 -1.6644 0.9537
10.6949 -4.2565 -1.6310 0.9546
17.1014 -0.3811 -2.4237 0.9332
17.0674 1.1425 -2.4237 0.9332
16.1592 5.6111 -2.4237 0.9332
13.1850 10.8977 -2.4237 0.9332
11.0439 13.0628 -2.4237 0.9332
5.9818 16.6265 -2.5036 0.9311
2.9390 17.4237 -2.5036 0.9311
-1.6958 16.8572 -2.4005 0.9338
-3.1895 16.6394 -2.4005 0.9338
-7.8903 16.0562 -2.5348 0.9303
-8.2431 13.5700 -2.2497 0.9379
-9.1068 12.3599 -2.1753 0.9399
-11.1462 10.5420 -2.1738 0.9399
-17.4678 7.4070 -2.6883 0.9262
-5.9047 -9.7205 -1.6115 0.9551
-5.6129 -11.4220 -1.8032 0.9499
-4.6578 -16.2895 -2.4005 0.9338
-0.1968 -17.6687 -2.5036 0.9311
5.9817 -16.6266 -2.5036 0.9311
7.1311 -15.3671 -2.4004 0.9338
10.4699 -12.3838 -2.2977 0.9366
10.4773 -8.6597 -1.9260 0.9466
10.5366 -2.6354 -1.5389 0.9571
17.0675 -1.1425 -2.4237 0.9332
17.1014 0.3811 -2.4237 0.9332
16.9996 1.9017 -2.4237 0.9332
16.7629 3.4072 -2.4237 0.9332
16.3931 4.8856 -2.4237 0.9332
12.6864 11.4742 -2.4237 0.9332
11.6148 12.5578 -2.4237 0.9332
9.1157 14.2795 -2.4004 0.9338
7.8086 15.0342 -2.4004 0.9338
3.7123 17.2755 -2.5036 0.9311
2.1599 17.5373 -2.5036 0.9311
-0.9837 17.6425 -2.5036 0.9311
-5.5240 12.6338 -1.9537 0.9458
-8.0701 14.7261 -2.3793 0.9344
-9.8349 12.1728 -2.2173 0.9387
-10.4105 10.7644 -2.1218 0.9413
-13.0962 9.4261 -2.2863 0.9369
-16.7924 8.0211 -2.6368 0.9276
-17.2437 6.4216 -2.6072 0.9284
-5.6493 -5.8413 -1.3387 0.9676
-5.6069 -8.3660 -1.6591 0.9600
-4.6263 -13.8179 -2.4005 0.9426
-0.8461 -15.1740 -2.5036 0.9402
0.5078 -15.1891 -2.5036 0.9402
3.1929 -14.8584 -2.5036 0.9402
4.5027 -14.5152 -2.5036 0.9402
5.7767 -14.0569 -2.5036 0.9402
6.7160 -12.9307 -2.4004 0.9426
7.8403 -12.2816 -2.4004 0.9426
8.9023 -11.5350 -2.4004 0.9426
9.8936 -10.6969 -2.4004 0.9426
10.4757 -9.4747 -2.3269 0.9443
10.4788 -7.9024 -2.1621 0.9482
10.4815 -6.5280 -2.0342 0.9512
10.4840 -5.2978 -1.9351 0.9535
10.4862 -4.1734 -1.8593 0.9553
10.4902 -2.1322 -1.7635 0.9575
14.6211 -1.6356 -2.4237 0.9421
14.6794 0.9827 -2.4237 0.9421
13.8982 4.8260 -2.4237 0.9421
13.4135 6.0438 -2.4237 0.9421
12.8224 7.2137 -2.4237 0.9421
12.1294 8.3263 -2.4237 0.9421
10.3603 10.2455 -2.4004 0.9426
9.4073 11.1270 -2.4004 0.9426
8.3796 11.9202 -2.4004 0.9426
7.2854 12.6187 -2.4004 0.9426
6.3972 13.7855 -2.5036 0.9402
3.8516 14.7014 -2.5036 0.9402
-0.1693 15.1966 -2.5036 0.9402
-5.2372 13.5981 -2.4005 0.9426
-7.9295 13.0537 -2.5161 0.9400
-8.8449 12.0044 -2.4564 0.9413
-12.2107 9.6427 -2.5632 0.9389
-14.7656 7.8792 -2.7571 0.9344
-17.3928 5.6085 -3.0106 0.9286
-5.6483 -5.3421 -1.2807 0.9690
-5.6129 -11.4220 -2.0966 0.9497
-5.2372 -13.5981 -2.4005 0.9426
-2.7432 -14.3112 -2.4005 0.9426
-1.5212 -15.1212 -2.5036 0.9402
1.1839 -15.1513 -2.5036 0.9402
3.8516 -14.7014 -2.5036 0.9402
6.3972 -13.7855 -2.5036 0.9402
9.4073 -11.1270 -2.4004 0.9426
10.3603 -10.2455 -2.4004 0.9426
10.4802 -7.1943 -2.0941 0.9498
10.4851 -4.7244 -1.8945 0.9544
10.4872 -3.6416 -1.8289 0.9560
14.6794 -0.9827 -2.4237 0.9421
14.6211 1.6356 -2.4237 0.9421
14.0994 4.2021 -2.4237 0.9421
13.1310 6.6354 -2.4237 0.9421
12.4883 7.7778 -2.4237 0.9421
11.7465 8.8584 -2.4237 0.9421
10.9114 9.8688 -2.4237 0.9421
9.8936 10.6969 -2.4004 0.9426
8.9023 11.5350 -2.4004 0.9426
6.7160 12.9307 -2.4004 0.9426
-0.8461 15.1740 -2.5036 0.9402
-2.1030 14.4192 -2.4005 0.9426
-7.3353 16.7763 -3.0164 0.9285
-7.7517 14.1450 -2.6572 0.9367
-9.4920 11.7483 -2.4882 0.9406
-10.0917 10.4348 -2.3914 0.9428
-12.4939 8.9926 -2.5359 0.9395
-13.7591 8.1495 -2.6344 0.9372
-16.0632 7.6727 -2.9326 0.9304
-17.0060 6.3331 -2.9895 0.9291
-18.9914 5.2023 -3.2439 0.9233
-5.1165 -11.7018 -2.4005 0.9493
-4.0547 -12.1108 -2.4005 0.9493
0.4451 -13.3125 -2.5036 0.9472
1.6282 -13.2201 -2.5036 0.9472
2.7984 -13.0227 -2.5036 0.9472
5.0630 -12.3202 -2.5036 0.9472
6.1395 -11.8206 -2.5036 0.9472
6.8717 -10.7643 -2.4004 0.9494
7.8024 -10.1099 -2.4004 0.9494
8.6713 -9.3754 -2.4004 0.9494
9.4714 -8.5663 -2.4004 0.9494
10.1962 -7.6894 -2.4004 0.9494
10.4902 -2.1322 -2.0121 0.9574
12.8147 -1.4336 -2.4237 0.9489
12.8914 -0.2873 -2.4237 0.9489
12.7381 2.0030 -2.4237 0.9489
11.7564 5.2972 -2.4237 0.9489
11.2382 6.3225 -2.4237 0.9489
10.6309 7.2977 -2.4237 0.9489
9.8436 8.1359 -2.4004 0.9494
8.2451 9.7523 -2.4004 0.9494
7.3443 10.4475 -2.4004 0.9494
6.4678 11.2026 -2.4314 0.9487
2.2155 13.1344 -2.5036 0.9472
-0.1484 13.3191 -2.5036 0.9472
-2.4043 12.5431 -2.4005 0.9493
-3.5112 12.2794 -2.4005 0.9493
-8.5959 11.6664 -2.7238 0.9427
-5.5005 6.2195 -1.5606 0.9668
-12.4376 8.1363 -2.7936 0.9413
-14.1875 7.5707 -3.0226 0.9366
-15.3413 6.5053 -3.1321 0.9344
-17.1887 5.5426 -3.3946 0.9291
-5.6483 -5.3421 -1.4613 0.9689
-5.6320 -6.3682 -1.5979 0.9660
-5.6054 -7.6077 -1.7762 0.9623
-5.6129 -11.4220 -2.3921 0.9495
-3.5112 -12.2794 -2.4005 0.9493
-2.4043 -12.5431 -2.4005 0.9493
-1.3333 -13.2531 -2.5036 0.9472
2.2155 -13.1344 -2.5036 0.9472
5.6068 -12.0824 -2.5036 0.9472
7.3443 -10.4475 -2.4004 0.9494
8.2451 -9.7523 -2.4004 0.9494
10.4828 -5.8975 -2.2608 0.9522
10.4872 -3.6416 -2.0866 0.9558
12.8658 -0.8613 -2.4237 0.9489
12.8147 1.4335 -2.4237 0.9489
12.6363 2.5684 -2.4237 0.9489
12.3575 3.6829 -2.4237 0.9489
10.9454 6.8169 -2.4237 0.9489
8.6713 9.3754 -2.4004 0.9494
7.8025 10.1099 -2.4004 0.9494
2.7984 13.0227 -2.5036 0.9472
1.6282 13.2201 -2.5036 0.9472
0.4451 13.3125 -2.5036 0.9472
-0.7416 13.2993 -2.5036 0.9472
-1.8432 12.6378 -2.4005 0.9493
-2.9607 12.4236 -2.4005 0.9493
-5.1165 11.7018 -2.4005 0.9493
-8.9975 11.1363 -2.6910 0.9434
-9.7897 10.1224 -2.6469 0.9443
-11.2395 9.7192 -2.7929 0.9413
-11.9407 8.5944 -2.7653 0.9419
-13.2851 7.8688 -2.9022 0.9391
-15.9771 5.9499 -3.2045 0.9330
-5.6751 -4.9075 -1.5859 0.9698
-5.6017 -5.7922 -1.7033 0.9676
-5.6040 -6.9362 -1.8849 0.9642
-4.5497 -10.4054 -2.4005 0.9546
-3.6055 -10.7690 -2.4005 0.9546
-2.6327 -11.0471 -2.4005 0.9546
-0.6594 -11.8259 -2.5036 0.9527
0.3958 -11.8376 -2.5036 0.9527
1.4478 -11.7554 -2.5036 0.9527
4.5021 -10.9552 -2.5036 0.9527
5.4593 -10.5110 -2.5036 0.9527
6.9380 -8.9898 -2.4004 0.9546
7.7106 -8.3366 -2.4004 0.9546
8.4220 -7.6173 -2.4004 0.9546
9.6392 -6.0033 -2.4004 0.9546
10.1352 -5.1216 -2.4004 0.9546
10.4862 -4.1734 -2.3857 0.9549
10.4902 -2.1322 -2.2628 0.9572
11.3949 -1.2747 -2.4237 0.9542
11.4404 0.7658 -2.4237 0.9542
10.8316 3.7611 -2.4237 0.9542
10.3533 4.6650 -2.4004 0.9546
7.3316 8.6718 -2.4004 0.9546
6.5307 9.2900 -2.4004 0.9546
4.0096 11.1449 -2.5036 0.9527
3.0017 11.4575 -2.5036 0.9527
0.9227 11.8082 -2.5036 0.9527
-1.1855 11.7847 -2.5036 0.9527
-2.1379 11.1535 -2.4005 0.9546
-4.0816 10.5977 -2.4005 0.9546
-7.3626 12.1205 -2.9977 0.9437
-8.0586 10.9372 -2.8717 0.9460
-11.7954 7.7162 -2.9794 0.9440
-12.8706 6.8680 -3.0837 0.9421
-15.5508 5.0145 -3.4538 0.9354
-5.6092 -5.3051 -1.6320 0.9689
-5.6028 -6.3352 -1.7877 0.9660
-5.0087 -10.1923 -2.4005 0.9546
-3.1222 -10.9189 -2.4005 0.9546
-2.1380 -11.1535 -2.4005 0.9546
-1.1856 -11.7847 -2.5036 0.9527
-0.1319 -11.8435 -2.5036 0.9527
0.9227 -11.8082 -2.5036 0.9527
4.0096 -11.1449 -2.5036 0.9527
5.9221 -10.2574 -2.5036 0.9527
6.5307 -9.2900 -2.4004 0.9546
7.3316 -8.6718 -2.4004 0.9546
9.8970 -5.5680 -2.4004 0.9546
11.3269 -1.7811 -2.4237 0.9542
11.3949 1.2747 -2.4237 0.9542
10.9884 3.2749 -2.4237 0.9542
10.1352 5.1216 -2.4004 0.9546
9.0666 6.8374 -2.4004 0.9546
8.4220 7.6173 -2.4004 0.9546
6.9380 8.9898 -2.4004 0.9546
6.3732 9.9834 -2.5036 0.9527
5.4593 10.5110 -2.5036 0.9527
4.5021 10.9552 -2.5036 0.9527
2.4884 11.5799 -2.5036 0.9527
-0.6594 11.8259 -2.5036 0.9527
-1.6390 11.2376 -2.4005 0.9546
-2.6327 11.0471 -2.4005 0.9546
-5.4577 9.9591 -2.4005 0.9546
-7.7426 11.5528 -2.9397 0.9447
-9.5028 9.8258 -2.8894 0.9456
-10.5612 9.1326 -2.9513 0.9445
-13.3077 6.3566 -3.1174 0.9415
-17.5804 4.8158 -3.8530 0.9282
-5.6017 -5.7922 -1.8938 0.9674
-5.6040 -6.9362 -2.0957 0.9640
-5.6069 -8.3660 -2.3669 0.9595
-2.3678 -9.9358 -2.4005 0.9589
-1.5374 -10.5412 -2.5036 0.9572
-0.5931 -10.6362 -2.5036 0.9572
0.3560 -10.6468 -2.5036 0.9572
1.3022 -10.5728 -2.5036 0.9572
2.2380 -10.4150 -2.5036 0.9572
4.9101 -9.4536 -2.5036 0.9572
6.4630 -8.3743 -2.4861 0.9575
6.9349 -7.4980 -2.4004 0.9589
8.1545 -6.1496 -2.4004 0.9589
8.6695 -5.3994 -2.4004 0.9589
9.1156 -4.6063 -2.4004 0.9589
9.7879 -2.9171 -2.4004 0.9589
10.2108 -0.2275 -2.4004 0.9589
9.9082 2.4782 -2.4004 0.9589
9.6483 3.3503 -2.4004 0.9589
8.4203 5.7802 -2.4004 0.9589
7.2621 7.1816 -2.4004 0.9589
6.1263 8.7148 -2.5036 0.9572
4.4841 9.6630 -2.5036 0.9572
-0.1187 10.6521 -2.5036 0.9572
-1.0663 10.5992 -2.5036 0.9572
-1.9229 10.0314 -2.4005 0.9589
-3.6710 9.5316 -2.4005 0.9589
-4.5048 9.1670 -2.4005 0.9589
-5.3028 8.7297 -2.4005 0.9589
-11.0067 7.2002 -3.0912 0.9474
-11.7524 6.2713 -3.1307 0.9467
-12.6047 5.3449 -3.2177 0.9453
-17.9140 4.0588 -4.3169 0.9273
-5.6008 -5.2972 -1.8118 0.9688
-5.6054 -7.6076 -2.2209 0.9619
-5.3028 -8.7297 -2.4005 0.9589
-3.6710 -9.5316 -2.4005 0.9589
0.8299 -10.6203 -2.5036 0.9572
1.7719 -10.5043 -2.5036 0.9572
2.6998 -10.3049 -2.5036 0.9572
3.6062 -10.0237 -2.5036 0.9572
4.4841 -9.6630 -2.5036 0.9572
5.3264 -9.2255 -2.5036 0.9572
6.5940 -7.7995 -2.4004 0.9589
7.8725 -6.5067 -2.4004 0.9589
8.4203 -5.7802 -2.4004 0.9589
6.7961 -3.0622 -1.7519 0.9698
10.1906 -0.6822 -2.4004 0.9589
10.1501 1.1355 -2.4004 0.9589
10.0087 2.0344 -2.4004 0.9589
9.7879 2.9171 -2.4004 0.9589
9.4894 3.7767 -2.4004 0.9589
9.1156 4.6063 -2.4004 0.9589
8.6695 5.3994 -2.4004 0.9589
6.9349 7.4980 -2.4004 0.9589
5.7320 8.9791 -2.5036 0.9572
4.9101 9.4536 -2.5036 0.9572
3.1561 10.1744 -2.5036 0.9572
1.3022 10.5728 -2.5036 0.9572
-0.5931 10.6362 -2.5036 0.9572
-2.3678 9.9358 -2.4005 0.9589
-3.2428 9.6856 -2.4005 0.9589
-4.0920 9.3586 -2.4005 0.9589
-7.1954 10.7362 -3.0375 0.9483
-9.0003 9.3062 -3.0427 0.9482
-9.7512 8.4322 -3.0298 0.9484
-5.5009 3.9593 -1.5929 0.9725
-11.3652 6.7316 -3.1045 0.9472
-15.4226 4.2247 -3.7582 0.9364
-5.9567 -2.2183 -1.6458 0.9741
-5.7356 -2.7397 -1.6458 0.9741
-5.5968 -3.3150 -1.6842 0.9735
-5.5999 -4.8424 -1.9168 0.9699
-5.6017 -5.7922 -2.0863 0.9673
-5.6040 -6.9362 -2.3088 0.9638
-5.1617 -7.7017 -2.4005 0.9624
-3.7143 -8.4949 -2.4005 0.9624
-2.9435 -8.7918 -2.4005 0.9624
-2.1493 -9.0189 -2.4005 0.9624
-1.3955 -9.5684 -2.5036 0.9608
0.3231 -9.6642 -2.5036 0.9608
1.1820 -9.5971 -2.5036 0.9608
3.6755 -8.9438 -2.5036 0.9608
4.4570 -8.5812 -2.5036 0.9608
5.2030 -8.1504 -2.5036 0.9608
6.8757 -6.2187 -2.4004 0.9624
7.4019 -5.5821 -2.4004 0.9624
7.8694 -4.9011 -2.4004 0.9624
9.2134 -1.0307 -2.4004 0.9624
9.2501 0.6192 -2.4004 0.9624
8.9938 2.2495 -2.4004 0.9624
7.6432 5.2468 -2.4004 0.9624
7.1459 5.9062 -2.4004 0.9624
6.2430 7.3842 -2.5036 0.9608
4.8348 8.3741 -2.5036 0.9608
2.4506 9.3539 -2.5036 0.9608
0.7533 9.6402 -2.5036 0.9608
-0.1077 9.6690 -2.5036 0.9608
-0.9679 9.6210 -2.5036 0.9608
-1.7454 9.1057 -2.4005 0.9624
-2.5489 8.9142 -2.4005 0.9624
-3.3322 8.6519 -2.4005 0.9624
-7.8281 8.8514 -3.0595 0.9523
-10.2012 6.6733 -3.1562 0.9509
-5.5290 2.3445 -1.5549 0.9755
-12.8690 4.1497 -3.5010 0.9457
-15.2393 3.4528 -4.0457 0.9375
-5.6079 -2.9925 -1.6458 0.9741
-5.6008 -5.2972 -1.9960 0.9686
-5.6028 -6.3352 -2.1898 0.9657
-5.4996 -7.4642 -2.4005 0.9624
-3.3322 -8.6519 -2.4005 0.9624
-2.5489 -8.9142 -2.4005 0.9624
-1.7454 -9.1057 -2.4005 0.9624
-0.9679 -9.6210 -2.5036 0.9608
1.6083 -9.5349 -2.5036 0.9608
4.0703 -8.7712 -2.5036 0.9608
5.5610 -7.9105 -2.5036 0.9608
7.1459 -5.9062 -2.4004 0.9624
8.9938 -2.2495 -2.4004 0.9624
9.2501 -0.6192 -2.4004 0.9624
9.2685 0.2066 -2.4004 0.9624
9.0851 1.8466 -2.4004 0.9624
8.8846 2.6479 -2.4004 0.9624
8.6137 3.4282 -2.4004 0.9624
8.2744 4.1812 -2.4004 0.9624
7.8694 4.9011 -2.4004 0.9624
6.4630 6.9877 -2.4645 0.9614
5.9078 7.6550 -2.5036 0.9608
5.2030 8.1504 -2.5036 0.9608
2.8649 9.2354 -2.5036 0.9608
1.1820 9.5971 -2.5036 0.9608
0.3231 9.6642 -2.5036 0.9608
-0.5383 9.6546 -2.5036 0.9608
-1.3955 9.5684 -2.5036 0.9608
-3.7143 8.4949 -2.4005 0.9624
-8.2348 8.5147 -3.0670 0.9522
-9.7952 7.0502 -3.1248 0.9514
-5.5011 2.6276 -1.5785 0.9751
-13.5102 3.7008 -3.6269 0.9438
-5.5017 -0.4917 -1.5637 0.9773
-5.5018 -0.9912 -1.5826 0.9770
-5.5968 -3.3150 -1.8415 0.9733
-5.5982 -4.0294 -1.9526 0.9717
-5.6017 -5.7922 -2.2811 0.9671
-5.3291 -6.5959 -2.4005 0.9654
-4.7209 -7.0440 -2.4005 0.9654
-4.0752 -7.4363 -2.4005 0.9654
1.8580 -8.6465 -2.5036 0.9639
2.6202 -8.4468 -2.5036 0.9639
5.4033 -7.0013 -2.5036 0.9639
6.0050 -6.4926 -2.5036 0.9639
7.5678 -3.8242 -2.4004 0.9654
8.3092 -1.6889 -2.4004 0.9654
8.4770 -0.1889 -2.4004 0.9654
8.4602 0.5663 -2.4004 0.9654
8.3762 1.3171 -2.4004 0.9654
8.2257 2.0574 -2.4004 0.9654
6.9905 4.7987 -2.4004 0.9654
6.2883 6.2186 -2.5036 0.9639
5.7098 6.7536 -2.5036 0.9639
4.4219 7.6590 -2.5036 0.9639
0.6890 8.8170 -2.5036 0.9639
-2.3313 8.1529 -2.4005 0.9654
-3.0477 7.9131 -2.4005 0.9654
-3.7399 7.6104 -2.4005 0.9654
-4.4024 7.2473 -2.4005 0.9654
-7.2093 8.1516 -3.0807 0.9558
-8.7852 6.9376 -3.1690 0.9545
-9.4979 6.2133 -3.2130 0.9539
-11.0089 4.6682 -3.3851 0.9515
-5.5014 1.2464 -1.5969 0.9768
-5.5017 -0.7399 -1.5715 0.9772
-5.5950 -2.3725 -1.7204 0.9751
-5.5962 -2.9862 -1.7957 0.9740
-5.5975 -3.6617 -1.8936 0.9726
-5.5990 -4.4215 -2.0197 0.9708
-5.6008 -5.2972 -2.1824 0.9685
-5.6028 -6.3352 -2.3942 0.9655
-3.7399 -7.6104 -2.4005 0.9654
-2.3313 -8.1529 -2.4005 0.9654
-1.5964 -8.3281 -2.4005 0.9654
-0.0985 -8.8433 -2.5036 0.9639
2.9939 -8.3217 -2.5036 0.9639
4.4219 -7.6590 -2.5036 0.9639
5.0861 -7.2350 -2.5036 0.9639
5.7098 -6.7536 -2.5036 0.9639
6.2883 -6.2186 -2.5036 0.9639
6.5357 -5.4019 -2.4004 0.9654
6.9905 -4.7987 -2.4004 0.9654
8.2257 -2.0574 -2.4004 0.9654
8.3762 -1.3171 -2.4004 0.9654
8.4602 -0.5663 -2.4004 0.9654
8.4770 0.1889 -2.4004 0.9654
8.4266 0.9427 -2.4004 0.9654
8.3092 1.6889 -2.4004 0.9654
8.1259 2.4218 -2.4004 0.9654
7.8781 3.1354 -2.4004 0.9654
7.5678 3.8242 -2.4004 0.9654
7.1974 4.4826 -2.4004 0.9654
6.7698 5.1054 -2.4004 0.9654
6.4630 5.8454 -2.4670 0.9644
5.4033 7.0013 -2.5036 0.9639
4.0764 7.8484 -2.5036 0.9639
3.3616 8.1800 -2.5036 0.9639
1.8580 8.6465 -2.5036 0.9639
0.2955 8.8389 -2.5036 0.9639
-1.9658 8.2487 -2.4005 0.9654
-4.7209 7.0440 -2.4005 0.9654
-5.3291 6.5959 -2.4005 0.9654
-7.5823 7.8400 -3.0876 0.9557
-5.5079 4.7629 -2.0614 0.9702
-9.1412 6.5794 -3.1884 0.9543
-5.5082 3.2625 -1.8123 0.9737
-5.5014 0.9911 -1.5825 0.9770
-5.5015 0.4916 -1.5636 0.9773
-5.5101 -0.0000 -1.6948 0.9772
-5.5944 -2.0834 -1.8362 0.9753
-5.5956 -2.6728 -1.9073 0.9744
-5.5968 -3.3150 -2.0008 0.9731
-5.5999 -4.8424 -2.2771 0.9695
-5.4257 -5.6102 -2.4005 0.9679
-4.9049 -6.0708 -2.4005 0.9679
-2.4778 -7.4009 -2.4005 0.9679
-1.8093 -7.5920 -2.4005 0.9679
-1.1747 -8.0546 -2.5036 0.9665
-0.4532 -8.1272 -2.5036 0.9665
0.2720 -8.1353 -2.5036 0.9665
1.7101 -7.9581 -2.5036 0.9665
2.4116 -7.7744 -2.5036 0.9665
3.0940 -7.5289 -2.5036 0.9665
3.7518 -7.2236 -2.5036 0.9665
4.3799 -6.8610 -2.5036 0.9665
5.5270 -5.9757 -2.5036 0.9665
6.9653 -3.5197 -2.4004 0.9679
7.6477 -1.5545 -2.4004 0.9679
7.7557 -0.8676 -2.4004 0.9679
7.8022 -0.1739 -2.4004 0.9679
7.7867 0.5213 -2.4004 0.9679
7.3723 2.5599 -2.4004 0.9679
7.1152 3.2060 -2.4004 0.9679
6.8016 3.8265 -2.4004 0.9679
6.4721 4.4429 -2.4146 0.9677
6.2741 5.1857 -2.5036 0.9665
4.0699 7.0493 -2.5036 0.9665
1.3539 8.0264 -2.5036 0.9665
0.6341 8.1151 -2.5036 0.9665
-0.0907 8.1393 -2.5036 0.9665
-0.8148 8.0989 -2.5036 0.9665
-1.5324 7.9943 -2.5036 0.9665
-4.6296 6.2833 -2.4005 0.9679
-7.4721 7.0671 -3.1634 0.9579
-8.2509 6.5156 -3.2337 0.9570
-8.9085 5.8277 -3.2743 0.9564
-5.6915 -1.8353 -1.8393 0.9753
-5.5950 -2.3725 -1.8692 0.9749
-5.5962 -2.9862 -1.9510 0.9738
-5.6008 -5.2972 -2.3711 0.9683
-5.1704 -5.8463 -2.4005 0.9679
-4.0519 -6.6704 -2.4005 0.9679
-3.4422 -7.0046 -2.4005 0.9679
-2.1457 -7.5039 -2.4005 0.9679
1.3539 -8.0264 -2.5036 0.9665
2.0629 -7.8741 -2.5036 0.9665
2.7556 -7.6592 -2.5036 0.9665
3.4263 -7.3836 -2.5036 0.9665
4.0699 -7.0493 -2.5036 0.9665
5.2553 -6.2160 -2.5036 0.9665
6.2741 -5.1857 -2.5036 0.9665
6.8016 -3.8265 -2.4004 0.9679
6.7821 -3.0559 -2.2880 0.9693
7.7867 -0.5213 -2.4004 0.9679
7.2510 2.8858 -2.4004 0.9679
6.9653 3.5197 -2.4004 0.9679
6.0369 5.4601 -2.5036 0.9665
5.5270 5.9757 -2.5036 0.9665
4.3799 6.8610 -2.5036 0.9665
3.7518 7.2236 -2.5036 0.9665
0.9950 8.0788 -2.5036 0.9665
-0.4532 8.1272 -2.5036 0.9665
-1.1747 8.0546 -2.5036 0.9665
-3.7508 6.8443 -2.4005 0.9679
-4.3451 6.4833 -2.4005 0.9679
-7.8632 6.7995 -3.1974 0.9574
-9.2350 5.4699 -3.3013 0.9561
-11.7924 3.2303 -3.7607 0.9501
-14.1429 2.5480 -4.4201 0.9416
-18.5705 0.0000 -6.1730 0.9247
-5.5956 -2.6728 -2.0613 0.9742
-5.5968 -3.3150 -2.1623 0.9730
-5.5982 -4.0294 -2.2928 0.9713
-5.4626 -4.7237 -2.4005 0.9700
-5.0205 -5.1911 -2.4005 0.9700
-4.5385 -5.6174 -2.4005 0.9700
-4.0205 -5.9990 -2.4005 0.9700
-3.4706 -6.3331 -2.4005 0.9700
-2.8932 -6.6169 -2.4005 0.9700
-1.6741 -7.0250 -2.4005 0.9700
2.8629 -6.9665 -2.5036 0.9688
3.4716 -6.6841 -2.5036 0.9688
4.6017 -5.9626 -2.5036 0.9688
5.1142 -5.5294 -2.5036 0.9688
6.0135 -4.5350 -2.5036 0.9688
6.9204 -2.0625 -2.4004 0.9700
7.1765 -0.8028 -2.4004 0.9700
7.2051 0.4823 -2.4004 0.9700
7.1336 1.1217 -2.4004 0.9700
7.0054 1.7522 -2.4004 0.9700
6.8217 2.3687 -2.4004 0.9700
6.5838 2.9665 -2.4004 0.9700
6.2096 4.2626 -2.5036 0.9688
5.8055 4.7984 -2.5036 0.9688
5.3554 5.2961 -2.5036 0.9688
4.8628 5.7517 -2.5036 0.9688
4.3315 6.1617 -2.5036 0.9688
3.1704 6.8321 -2.5036 0.9688
1.2528 7.4269 -2.5036 0.9688
0.5868 7.5090 -2.5036 0.9688
-4.2838 5.8140 -2.4005 0.9700
-4.7843 5.4096 -2.4005 0.9700
-5.2468 4.9623 -2.4005 0.9700
-8.3966 5.4928 -3.3352 0.9586
-9.1120 4.8623 -3.4331 0.9574
-18.8486 -0.8405 -6.2716 0.9236
-5.6915 -1.8353 -1.9878 0.9751
-5.5950 -2.3725 -2.0201 0.9747
-5.5962 -2.9862 -2.1085 0.9736
-4.7843 -5.4096 -2.4005 0.9700
-4.2838 -5.8140 -2.4005 0.9700
-3.7493 -6.1722 -2.4005 0.9700
-0.7539 -7.4940 -2.5036 0.9688
-0.0839 -7.5314 -2.5036 0.9688
3.1704 -6.8321 -2.5036 0.9688
5.3554 -5.2961 -2.5036 0.9688
5.8055 -4.7984 -2.5036 0.9688
6.2096 -4.2626 -2.5036 0.9688
6.5838 -2.9665 -2.4004 0.9700
7.0054 -1.7522 -2.4004 0.9700
7.1336 -1.1217 -2.4004 0.9700
7.2051 -0.4823 -2.4004 0.9700
7.2194 0.1609 -2.4004 0.9700
7.0765 1.4384 -2.4004 0.9700
6.4731 3.2710 -2.4108 0.9699
6.3933 3.9818 -2.5036 0.9688
5.5860 5.0522 -2.5036 0.9688
2.2315 7.1937 -2.5036 0.9688
0.2517 7.5277 -2.5036 0.9688
-1.0870 7.4530 -2.5036 0.9688
-2.8932 6.6169 -2.4005 0.9700
-4.0205 5.9991 -2.4005 0.9700
-8.0885 5.8218 -3.3127 0.9589
-9.4660 4.5215 -3.4871 0.9567
-5.5084 2.0513 -1.9539 0.9755
-18.5255 1.6554 -6.1825 0.9246
-18.4527 0.0000 -6.5988 0.9246
-18.4630 -1.6499 -6.6288 0.9243
-5.5968 -3.3150 -2.3262 0.9727
-5.0776 -4.3908 -2.4005 0.9719
-4.6667 -4.8253 -2.4005 0.9719
-4.2187 -5.2215 -2.4005 0.9719
-3.7372 -5.5763 -2.4005 0.9719
-3.2260 -5.8868 -2.4005 0.9719
-2.1312 -6.3655 -2.4005 0.9719
-1.5844 -6.6485 -2.4441 0.9714
-1.0104 -6.9278 -2.5036 0.9707
0.8558 -6.9486 -2.5036 0.9707
4.7538 -5.1397 -2.5036 0.9707
5.1924 -4.6962 -2.5036 0.9707
5.5897 -4.2154 -2.5036 0.9707
5.9427 -3.7012 -2.5036 0.9707
6.4630 -2.5722 -2.4875 0.9709
6.7107 -0.1495 -2.4004 0.9719
6.6973 0.4483 -2.4004 0.9719
6.5117 1.6287 -2.4004 0.9719
6.4639 2.2445 -2.4469 0.9714
5.7720 3.9622 -2.5036 0.9707
5.3964 4.4602 -2.5036 0.9707
4.0263 5.7275 -2.5036 0.9707
2.9470 6.3506 -2.5036 0.9707
1.1645 6.9035 -2.5036 0.9707
0.5454 6.9798 -2.5036 0.9707
-0.7008 6.9659 -2.5036 0.9707
-1.3180 6.8759 -2.5036 0.9707
-1.8455 6.4541 -2.4005 0.9719
-2.9606 6.0246 -2.4005 0.9719
-3.4851 5.7372 -2.4005 0.9719
-4.8770 4.6127 -2.4005 0.9719
-5.2682 4.1603 -2.4005 0.9719
-7.9816 5.2213 -3.4108 0.9603
-8.6490 4.6153 -3.5058 0.9592
-9.3054 3.9458 -3.6145 0.9580
-10.0590 3.2436 -3.7796 0.9561
-5.5014 1.2464 -2.0172 0.9763
-18.4324 0.8219 -6.5981 0.9246
-18.5295 -0.8263 -6.6329 0.9242
-18.6333 -2.5060 -6.7234 0.9232
-5.5950 -2.3725 -2.1732 0.9745
-5.5962 -2.9862 -2.2683 0.9734
-4.4471 -5.0284 -2.4005 0.9719
-3.9819 -5.4043 -2.4005 0.9719
-3.4851 -5.7372 -2.4005 0.9719
-2.9606 -6.0246 -2.4005 0.9719
-2.4126 -6.2642 -2.4005 0.9719
-1.8455 -6.4541 -2.4005 0.9719
-1.3180 -6.8759 -2.5036 0.9707
-0.0780 -7.0006 -2.5036 0.9707
0.5454 -6.9798 -2.5036 0.9707
3.5005 -6.0631 -2.5036 0.9707
4.0263 -5.7275 -2.5036 0.9707
4.5201 -5.3464 -2.5036 0.9707
4.9780 -4.9229 -2.5036 0.9707
5.7720 -3.9622 -2.5036 0.9707
6.4639 -2.2445 -2.4469 0.9714
6.5117 -1.6287 -2.4004 0.9719
6.6309 -1.0427 -2.4004 0.9719
6.6761 0.7468 -2.4023 0.9719
6.5778 1.3370 -2.4004 0.9719
6.4720 1.9289 -2.4150 0.9717
6.4630 2.5722 -2.4875 0.9709
6.2486 3.1576 -2.5036 0.9707
5.5897 4.2154 -2.5036 0.9707
5.1924 4.6962 -2.5036 0.9707
4.2774 5.5424 -2.5036 0.9707
3.2270 6.2130 -2.5036 0.9707
2.0742 6.6867 -2.5036 0.9707
0.8558 6.9486 -2.5036 0.9707
-0.3898 6.9902 -2.5036 0.9707
-2.6893 6.1505 -2.4005 0.9719
-3.2260 5.8868 -2.4005 0.9719
-3.7372 5.5763 -2.4005 0.9719
-4.6667 4.8253 -2.4005 0.9719
-5.0776 4.3908 -2.4005 0.9719
-5.4483 3.9214 -2.4005 0.9719
-9.6308 3.5866 -3.6751 0.9573
-5.5087 0.4922 -1.9778 0.9768
-5.5956 -2.6728 -2.3764 0.9738
-4.7383 -4.0974 -2.4005 0.9735
-3.4874 -5.2036 -2.4005 0.9735
-3.0104 -5.4934 -2.4005 0.9735
-1.5145 -6.3552 -2.5036 0.9724
-0.3637 -6.5230 -2.5036 0.9724
0.2183 -6.5295 -2.5036 0.9724
0.7986 -6.4842 -2.5036 0.9724
1.9356 -6.2398 -2.5036 0.9724
2.4833 -6.0428 -2.5036 0.9724
3.5154 -5.5068 -2.5036 0.9724
4.8453 -4.3823 -2.5036 0.9724
5.5456 -3.4538 -2.5036 0.9724
6.4023 -1.3013 -2.5036 0.9724
6.4630 -0.1440 -2.4773 0.9727
6.4630 0.4327 -2.4823 0.9726
6.4539 1.0148 -2.5036 0.9724
6.3379 1.5852 -2.5036 0.9724
6.1717 2.1430 -2.5036 0.9724
5.9565 2.6838 -2.5036 0.9724
5.6939 3.2033 -2.5036 0.9724
5.0358 4.1622 -2.5036 0.9724
4.2180 4.9891 -2.5036 0.9724
3.7572 5.3447 -2.5036 0.9724
3.2666 5.6579 -2.5036 0.9724
2.7500 5.9262 -2.5036 0.9724
2.2117 6.1474 -2.5036 0.9724
1.6557 6.3199 -2.5036 0.9724
-0.6539 6.5004 -2.5036 0.9724
-1.2299 6.4164 -2.5036 0.9724
-1.7222 6.0228 -2.4005 0.9735
-3.2522 5.3538 -2.4005 0.9735
-4.1499 4.6924 -2.4005 0.9735
-5.2421 3.4292 -2.4005 0.9735
-5.5266 2.9491 -2.4005 0.9735
-5.5080 2.3356 -2.2927 0.9747
-5.5014 1.2464 -2.1617 0.9761
-11.8527 1.5940 -4.5831 0.9501
-18.4029 0.8206 -7.0594 0.9241
-5.6915 -1.8353 -2.2917 0.9747
-5.5950 -2.3725 -2.3289 0.9743
-4.9161 -3.8822 -2.4005 0.9735
-2.2514 -5.8456 -2.4005 0.9735
-1.7222 -6.0228 -2.4005 0.9735
-0.6539 -6.5004 -2.5036 0.9724
-0.0728 -6.5328 -2.5036 0.9724
1.0867 -6.4422 -2.5036 0.9724
1.6557 -6.3199 -2.5036 0.9724
2.2117 -6.1474 -2.5036 0.9724
4.2180 -4.9891 -2.5036 0.9724
4.6453 -4.5938 -2.5036 0.9724
5.0358 -4.1621 -2.5036 0.9724
5.6939 -3.2034 -2.5036 0.9724
6.1717 -2.1430 -2.5036 0.9724
6.3379 -1.5852 -2.5036 0.9724
6.4539 -1.0148 -2.5036 0.9724
6.4630 -0.4326 -2.4823 0.9726
6.2610 1.8660 -2.5036 0.9724
5.8310 2.9465 -2.5036 0.9724
5.2162 3.9337 -2.5036 0.9724
4.8453 4.3823 -2.5036 0.9724
4.4361 4.7962 -2.5036 0.9724
3.5154 5.5068 -2.5036 0.9724
3.0113 5.7978 -2.5036 0.9724
1.3726 6.3874 -2.5036 0.9724
0.7986 6.4842 -2.5036 0.9724
-1.9887 5.9401 -2.4005 0.9735
-2.5096 5.7395 -2.4005 0.9735
-3.4874 5.2036 -2.4005 0.9735
-4.3548 4.5028 -2.4005 0.9735
-4.7383 4.0974 -2.4005 0.9735
-8.5316 4.0752 -3.6233 0.9603
-9.1534 3.4088 -3.7431 0.9590
-10.0185 2.7444 -3.9807 0.9565
-5.5186 0.9942 -2.1489 0.9763
-1.6390 -0.1465 -0.6735 0.9929
-1.6200 -0.2919 -0.6737 0.9929
-1.6035 -0.4392 -0.6804 0.9928
-5.4966 -2.0469 -2.4005 0.9750
-5.2926 -2.5280 -2.4005 0.9750
-5.0466 -2.9891 -2.4005 0.9750
-4.0775 -4.2162 -2.4005 0.9750
-3.2654 -4.8723 -2.4005 0.9750
-2.8188 -5.1436 -2.4005 0.9750
-1.8621 -5.5619 -2.4005 0.9750
-1.4181 -5.9506 -2.5036 0.9739
-0.8828 -6.0532 -2.5036 0.9739
-0.3406 -6.1078 -2.5036 0.9739
0.2044 -6.1138 -2.5036 0.9739
1.2852 -5.9807 -2.5036 0.9739
1.8124 -5.8426 -2.5036 0.9739
2.3252 -5.6581 -2.5036 0.9739
2.8196 -5.4287 -2.5036 0.9739
4.1536 -4.4909 -2.5036 0.9739
4.5369 -4.1034 -2.5036 0.9739
4.8841 -3.6832 -2.5036 0.9739
5.1925 -3.2339 -2.5036 0.9739
5.4597 -2.7589 -2.5036 0.9739
5.9947 -1.2185 -2.5036 0.9739
6.0793 -0.6801 -2.5036 0.9739
6.1157 -0.1363 -2.5036 0.9739
6.1036 0.4086 -2.5036 0.9739
6.0430 0.9502 -2.5036 0.9739
5.9344 1.4843 -2.5036 0.9739
5.7788 2.0066 -2.5036 0.9739
5.5772 2.5130 -2.5036 0.9739
5.3314 2.9994 -2.5036 0.9739
4.7151 3.8972 -2.5036 0.9739
4.3496 4.3014 -2.5036 0.9739
3.9495 4.6714 -2.5036 0.9739
3.5180 5.0044 -2.5036 0.9739
3.0586 5.2977 -2.5036 0.9739
2.0709 5.7561 -2.5036 0.9739
1.0175 6.0320 -2.5036 0.9739
0.4766 6.0987 -2.5036 0.9739
-0.0681 6.1169 -2.5036 0.9739
-1.1516 6.0079 -2.5036 0.9739
-1.6125 5.6393 -2.4005 0.9750
-2.5868 5.2641 -2.4005 0.9750
-3.0451 5.0129 -2.4005 0.9750
-3.4792 4.7220 -2.4005 0.9750
-3.8857 4.3936 -2.4005 0.9750
-4.2613 4.0303 -2.4005 0.9750
-4.6031 3.6350 -2.4005 0.9750
-4.9084 3.2109 -2.4005 0.9750
-5.1747 2.7613 -2.4005 0.9750
-5.3999 2.2898 -2.4005 0.9750
-1.6146 0.3658 -0.6776 0.9929
-1.6301 0.2192 -0.6732 0.9929
-5.5089 -0.2457 -2.2569 0.9764
-1.6301 -0.2192 -0.6732 0.9929
-1.5889 -0.5124 -0.6833 0.9928
-5.3999 -2.2897 -2.4005 0.9750
-5.1747 -2.7613 -2.4005 0.9750
-4.6031 -3.6350 -2.4005 0.9750
-3.8857 -4.3936 -2.4005 0.9750
-1.6125 -5.6393 -2.4005 0.9750
-1.1516 -6.0079 -2.5036 0.9739
-0.6123 -6.0865 -2.5036 0.9739
-0.0681 -6.1169 -2.5036 0.9739
0.4766 -6.0987 -2.5036 0.9739
1.0175 -6.0320 -2.5036 0.9739
2.0709 -5.7561 -2.5036 0.9739
3.0586 -5.2977 -2.5036 0.9739
3.9495 -4.6714 -2.5036 0.9739
4.3496 -4.3014 -2.5036 0.9739
4.7151 -3.8972 -2.5036 0.9739
5.0433 -3.4620 -2.5036 0.9739
5.3314 -2.9994 -2.5036 0.9739
5.7788 -2.0066 -2.5036 0.9739
6.1036 -0.4086 -2.5036 0.9739
6.1157 0.1363 -2.5036 0.9739
6.0793 0.6801 -2.5036 0.9739
5.9947 1.2185 -2.5036 0.9739
5.8624 1.7472 -2.5036 0.9739
5.6836 2.2620 -2.5036 0.9739
5.4597 2.7589 -2.5036 0.9739
5.1925 3.2339 -2.5036 0.9739
4.8841 3.6832 -2.5036 0.9739
2.3252 5.6581 -2.5036 0.9739
1.8124 5.8426 -2.5036 0.9739
1.2852 5.9807 -2.5036 0.9739
0.7478 6.0714 -2.5036 0.9739
0.2044 6.1138 -2.5036 0.9739
-0.8828 6.0532 -2.5036 0.9739
-3.2654 4.8723 -2.4005 0.9750
-3.6861 4.5623 -2.4005 0.9750
-4.0775 4.2162 -2.4005 0.9750
-5.0466 2.9891 -2.4005 0.9750
-5.4966 2.0469 -2.4005 0.9750
-1.6035 0.4392 -0.6804 0.9928
-1.6200 0.2919 -0.6737 0.9929
-1.6390 0.1465 -0.6735 0.9929
-1.5266 0.0000 -0.6653 0.9934
-1.5215 -0.1360 -0.6657 0.9934
-1.5015 -0.2705 -0.6649 0.9934
-5.1618 -1.9223 -2.4005 0.9763
-4.4706 -3.2177 -2.4005 0.9763
-4.1664 -3.6029 -2.4005 0.9763
-3.8292 -3.9594 -2.4005 0.9763
-2.6471 -4.8304 -2.4005 0.9763
-2.2067 -5.0468 -2.4005 0.9763
-1.3317 -5.5882 -2.5036 0.9752
-0.3198 -5.7358 -2.5036 0.9752
0.1920 -5.7415 -2.5036 0.9752
3.0911 -4.8421 -2.5036 0.9752
3.5098 -4.5478 -2.5036 0.9752
4.8763 -3.0370 -2.5036 0.9752
5.7433 -0.1280 -2.5036 0.9752
5.7319 0.3837 -2.5036 0.9752
5.5730 1.3939 -2.5036 0.9752
5.2376 2.3599 -2.5036 0.9752
5.0067 2.8168 -2.5036 0.9752
4.0847 4.0394 -2.5036 0.9752
3.7089 4.3869 -2.5036 0.9752
2.4181 5.2110 -2.5036 0.9752
1.9447 5.4055 -2.5036 0.9752
1.4559 5.5571 -2.5036 0.9752
-0.0640 5.7443 -2.5036 0.9752
-1.0815 5.6420 -2.5036 0.9752
-1.9797 5.1401 -2.4005 0.9763
-2.4293 4.9435 -2.4005 0.9763
-2.8597 4.7077 -2.4005 0.9763
-3.2673 4.4345 -2.4005 0.9763
-3.6490 4.1260 -2.4005 0.9763
-4.3228 3.4137 -2.4005 0.9763
-4.6095 3.0154 -2.4005 0.9763
-1.4861 0.4792 -0.6805 0.9932
-1.5133 0.2035 -0.6654 0.9934
-1.5259 -0.0680 -0.6657 0.9934
-1.5133 -0.2035 -0.6654 0.9934
-1.5029 -0.3405 -0.6716 0.9933
-5.0711 -2.1503 -2.4005 0.9763
-4.6095 -3.0154 -2.4005 0.9763
-4.3228 -3.4137 -2.4005 0.9763
-4.0018 -3.7849 -2.4005 0.9763
-3.2673 -4.4344 -2.4005 0.9763
-2.4293 -4.9435 -2.4005 0.9763
-1.5793 -5.5233 -2.5036 0.9752
-0.5750 -5.7158 -2.5036 0.9752
-0.0640 -5.7443 -2.5036 0.9752
0.4475 -5.7272 -2.5036 0.9752
1.4559 -5.5571 -2.5036 0.9752
1.9447 -5.4055 -2.5036 0.9752
2.4181 -5.2110 -2.5036 0.9752
2.8723 -4.9750 -2.5036 0.9752
3.3037 -4.6996 -2.5036 0.9752
3.7089 -4.3870 -2.5036 0.9752
4.4280 -3.6598 -2.5036 0.9752
5.2376 -2.3599 -2.5036 0.9752
5.4268 -1.8844 -2.5036 0.9752
5.5730 -1.3939 -2.5036 0.9752
5.6750 -0.8923 -2.5036 0.9752
5.7433 0.1280 -2.5036 0.9752
5.7091 0.6387 -2.5036 0.9752
5.6296 1.1443 -2.5036 0.9752
5.3375 2.1243 -2.5036 0.9752
5.1272 2.5909 -2.5036 0.9752
4.2606 3.8534 -2.5036 0.9752
3.9007 4.2174 -2.5036 0.9752
3.5098 4.5478 -2.5036 0.9752
2.6479 5.0980 -2.5036 0.9752
2.1836 5.3135 -2.5036 0.9752
1.2069 5.6165 -2.5036 0.9752
0.7022 5.7016 -2.5036 0.9752
0.1920 5.7415 -2.5036 0.9752
-1.7487 5.2232 -2.4005 0.9763
-2.2067 5.0468 -2.4005 0.9763
-2.6471 4.8304 -2.4005 0.9763
-3.4616 4.2845 -2.4005 0.9763
-3.8292 3.9594 -2.4005 0.9763
-4.1664 3.6029 -2.4005 0.9763
-4.4706 3.2177 -2.4005 0.9763
-4.9702 2.3741 -2.4005 0.9763
-5.1618 1.9223 -2.4005 0.9763
-1.5001 0.4109 -0.6779 0.9932
-1.5015 0.2705 -0.6649 0.9934
-1.5215 0.1360 -0.6657 0.9934
-1.4172 -0.1266 -0.6586 0.9937
-1.3993 -0.2521 -0.6581 0.9938
-4.8600 -1.8099 -2.4005 0.9774
-4.4621 -2.6429 -2.4005 0.9774
-4.2091 -3.0296 -2.4005 0.9774
-3.6053 -3.7279 -2.4005 0.9774
-3.2592 -4.0339 -2.4005 0.9774
-2.0776 -4.7517 -2.4005 0.9774
-1.2539 -5.2614 -2.5036 0.9764
-0.3011 -5.4004 -2.5036 0.9764
0.1807 -5.4057 -2.5036 0.9764
0.6612 -5.3682 -2.5036 0.9764
1.1363 -5.2880 -2.5036 0.9764
2.0559 -5.0028 -2.5036 0.9764
2.9104 -4.5590 -2.5036 0.9764
4.3184 -3.2567 -2.5036 0.9764
5.3752 -0.6013 -2.5036 0.9764
5.4074 -0.1205 -2.5036 0.9764
5.3967 0.3613 -2.5036 0.9764
5.1095 1.7742 -2.5036 0.9764
4.7140 2.6520 -2.5036 0.9764
3.8458 3.8032 -2.5036 0.9764
3.4920 4.1304 -2.5036 0.9764
2.7044 4.6841 -2.5036 0.9764
2.2767 4.9062 -2.5036 0.9764
1.8310 5.0894 -2.5036 0.9764
0.4214 5.3923 -2.5036 0.9764
-0.5414 5.3816 -2.5036 0.9764
-1.0182 5.3121 -2.5036 0.9764
-1.8639 4.8395 -2.4005 0.9774
-2.2872 4.6544 -2.4005 0.9774
-2.2076 2.9961 -1.7227 0.9837
-3.4357 3.8848 -2.4005 0.9774
-3.7678 3.5636 -2.4005 0.9774
-4.0700 3.2140 -2.4005 0.9774
-4.3399 2.8390 -2.4005 0.9774
-4.7745 2.0246 -2.4005 0.9774
-1.4099 0.1896 -0.6585 0.9937
-1.4212 0.0634 -0.6585 0.9937
-1.4099 -0.1896 -0.6585 0.9937
-1.3967 -0.3165 -0.6629 0.9937
-4.3399 -2.8390 -2.4005 0.9774
-2.6924 -4.4323 -2.4005 0.9774
-1.4870 -5.2003 -2.5036 0.9764
-1.0182 -5.3121 -2.5036 0.9764
-0.5414 -5.3816 -2.5036 0.9764
-0.0603 -5.4084 -2.5036 0.9764
0.4214 -5.3923 -2.5036 0.9764
0.8996 -5.3334 -2.5036 0.9764
1.8310 -5.0894 -2.5036 0.9764
2.2767 -4.9062 -2.5036 0.9764
2.7044 -4.6841 -2.5036 0.9764
3.1106 -4.4248 -2.5036 0.9764
4.4592 -3.0611 -2.5036 0.9764
4.7140 -2.6520 -2.5036 0.9764
5.2471 -1.3124 -2.5036 0.9764
5.3752 0.6013 -2.5036 0.9764
5.3004 1.0773 -2.5036 0.9764
5.0254 2.0000 -2.5036 0.9764
4.8274 2.4394 -2.5036 0.9764
4.5911 2.8594 -2.5036 0.9764
4.0114 3.6281 -2.5036 0.9764
3.3046 4.2819 -2.5036 0.9764
2.9104 4.5590 -2.5036 0.9764
2.4930 4.7999 -2.5036 0.9764
1.6025 5.1659 -2.5036 0.9764
0.6612 5.3682 -2.5036 0.9764
-0.3011 5.4004 -2.5036 0.9764
-1.2539 5.2614 -2.5036 0.9764
-1.6465 4.9177 -2.4005 0.9774
-2.0776 4.7517 -2.4005 0.9774
-2.0719 3.0915 -1.7227 0.9837
-3.2592 4.0339 -2.4005 0.9774
-3.6053 3.7279 -2.4005 0.9774
-3.9228 3.3922 -2.4005 0.9774
-4.6796 2.2353 -2.4005 0.9774
-4.8600 1.8099 -2.4005 0.9774
-1.4172 0.1266 -0.6586 0.9937
-1.3367 0.0000 -0.6557 0.9941
-1.3061 -0.3578 -0.6642 0.9940
-4.2107 -2.4940 -2.4005 0.9784
-2.0470 -3.0543 -1.8036 0.9838
-2.3519 -4.2916 -2.4005 0.9784
-1.9606 -4.4839 -2.4005 0.9784
-1.5838 -4.7304 -2.4470 0.9780
-1.1832 -4.9649 -2.5036 0.9775
0.6239 -5.0657 -2.5036 0.9775
1.0723 -4.9901 -2.5036 0.9775
2.7464 -4.3021 -2.5036 0.9775
3.4656 -3.7470 -2.5036 0.9775
4.3324 -2.6983 -2.5036 0.9775
4.7422 -1.8874 -2.5036 0.9775
5.0017 -1.0166 -2.5036 0.9775
4.4483 2.5026 -2.5036 0.9775
1.7278 4.8026 -2.5036 0.9775
1.2935 4.9374 -2.5036 0.9775
-1.7717 4.6002 -2.4181 0.9783
-2.1584 4.3921 -2.4005 0.9784
-2.5407 4.1826 -2.4005 0.9784
-2.1816 2.9609 -1.8041 0.9837
-3.5555 3.3628 -2.4005 0.9784
-3.8407 3.0329 -2.4005 0.9784
-4.3176 2.3039 -2.4005 0.9784
-4.5055 1.9105 -2.4005 0.9784
-1.3089 0.2966 -0.6583 0.9940
-1.3355 0.0596 -0.6558 0.9941
-1.3355 -0.0596 -0.6558 0.9941
-1.3003 -0.4193 -0.6702 0.9939
-4.0954 -2.6791 -2.4005 0.9784
-3.5555 -3.3628 -2.4005 0.9784
-3.2421 -3.6659 -2.4005 0.9784
-2.9029 -3.9399 -2.4005 0.9784
-2.5407 -4.1826 -2.4005 0.9784
-1.4032 -4.9073 -2.5036 0.9775
0.8489 -5.0329 -2.5036 0.9775
2.1484 -4.6298 -2.5036 0.9775
2.5520 -4.4202 -2.5036 0.9775
3.6291 -3.5889 -2.5036 0.9775
4.2079 -2.8886 -2.5036 0.9775
4.4483 -2.5026 -2.5036 0.9775
4.8216 -1.6742 -2.5036 0.9775
5.0926 -0.3409 -2.5036 0.9775
5.1027 0.1137 -2.5036 0.9775
5.0724 0.5674 -2.5036 0.9775
5.0017 1.0166 -2.5036 0.9775
4.8914 1.4578 -2.5036 0.9775
4.0751 3.0732 -2.5036 0.9775
3.7854 3.4237 -2.5036 0.9775
3.4656 3.7470 -2.5036 0.9775
2.7464 4.3021 -2.5036 0.9775
2.3526 4.5295 -2.5036 0.9775
1.9401 4.7209 -2.5036 0.9775
1.5122 4.8748 -2.5036 0.9775
0.6239 5.0657 -2.5036 0.9775
0.1706 5.1011 -2.5036 0.9775
-1.1832 4.9650 -2.5036 0.9775
-2.3519 4.2917 -2.4005 0.9784
-3.0755 3.8067 -2.4005 0.9784
-4.2107 2.4940 -2.4005 0.9784
-1.3317 0.1190 -0.6558 0.9941
-1.2576 -0.1124 -0.6550 0.9943
-1.2283 -0.3365 -0.6607 0.9943
-1.2162 -0.4529 -0.6733 0.9942
-4.1754 -1.9944 -2.4005 0.9794
-3.9813 -2.3582 -2.4005 0.9794
-3.7556 -2.7031 -2.4005 0.9794
-3.2169 -3.3262 -2.4005 0.9794
-2.0470 -3.0543 -1.9075 0.9836
-2.2238 -4.0579 -2.4005 0.9794
-1.5322 -4.5763 -2.5036 0.9785
-0.2687 -4.8185 -2.5036 0.9785
0.1613 -4.8233 -2.5036 0.9785
0.5899 -4.7898 -2.5036 0.9785
1.0139 -4.7183 -2.5036 0.9785
1.8344 -4.4638 -2.5036 0.9785
2.5968 -4.0678 -2.5036 0.9785
4.4839 -1.7846 -2.5036 0.9785
4.6250 -1.3784 -2.5036 0.9785
4.8152 0.3223 -2.5036 0.9785
4.6818 1.1710 -2.5036 0.9785
4.5590 1.5830 -2.5036 0.9785
4.4000 1.9825 -2.5036 0.9785
3.9788 2.7313 -2.5036 0.9785
3.7199 3.0746 -2.5036 0.9785
3.4315 3.3934 -2.5036 0.9785
2.4130 4.1795 -2.5036 0.9785
1.2231 4.6685 -2.5036 0.9785
0.8027 4.7588 -2.5036 0.9785
-0.4831 4.8018 -2.5036 0.9785
-0.9085 4.7397 -2.5036 0.9785
-1.3268 4.6400 -2.5036 0.9785
-1.6631 4.3181 -2.4005 0.9794
-2.0408 4.1529 -2.4005 0.9794
-3.0655 3.4662 -2.4005 0.9794
-3.8723 2.5332 -2.4005 0.9794
-4.2601 1.8064 -2.4005 0.9794
-1.2514 0.1683 -0.6551 0.9943
-1.2613 -0.0562 -0.6550 0.9943
-1.2514 -0.1683 -0.6551 0.9943
-4.2601 -1.8064 -2.4005 0.9794
-4.0824 -2.1785 -2.4005 0.9794
-3.6315 -2.8678 -2.4005 0.9794
-3.3618 -3.1796 -2.4005 0.9794
-3.0655 -3.4662 -2.4005 0.9794
-2.7448 -3.7253 -2.4005 0.9794
-1.6631 -4.3181 -2.4005 0.9794
-0.9085 -4.7397 -2.5036 0.9785
0.8027 -4.7588 -2.5036 0.9785
1.2231 -4.6684 -2.5036 0.9785
2.0314 -4.3776 -2.5036 0.9785
4.4000 -1.9825 -2.5036 0.9785
4.5590 -1.5830 -2.5036 0.9785
4.8152 -0.3223 -2.5036 0.9785
4.8248 0.1075 -2.5036 0.9785
4.7293 0.9613 -2.5036 0.9785
4.6250 1.3784 -2.5036 0.9785
4.3073 2.1766 -2.5036 0.9785
4.0965 2.5513 -2.5036 0.9785
3.8531 2.9058 -2.5036 0.9785
3.5792 3.2372 -2.5036 0.9785
3.2769 3.5429 -2.5036 0.9785
2.9485 3.8205 -2.5036 0.9785
2.2244 4.2828 -2.5036 0.9785
1.8344 4.4638 -2.5036 0.9785
1.4298 4.6093 -2.5036 0.9785
0.5899 4.7898 -2.5036 0.9785
0.1613 4.8233 -2.5036 0.9785
-0.2687 4.8185 -2.5036 0.9785
-0.6965 4.7755 -2.5036 0.9785
-1.5322 4.5763 -2.5036 0.9785
-2.2238 4.0579 -2.4005 0.9794
-2.0369 3.0393 -1.8981 0.9836
-2.9080 3.5993 -2.4005 0.9794
-4.1754 1.9944 -2.4005 0.9794
-1.2162 0.4529 -0.6733 0.9942
-1.2283 0.3365 -0.6607 0.9943
-1.2426 0.2239 -0.6550 0.9943
-1.1899 -0.1063 -0.6543 0.9946
-1.1577 -0.3171 -0.6575 0.9945
-3.9549 -1.8891 -2.4005 0.9802
-3.7711 -2.2336 -2.4005 0.9802
-3.3153 -2.8668 -2.4005 0.9802
-2.0404 -3.0445 -2.0074 0.9834
-2.1063 -3.8436 -2.4005 0.9802
-1.4512 -4.3347 -2.5036 0.9794
0.1527 -4.5686 -2.5036 0.9794
0.5588 -4.5369 -2.5036 0.9794
1.3543 -4.3659 -2.5036 0.9794
1.7375 -4.2280 -2.5036 0.9794
2.1070 -4.0566 -2.5036 0.9794
2.4597 -3.8530 -2.5036 0.9794
2.7928 -3.6188 -2.5036 0.9794
3.1038 -3.3558 -2.5036 0.9794
4.2471 -1.6903 -2.5036 0.9794
4.3807 -1.3056 -2.5036 0.9794
4.4795 -0.9105 -2.5036 0.9794
4.5428 -0.5082 -2.5036 0.9794
4.5609 0.3053 -2.5036 0.9794
4.5157 0.7101 -2.5036 0.9794
4.3182 1.4995 -2.5036 0.9794
4.1676 1.8778 -2.5036 0.9794
3.9839 2.2413 -2.5036 0.9794
3.7686 2.5870 -2.5036 0.9794
3.5234 2.9122 -2.5036 0.9794
3.2502 3.2142 -2.5036 0.9794
1.5475 4.3012 -2.5036 0.9794
-0.4575 4.5482 -2.5036 0.9794
-1.9330 3.9336 -2.4005 0.9802
-2.2755 3.7460 -2.4005 0.9802
-2.9036 3.2831 -2.4005 0.9802
-3.1843 3.0117 -2.4005 0.9802
-3.6678 2.3994 -2.4005 0.9802
-3.8668 2.0634 -2.4005 0.9802
-1.1933 0.0532 -0.6542 0.9946
-1.1933 -0.0532 -0.6542 0.9946
-1.1840 -0.1592 -0.6543 0.9946
-1.1649 -0.2639 -0.6542 0.9946
-1.1515 -0.3713 -0.6626 0.9945
-1.1411 -0.4838 -0.6788 0.9944
-3.8668 -2.0634 -2.4005 0.9802
-3.6678 -2.3994 -2.4005 0.9802
-3.1843 -3.0117 -2.4005 0.9802
-2.9036 -3.2832 -2.4005 0.9802
-2.5999 -3.5286 -2.4005 0.9802
-1.9330 -3.9336 -2.4005 0.9802
-1.5895 -4.1270 -2.4222 0.9800
-1.2567 -4.3950 -2.5036 0.9794
-0.8606 -4.4894 -2.5036 0.9794
-0.0509 -4.5709 -2.5036 0.9794
1.5475 -4.3012 -2.5036 0.9794
2.6288 -3.7396 -2.5036 0.9794
2.9513 -3.4908 -2.5036 0.9794
3.2502 -3.2142 -2.5036 0.9794
3.5234 -2.9122 -2.5036 0.9794
3.7686 -2.5870 -2.5036 0.9794
4.1676 -1.8778 -2.5036 0.9794
4.4345 -1.1091 -2.5036 0.9794
4.5609 -0.3053 -2.5036 0.9794
4.5428 0.5082 -2.5036 0.9794
4.4795 0.9105 -2.5036 0.9794
4.3807 1.3056 -2.5036 0.9794
4.2471 1.6903 -2.5036 0.9794
3.8801 2.4166 -2.5036 0.9794
3.6497 2.7523 -2.5036 0.9794
3.1038 3.3558 -2.5036 0.9794
2.7928 3.6187 -2.5036 0.9794
2.4597 3.8530 -2.5036 0.9794
1.7375 4.2280 -2.5036 0.9794
0.9604 4.4691 -2.5036 0.9794
0.5588 4.5369 -2.5036 0.9794
0.1527 4.5686 -2.5036 0.9794
-0.2545 4.5640 -2.5036 0.9794
-1.0597 4.4466 -2.5036 0.9794
-1.4512 4.3346 -2.5036 0.9794
-2.0326 3.0329 -1.9997 0.9835
-3.3153 2.8668 -2.4005 0.9802
-3.7711 2.2336 -2.4005 0.9802
-3.9549 1.8891 -2.4005 0.9802
-1.1464 0.4269 -0.6700 0.9944
-1.1577 0.3171 -0.6575 0.9945
-1.1899 0.1063 -0.6543 0.9946
-1.1276 -0.1008 -0.6536 0.9948
-1.1141 -0.2007 -0.6536 0.9948
-1.0934 -0.2995 -0.6545 0.9948
-2.6130 -3.2342 -2.4005 0.9810
-2.0404 -3.0445 -2.1160 0.9832
-1.0053 -4.2183 -2.5036 0.9802
-0.6258 -4.2910 -2.5036 0.9802
-0.2414 -4.3297 -2.5036 0.9802
0.1449 -4.3340 -2.5036 0.9802
1.9988 -3.8483 -2.5036 0.9802
2.3334 -3.6551 -2.5036 0.9802
2.6494 -3.4329 -2.5036 0.9802
2.9445 -3.1835 -2.5036 0.9802
3.4622 -2.6110 -2.5036 0.9802
3.6809 -2.2925 -2.5036 0.9802
3.8703 -1.9558 -2.5036 0.9802
4.0290 -1.6035 -2.5036 0.9802
4.2495 -0.8637 -2.5036 0.9802
4.3095 -0.4821 -2.5036 0.9802
4.3353 -0.0966 -2.5036 0.9802
4.0965 1.4225 -2.5036 0.9802
3.5751 2.4542 -2.5036 0.9802
3.3425 2.7626 -2.5036 0.9802
2.4939 3.5475 -2.5036 0.9802
1.8253 3.9335 -2.5036 0.9802
0.7213 4.2760 -2.5036 0.9802
-0.4341 4.3146 -2.5036 0.9802
-0.8164 4.2589 -2.5036 0.9802
-1.1922 4.1693 -2.5036 0.9802
-1.5585 4.0467 -2.5036 0.9802
-3.0208 2.8570 -2.4005 0.9810
-3.4795 2.2762 -2.4005 0.9810
-3.6683 1.9574 -2.4005 0.9810
-1.0769 0.4566 -0.6753 0.9946
-1.0870 0.3505 -0.6594 0.9947
-1.1039 0.2501 -0.6535 0.9948
-1.1220 0.1509 -0.6536 0.9948
-1.1309 0.0504 -0.6536 0.9948
-1.1309 -0.0504 -0.6536 0.9948
-1.1220 -0.1509 -0.6536 0.9948
-1.1039 -0.2501 -0.6535 0.9948
-1.0769 -0.4566 -0.6753 0.9946
-3.2631 -2.5768 -2.4005 0.9810
-3.0208 -2.8570 -2.4005 0.9810
-2.7545 -3.1146 -2.4005 0.9810
-1.5585 -4.0467 -2.5036 0.9802
-0.4341 -4.3146 -2.5036 0.9802
-0.0483 -4.3362 -2.5036 0.9802
0.3378 -4.3232 -2.5036 0.9802
2.4939 -3.5476 -2.5036 0.9802
3.0833 -3.0492 -2.5036 0.9802
3.3425 -2.7627 -2.5036 0.9802
4.0965 -1.4225 -2.5036 0.9802
4.2838 -0.6736 -2.5036 0.9802
4.3353 0.0966 -2.5036 0.9802
4.2495 0.8637 -2.5036 0.9802
3.6809 2.2925 -2.5036 0.9802
2.6494 3.4329 -2.5036 0.9802
1.9988 3.8483 -2.5036 0.9802
1.6483 4.0109 -2.5036 0.9802
0.9110 4.2396 -2.5036 0.9802
0.5301 4.3039 -2.5036 0.9802
0.1449 4.3340 -2.5036 0.9802
-0.6258 4.2910 -2.5036 0.9802
-1.6657 3.8096 -2.4005 0.9810
-1.9982 3.6462 -2.4005 0.9810
-2.6130 3.2342 -2.4005 0.9810
-2.8905 2.9888 -2.4005 0.9810
-3.1451 2.7196 -2.4005 0.9810
-3.5774 2.1189 -2.4005 0.9810
-3.7518 1.7921 -2.4005 0.9810
-1.1141 0.2007 -0.6536 0.9948
-1.1276 0.1008 -0.6536 0.9948
