ply
format ascii 1.0
element vertex 1394
property float32 x
property float32 y
property float32 z
property float32 I
end_header
7.0664 -15.2277 2.9601 0.9341
12.0285 15.5858 3.4715 0.9231
7.0660 -15.2269 2.5716 0.9343
12.0285 15.5858 3.0160 0.9234
7.0657 -15.2261 2.1858 0.9345
7.0653 -15.2253 1.8024 0.9347
12.0285 15.5858 2.1141 0.9239
11.4502 16.2882 1.6854 0.9232
11.9964 15.5442 1.6622 0.9242
7.0644 -15.2234 1.0407 0.9350
11.4575 16.2986 0.7856 0.9233
7.0637 -15.2218 0.6617 0.9350
17.7860 -0.3963 0.3005 0.9313
11.4575 16.2986 0.3365 0.9234
-18.7746 6.0540 0.3332 0.9241
7.0629 -15.2202 0.2834 0.9351
12.0353 15.5945 0.3327 0.9242
17.7860 -0.3963 -0.1002 0.9313
18.1395 1.2143 -0.1024 0.9299
11.4575 16.2986 -0.1122 0.9234
-18.5806 5.9914 -0.1099 0.9249
7.0622 -15.2186 -0.0945 0.9351
17.6476 -1.1814 -0.0996 0.9317
12.0353 15.5945 -0.1109 0.9242
-18.4184 6.8591 -0.1107 0.9244
12.8979 15.2557 -0.5625 0.9232
11.4575 16.2986 -0.5610 0.9234
-18.3629 5.9213 -0.5433 0.9257
7.0614 -15.2170 -0.4724 0.9351
17.6476 -1.1814 -0.4980 0.9317
12.0353 15.5945 -0.5547 0.9242
11.4575 16.2986 -1.0104 0.9233
-18.1057 5.8383 -0.9648 0.9266
7.0607 -15.2154 -0.8507 0.9350
17.6476 -1.1814 -0.8970 0.9316
17.9263 0.3995 -0.9093 0.9307
-18.0317 6.7151 -0.9758 0.9258
10.5931 -13.7259 -1.2713 0.9328
-10.2766 13.9476 -1.2703 0.9329
-11.4232 12.9164 -1.2643 0.9332
-12.6407 11.9555 -1.2757 0.9326
-14.4122 11.3812 -1.3465 0.9290
-15.3068 10.0132 -1.3411 0.9293
-17.9758 5.7964 -1.3849 0.9270
7.0599 -15.2138 -1.2298 0.9349
17.6476 -1.1814 -1.2969 0.9315
17.9263 0.3995 -1.3147 0.9306
12.0353 15.5945 -1.4443 0.9240
-9.1892 16.7682 -1.4020 0.9262
-10.9834 13.5943 -1.2814 0.9323
-12.1443 12.5571 -1.2809 0.9323
-13.3671 11.5589 -1.2957 0.9316
-15.1658 10.9157 -1.3701 0.9278
-17.6673 8.4389 -1.4356 0.9245
-17.8069 6.6313 -1.3932 0.9266
-5.6236 -16.7968 -1.7006 0.9313
10.4619 -16.3884 -1.8666 0.9248
10.4699 -13.5663 -1.6452 0.9335
10.5723 -7.9730 -1.2713 0.9482
-8.6376 17.5770 -1.8802 0.9243
-8.9245 14.6917 -1.6503 0.9333
-13.5604 10.7086 -1.6589 0.9329
-14.6008 9.5514 -1.6750 0.9323
-16.8058 8.9679 -1.8288 0.9263
-18.0182 7.6403 -1.8789 0.9244
-17.8414 5.7531 -1.7997 0.9274
7.0592 -15.2121 -1.6100 0.9348
10.4649 -14.8866 -1.7470 0.9295
10.5246 -8.6988 -1.3109 0.9466
17.9263 0.3995 -1.7214 0.9305
-8.7874 16.0350 -1.7554 0.9292
-12.8889 11.1455 -1.6359 0.9338
-14.4221 10.3804 -1.7059 0.9311
-17.6014 8.4074 -1.8727 0.9246
-17.4670 6.5047 -1.7894 0.9278
-5.6582 -10.3248 -1.3985 0.9537
-5.6157 -12.8436 -1.6651 0.9451
10.5261 -7.9381 -1.5661 0.9483
10.5356 -3.1400 -1.3059 0.9567
17.7860 -0.3963 -2.1133 0.9308
-8.2496 16.7874 -2.2219 0.9274
-10.4791 11.8489 -1.8790 0.9383
-11.5205 10.8961 -1.8836 0.9381
-14.1334 9.2456 -2.0062 0.9342
-17.7745 7.5370 -2.2933 0.9252
-5.6192 -14.5899 -1.8572 0.9390
10.4699 -12.3838 -1.9263 0.9368
10.5346 -3.6580 -1.3247 0.9561
10.5366 -2.6354 -1.2902 0.9572
13.2878 -2.0894 -1.5978 0.9473
17.9288 0.3996 -2.1302 0.9303
12.0353 15.5945 -2.3399 0.9237
-10.7513 11.1168 -1.8370 0.9396
-12.4363 10.7540 -1.9530 0.9359
-14.7386 8.7297 -2.0348 0.9333
-17.6024 8.4080 -2.3172 0.9244
-5.6157 -12.8435 -1.9861 0.9449
-2.4486 -16.7886 -2.4039 0.9338
-0.9851 -17.6664 -2.5070 0.9310
0.5912 -17.6839 -2.5070 0.9310
2.1629 -17.5611 -2.5070 0.9310
3.7173 -17.2989 -2.5070 0.9310
5.2422 -16.8994 -2.5070 0.9310
7.8196 -15.0555 -2.4038 0.9338
9.1286 -14.2997 -2.4038 0.9338
10.4720 -11.3222 -2.1852 0.9396
10.4757 -9.4747 -2.0013 0.9445
10.7260 -4.2688 -1.6357 0.9544
10.5356 -3.1400 -1.5577 0.9566
17.0234 -1.9044 -2.4271 0.9331
16.6177 4.1564 -2.4271 0.9331
13.2034 10.9129 -2.4271 0.9331
11.0593 13.0811 -2.4271 0.9331
8.4825 14.6922 -2.4038 0.9338
7.1412 15.3889 -2.4038 0.9338
5.9899 16.6491 -2.5070 0.9310
4.4842 17.1161 -2.5070 0.9310
-0.1971 17.6927 -2.5070 0.9310
-3.1940 16.6629 -2.4039 0.9338
-7.8931 16.0620 -2.5357 0.9303
-8.2461 13.5749 -2.2505 0.9378
-10.1091 11.4305 -2.1621 0.9402
-13.6926 8.9573 -2.3183 0.9360
-17.4705 7.4081 -2.6887 0.9262
-17.4539 5.6281 -2.5984 0.9286
-5.6129 -11.4220 -1.8032 0.9499
-5.6192 -14.5899 -2.2153 0.9388
4.4842 -17.1161 -2.5070 0.9310
5.9899 -16.6491 -2.5070 0.9310
7.1412 -15.3889 -2.4038 0.9338
8.4825 -14.6922 -2.4038 0.9338
9.7566 -13.8789 -2.4038 0.9338
10.4739 -10.3579 -2.0872 0.9422
10.4828 -5.8975 -1.7042 0.9526
10.6118 -4.7814 -1.6492 0.9541
10.5297 -3.6563 -1.5793 0.9560
10.5366 -2.6354 -1.5389 0.9571
17.0913 -1.1441 -2.4271 0.9331
17.0234 1.9043 -2.4271 0.9331
16.4160 4.8925 -2.4271 0.9331
10.3651 13.4305 -2.4038 0.9338
7.8196 15.0555 -2.4038 0.9338
6.4734 15.7521 -2.4130 0.9335
5.2423 16.8994 -2.5070 0.9310
3.7173 17.2989 -2.5070 0.9310
2.1629 17.5611 -2.5070 0.9310
-0.9851 17.6663 -2.5070 0.9310
-3.9331 16.5040 -2.4039 0.9338
-5.3864 16.0885 -2.4039 0.9338
-7.6798 17.5641 -2.7161 0.9255
-8.0730 14.7314 -2.3802 0.9344
-12.0121 10.3873 -2.2501 0.9379
-5.8650 -5.0716 -1.2773 0.9691
-5.6493 -5.8413 -1.3387 0.9676
-5.6069 -8.3660 -1.6591 0.9600
-5.6106 -10.2380 -1.9233 0.9538
-5.6157 -12.8436 -2.3092 0.9448
-4.6328 -13.8374 -2.4039 0.9426
-0.8472 -15.1945 -2.5070 0.9402
0.5085 -15.2096 -2.5070 0.9402
4.5088 -14.5349 -2.5070 0.9402
6.7255 -12.9489 -2.4038 0.9426
7.8514 -12.2990 -2.4038 0.9426
8.9149 -11.5513 -2.4038 0.9426
9.9076 -10.7120 -2.4038 0.9426
10.4862 -4.1734 -1.8593 0.9553
10.4883 -3.1259 -1.8029 0.9566
10.4902 -2.1322 -1.7635 0.9575
14.7292 -0.3282 -2.4271 0.9420
14.5540 2.2885 -2.4271 0.9420
14.2926 3.5748 -2.4271 0.9420
13.9177 4.8327 -2.4271 0.9420
13.4323 6.0523 -2.4271 0.9420
11.3560 9.3860 -2.4271 0.9420
9.4206 11.1427 -2.4038 0.9426
6.4058 13.8042 -2.5070 0.9402
3.8568 14.7213 -2.5070 0.9402
-1.5233 15.1417 -2.5070 0.9402
-7.9324 13.0584 -2.5170 0.9399
-8.8474 12.0078 -2.4571 0.9413
-9.7939 11.0741 -2.4354 0.9418
-10.8040 10.2184 -2.4498 0.9415
-12.2144 9.6456 -2.5639 0.9389
-13.1545 8.6053 -2.5895 0.9383
-17.3933 5.6086 -3.0107 0.9286
-5.2446 -13.6173 -2.4039 0.9426
-4.0118 -14.0300 -2.4039 0.9426
-2.7471 -14.3314 -2.4039 0.9426
-1.5233 -15.1417 -2.5070 0.9402
-0.1695 -15.2172 -2.5070 0.9402
1.1855 -15.1719 -2.5070 0.9402
6.4058 -13.8042 -2.5070 0.9402
9.4206 -11.1427 -2.4038 0.9426
10.3750 -10.2600 -2.4038 0.9426
10.4872 -3.6416 -1.8289 0.9560
10.4893 -2.6236 -1.7812 0.9571
14.5540 -2.2885 -2.4271 0.9420
14.4376 2.9346 -2.4271 0.9420
13.1494 6.6446 -2.4271 0.9420
12.5058 7.7887 -2.4271 0.9420
11.7629 8.8708 -2.4271 0.9420
9.9076 10.7120 -2.4038 0.9426
8.9149 11.5513 -2.4038 0.9426
4.5088 14.5349 -2.5070 0.9402
0.5085 15.2096 -2.5070 0.9402
-2.1060 14.4396 -2.4039 0.9426
-3.3828 14.1948 -2.4039 0.9426
-4.6328 13.8374 -2.4039 0.9426
-7.3379 16.7823 -3.0174 0.9284
-9.4956 11.7528 -2.4891 0.9406
-11.6135 10.0426 -2.5293 0.9397
-13.7630 8.1518 -2.6352 0.9372
-16.0689 7.6755 -2.9337 0.9304
-17.0072 6.3336 -2.9897 0.9291
-5.8650 -5.0716 -1.4574 0.9689
-5.6493 -5.8413 -1.5274 0.9675
-5.6040 -6.9362 -1.6761 0.9644
-5.6069 -8.3660 -1.8930 0.9598
-5.6106 -10.2380 -2.1944 0.9536
-5.1238 -11.7183 -2.4039 0.9493
-4.0604 -12.1279 -2.4039 0.9493
-0.7426 -13.3173 -2.5070 0.9472
0.4457 -13.3306 -2.5070 0.9472
1.6304 -13.2380 -2.5070 0.9472
6.1478 -11.8367 -2.5070 0.9472
6.8814 -10.7795 -2.4038 0.9493
7.8135 -10.1242 -2.4038 0.9493
10.2106 -7.7002 -2.4038 0.9493
10.4883 -3.1259 -2.0571 0.9564
10.4902 -2.1322 -2.0121 0.9574
12.9095 -0.2877 -2.4271 0.9488
11.2539 6.3314 -2.4271 0.9488
9.0932 8.9925 -2.4038 0.9493
6.4686 11.2040 -2.4317 0.9487
4.5153 12.5505 -2.5070 0.9472
2.2185 13.1522 -2.5070 0.9472
1.0391 13.2975 -2.5070 0.9472
-0.1486 13.3372 -2.5070 0.9472
-1.3351 13.2710 -2.5070 0.9472
-2.4077 12.5609 -2.4039 0.9493
-3.5161 12.2967 -2.4039 0.9493
-4.5967 11.9350 -2.4039 0.9493
-5.5005 6.2195 -1.5606 0.9668
-10.4769 9.9089 -2.7105 0.9430
-15.3570 6.5119 -3.1353 0.9344
-17.2090 5.5492 -3.3986 0.9290
-5.6054 -7.6077 -1.7762 0.9623
-5.6129 -11.4220 -2.3921 0.9495
-3.5161 -12.2967 -2.4039 0.9493
-2.4077 -12.5609 -2.4039 0.9493
-0.1486 -13.3372 -2.5070 0.9472
1.0391 -13.2975 -2.5070 0.9472
5.6144 -12.0988 -2.5070 0.9472
7.3547 -10.4622 -2.4038 0.9493
9.0932 -8.9925 -2.4038 0.9493
10.4802 -7.1943 -2.3893 0.9496
10.4872 -3.6416 -2.0866 0.9558
10.4893 -2.6236 -2.0323 0.9569
12.8838 -0.8625 -2.4271 0.9488
12.8326 1.4355 -2.4271 0.9488
12.3748 3.6881 -2.4271 0.9488
11.5248 5.8237 -2.4271 0.9488
10.2106 7.7002 -2.4038 0.9493
9.4848 8.5784 -2.4038 0.9493
8.6836 9.3886 -2.4038 0.9493
7.8135 10.1242 -2.4038 0.9493
5.0699 12.3369 -2.5070 0.9472
3.9517 12.7392 -2.5070 0.9472
2.8022 13.0403 -2.5070 0.9472
1.6304 13.2380 -2.5070 0.9472
-0.7426 13.3173 -2.5070 0.9472
-2.9649 12.4411 -2.4039 0.9493
-5.1237 11.7184 -2.4039 0.9493
-7.4605 13.6137 -2.9179 0.9388
-11.2430 9.7222 -2.7938 0.9413
-11.9460 8.5982 -2.7665 0.9419
-13.2922 7.8730 -2.9038 0.9391
-15.9960 5.9570 -3.2083 0.9329
-18.9264 5.1845 -3.6885 0.9232
-5.6842 -4.9153 -1.5885 0.9697
-5.6040 -6.9362 -1.8849 0.9642
-4.5561 -10.4200 -2.4039 0.9546
-3.6106 -10.7842 -2.4039 0.9546
3.5139 -11.3278 -2.5070 0.9527
4.5082 -10.9701 -2.5070 0.9527
8.4339 -7.6280 -2.4038 0.9546
9.0794 -6.8471 -2.4038 0.9546
10.4862 -4.1734 -2.3857 0.9549
10.4883 -3.1258 -2.3134 0.9562
11.4792 -0.2558 -2.4271 0.9541
11.4564 0.7669 -2.4271 0.9541
11.3427 1.7836 -2.4271 0.9541
11.1389 2.7860 -2.4271 0.9541
10.8468 3.7664 -2.4271 0.9541
9.9110 5.5758 -2.4038 0.9546
8.7654 7.2448 -2.4038 0.9546
8.0858 7.9962 -2.4038 0.9546
5.9301 10.2713 -2.5070 0.9527
3.0058 11.4731 -2.5070 0.9527
1.9727 11.6951 -2.5070 0.9527
0.9240 11.8242 -2.5070 0.9527
-4.0874 10.6127 -2.4039 0.9546
-5.0157 10.2068 -2.4039 0.9546
-8.0644 10.9451 -2.8737 0.9459
-5.5006 5.2025 -1.6004 0.9695
-11.8016 7.7203 -2.9810 0.9440
-13.7484 5.8298 -3.1566 0.9408
-5.6109 -5.3068 -1.6325 0.9689
-5.6086 -9.2330 -2.2835 0.9568
-5.0157 -10.2068 -2.4039 0.9546
-4.0874 -10.6127 -2.4039 0.9546
-3.1266 -10.9343 -2.4039 0.9546
-2.1410 -11.1692 -2.4039 0.9546
-1.1872 -11.8007 -2.5070 0.9527
3.0058 -11.4731 -2.5070 0.9527
5.9301 -10.2713 -2.5070 0.9527
7.3420 -8.6841 -2.4038 0.9546
9.9110 -5.5758 -2.4038 0.9546
10.3680 -4.6716 -2.4038 0.9546
10.4872 -3.6416 -2.3466 0.9556
11.0038 3.2795 -2.4271 0.9541
10.6682 4.2458 -2.4271 0.9541
9.6528 6.0118 -2.4038 0.9546
9.0794 6.8471 -2.4038 0.9546
8.4339 7.6280 -2.4038 0.9546
7.7215 8.3484 -2.4038 0.9546
6.9478 9.0025 -2.4038 0.9546
6.3818 9.9969 -2.5070 0.9527
5.4667 10.5253 -2.5070 0.9527
4.5082 10.9701 -2.5070 0.9527
2.4917 11.5956 -2.5070 0.9527
1.4498 11.7713 -2.5070 0.9527
-1.6413 11.2535 -2.4039 0.9546
-2.6364 11.0628 -2.4039 0.9546
-4.5561 10.4201 -2.4039 0.9546
-5.4654 9.9732 -2.4039 0.9546
-7.7482 11.5612 -2.9419 0.9447
-8.4588 10.4696 -2.8451 0.9465
-9.5058 9.8289 -2.8903 0.9456
-11.4353 8.2306 -2.9782 0.9440
-17.5903 4.8185 -3.8552 0.9281
-5.6952 -4.0992 -1.6492 0.9716
-5.6017 -5.7922 -1.8938 0.9674
-5.6040 -6.9362 -2.0957 0.9640
-4.9156 -8.9699 -2.4039 0.9588
-3.2474 -9.6993 -2.4039 0.9588
-1.5395 -10.5555 -2.5070 0.9571
0.3564 -10.6612 -2.5070 0.9571
1.3039 -10.5871 -2.5070 0.9571
4.0547 -9.8665 -2.5070 0.9571
4.9167 -9.4664 -2.5070 0.9571
5.7398 -8.9913 -2.5070 0.9571
6.4630 -8.3743 -2.4861 0.9575
6.9447 -7.5086 -2.4038 0.9588
7.5855 -6.8607 -2.4038 0.9588
8.6817 -5.4070 -2.4038 0.9588
9.5029 -3.7821 -2.4038 0.9588
9.8018 -2.9212 -2.4038 0.9588
10.2050 0.6831 -2.4038 0.9588
10.1037 1.5887 -2.4038 0.9588
9.9222 2.4817 -2.4038 0.9588
9.3249 4.2016 -2.4038 0.9588
7.8836 6.5159 -2.4038 0.9588
7.2723 7.1918 -2.4038 0.9588
6.6034 7.8105 -2.4038 0.9588
5.3336 9.2380 -2.5070 0.9571
3.6111 10.0373 -2.5070 0.9571
2.7034 10.3189 -2.5070 0.9571
0.8310 10.6347 -2.5070 0.9571
-1.0677 10.6136 -2.5070 0.9571
-1.9256 10.0456 -2.4039 0.9588
-2.8120 9.8344 -2.4039 0.9588
-3.6762 9.5450 -2.4039 0.9588
-4.5112 9.1800 -2.4039 0.9588
-9.4208 8.9102 -3.0475 0.9481
-10.1333 8.0022 -3.0346 0.9483
-11.7634 6.2771 -3.1337 0.9467
-12.6144 5.3490 -3.2202 0.9453
-13.9596 4.5014 -3.4472 0.9415
-17.9241 4.0611 -4.3193 0.9273
-5.8721 -3.8414 -1.6492 0.9716
-5.6008 -5.2972 -1.8118 0.9688
-5.6028 -6.3352 -1.9877 0.9658
-5.6054 -7.6076 -2.2209 0.9619
-4.5112 -9.1800 -2.4039 0.9588
-3.6762 -9.5450 -2.4039 0.9588
-2.8121 -9.8344 -2.4039 0.9588
-1.9256 -10.0456 -2.4039 0.9588
-1.0677 -10.6136 -2.5070 0.9571
0.8310 -10.6347 -2.5070 0.9571
1.7743 -10.5186 -2.5070 0.9571
3.6111 -10.0373 -2.5070 0.9571
4.4902 -9.6761 -2.5070 0.9571
6.6034 -7.8105 -2.4038 0.9588
8.9140 -5.0149 -2.4038 0.9588
6.7986 -3.0633 -1.7525 0.9698
9.6619 -3.3550 -2.4038 0.9588
10.1037 -1.5887 -2.4038 0.9588
10.0229 2.0372 -2.4038 0.9588
9.8018 2.9212 -2.4038 0.9588
6.9447 7.5086 -2.4038 0.9588
6.4630 8.3743 -2.4861 0.9575
5.7398 8.9912 -2.5070 0.9571
4.9168 9.4664 -2.5070 0.9571
4.0547 9.8665 -2.5070 0.9571
2.2411 10.4291 -2.5070 0.9571
1.3039 10.5871 -2.5070 0.9571
-1.5395 10.5555 -2.5070 0.9571
-2.3712 9.9499 -2.4039 0.9588
-4.0977 9.3718 -2.4039 0.9588
-4.9156 8.9699 -2.4039 0.9588
-7.2032 10.7480 -3.0408 0.9482
-7.9721 9.8672 -2.9813 0.9492
-9.7595 8.4394 -3.0324 0.9484
-5.5009 3.9593 -1.5929 0.9725
-12.1465 5.8019 -3.1637 0.9462
-15.4431 4.2303 -3.7632 0.9363
-5.9689 -2.2229 -1.6492 0.9740
-5.5968 -3.3150 -1.6842 0.9735
-5.6017 -5.7922 -2.0863 0.9673
-5.1690 -7.7126 -2.4039 0.9624
-2.1523 -9.0316 -2.4039 0.9624
-0.5391 -9.6677 -2.5070 0.9608
2.0342 -9.4666 -2.5070 0.9608
3.6805 -8.9559 -2.5070 0.9608
5.2101 -8.1615 -2.5070 0.9608
6.8854 -6.2275 -2.4038 0.9624
7.4124 -5.5900 -2.4038 0.9624
8.2861 -4.1871 -2.4038 0.9624
8.8972 -2.6516 -2.4038 0.9624
9.2264 -1.0321 -2.4038 0.9624
9.1712 1.4421 -2.4038 0.9624
8.7702 3.0454 -2.4038 0.9624
7.1560 5.9146 -2.4038 0.9624
4.0758 8.7831 -2.5070 0.9608
3.2779 9.1110 -2.5070 0.9608
1.6105 9.5478 -2.5070 0.9608
0.7543 9.6533 -2.5070 0.9608
-0.9692 9.6341 -2.5070 0.9608
-1.7479 9.1185 -2.4039 0.9624
-4.0948 8.3328 -2.4039 0.9624
-4.8203 7.9352 -2.4039 0.9624
-5.5074 7.4747 -2.4039 0.9624
-8.6301 8.1623 -3.0756 0.9521
-10.8790 5.8052 -3.1927 0.9503
-15.2546 3.4562 -4.0498 0.9374
-5.8640 -2.4866 -1.6492 0.9740
-5.6028 -6.3352 -2.1898 0.9657
-5.5074 -7.4747 -2.4039 0.9624
-4.8203 -7.9352 -2.4039 0.9624
-4.0948 -8.3328 -2.4039 0.9624
-2.5525 -8.9268 -2.4039 0.9624
-0.1079 -9.6821 -2.5070 0.9608
0.7543 -9.6533 -2.5070 0.9608
4.0758 -8.7831 -2.5070 0.9608
4.8413 -8.3854 -2.5070 0.9608
5.5685 -7.9213 -2.5070 0.9608
7.1560 -5.9146 -2.4038 0.9624
7.6540 -5.2542 -2.4038 0.9624
6.7821 -3.0559 -1.9260 0.9697
9.1712 -1.4421 -2.4038 0.9624
9.2632 -0.6201 -2.4038 0.9624
9.2816 0.2068 -2.4038 0.9624
9.0979 1.8492 -2.4038 0.9624
8.8972 2.6516 -2.4038 0.9624
8.6259 3.4330 -2.4038 0.9624
7.4124 5.5900 -2.4038 0.9624
6.8854 6.2275 -2.4038 0.9624
6.4630 6.9877 -2.4645 0.9614
4.4630 8.5928 -2.5070 0.9608
2.0343 9.4666 -2.5070 0.9608
1.1836 9.6101 -2.5070 0.9608
-2.9477 8.8042 -2.4039 0.9624
-4.4620 8.1421 -2.4039 0.9624
-5.5238 6.8369 -2.2758 0.9643
-8.2432 8.5234 -3.0701 0.9522
-9.0023 7.7846 -3.0814 0.9520
-9.8036 7.0562 -3.1274 0.9513
-5.5017 -0.0000 -1.5575 0.9774
-5.5944 -2.0834 -1.6900 0.9755
-5.5956 -2.6728 -1.7555 0.9746
-5.5968 -3.3150 -1.8415 0.9733
-5.5982 -4.0294 -1.9526 0.9717
-5.6017 -5.7922 -2.2811 0.9671
-5.3366 -6.6052 -2.4039 0.9653
-2.6959 -8.0524 -2.4039 0.9653
-1.9685 -8.2603 -2.4039 0.9653
-1.2781 -8.7631 -2.5070 0.9639
-0.4930 -8.8421 -2.5070 0.9639
0.2959 -8.8509 -2.5070 0.9639
1.0825 -8.7894 -2.5070 0.9639
1.8605 -8.6582 -2.5070 0.9639
4.0819 -7.8590 -2.5070 0.9639
4.7652 -7.4645 -2.5070 0.9639
6.4630 -5.8454 -2.4670 0.9644
6.7794 -5.1126 -2.4038 0.9653
8.1374 -2.4252 -2.4038 0.9653
8.3210 -1.6913 -2.4038 0.9653
8.4385 -0.9440 -2.4038 0.9653
8.4721 0.5671 -2.4038 0.9653
8.3880 1.3190 -2.4038 0.9653
8.0213 2.7853 -2.4038 0.9653
7.4004 4.1634 -2.4038 0.9653
7.0004 4.8055 -2.4038 0.9653
6.5449 5.4095 -2.4038 0.9653
5.0930 7.2448 -2.5070 0.9639
4.4279 7.6694 -2.5070 0.9639
3.7277 8.0330 -2.5070 0.9639
2.2444 8.5667 -2.5070 0.9639
1.4730 8.7325 -2.5070 0.9639
-0.0987 8.8553 -2.5070 0.9639
-0.8864 8.8114 -2.5070 0.9639
-1.5986 8.3398 -2.4039 0.9653
-2.3346 8.1645 -2.4039 0.9653
-3.0520 7.9243 -2.4039 0.9653
-4.4086 7.2576 -2.4039 0.9653
-7.9553 7.5240 -3.0998 0.9555
-9.5060 6.2186 -3.2157 0.9539
-5.5015 0.7398 -1.5715 0.9772
-5.5016 -0.2454 -1.5590 0.9774
-5.5017 -0.7399 -1.5715 0.9772
-5.6915 -1.8353 -1.6929 0.9754
-5.5950 -2.3725 -1.7204 0.9751
-5.5962 -2.9862 -1.7957 0.9740
-5.5975 -3.6617 -1.8936 0.9726
-5.6008 -5.2972 -2.1824 0.9685
-5.0371 -6.8364 -2.4039 0.9653
-3.0520 -7.9243 -2.4039 0.9653
-2.3346 -8.1645 -2.4039 0.9653
-0.8864 -8.8113 -2.5070 0.9639
-0.0987 -8.8553 -2.5070 0.9639
0.6899 -8.8289 -2.5070 0.9639
1.4730 -8.7325 -2.5070 0.9639
2.9979 -8.3329 -2.5070 0.9639
4.4279 -7.6694 -2.5070 0.9639
5.0930 -7.2448 -2.5070 0.9639
5.7176 -6.7628 -2.5070 0.9639
6.2968 -6.2271 -2.5070 0.9639
6.5449 -5.4095 -2.4038 0.9653
7.0004 -4.8055 -2.4038 0.9653
8.2373 -2.0603 -2.4038 0.9653
8.4890 0.1892 -2.4038 0.9653
8.3210 1.6913 -2.4038 0.9653
6.4630 5.8454 -2.4670 0.9644
4.0819 7.8590 -2.5070 0.9639
3.3662 8.1911 -2.5070 0.9639
1.8605 8.6582 -2.5070 0.9639
0.2959 8.8509 -2.5070 0.9639
-0.4930 8.8421 -2.5070 0.9639
-1.9685 8.2604 -2.4039 0.9653
-4.0809 7.4468 -2.4039 0.9653
-5.5079 4.7629 -2.0614 0.9702
-9.1484 6.5846 -3.1909 0.9542
-5.5082 3.2625 -1.8123 0.9737
-12.5534 3.4388 -3.6847 0.9473
-5.5014 0.9911 -1.5825 0.9770
-5.5015 0.4916 -1.5636 0.9773
-18.9217 -1.6909 -5.8431 0.9236
-5.5944 -2.0834 -1.8362 0.9753
-5.5968 -3.3150 -2.0008 0.9731
-5.5982 -4.0294 -2.1215 0.9715
-5.5999 -4.8424 -2.2771 0.9695
-5.4334 -5.6181 -2.4039 0.9678
-4.9118 -6.0794 -2.4039 0.9678
-4.3512 -6.4924 -2.4039 0.9678
-3.1311 -7.1611 -2.4039 0.9678
-2.4813 -7.4113 -2.4039 0.9678
-1.1763 -8.0655 -2.5070 0.9665
0.9963 -8.0897 -2.5070 0.9665
1.7124 -7.9689 -2.5070 0.9665
3.0982 -7.5391 -2.5070 0.9665
4.3858 -6.8703 -2.5070 0.9665
5.5345 -5.9838 -2.5070 0.9665
6.0451 -5.4674 -2.5070 0.9665
6.6338 -4.1316 -2.4038 0.9678
7.2612 -2.8899 -2.4038 0.9678
7.6585 -1.5567 -2.4038 0.9678
7.7977 0.5220 -2.4038 0.9678
7.3827 2.5636 -2.4038 0.9678
7.1253 3.2105 -2.4038 0.9678
5.2624 6.2244 -2.5070 0.9665
4.6875 6.6681 -2.5070 0.9665
4.0754 7.0588 -2.5070 0.9665
3.4310 7.3936 -2.5070 0.9665
2.0657 7.8847 -2.5070 0.9665
1.3557 8.0373 -2.5070 0.9665
-2.1487 7.5145 -2.4039 0.9678
-2.8090 7.2934 -2.4039 0.9678
-3.4470 7.0145 -2.4039 0.9678
-4.0577 6.6798 -2.4039 0.9678
-7.4781 7.0728 -3.1659 0.9578
-9.6239 5.1354 -3.3552 0.9554
-10.3871 4.4045 -3.4702 0.9539
-11.1842 3.6064 -3.6144 0.9520
-5.5014 1.2464 -1.7350 0.9767
-18.8728 0.8416 -5.8106 0.9240
-5.5962 -2.9862 -1.9510 0.9738
-5.6008 -5.2972 -2.3711 0.9683
-5.1777 -5.8546 -2.4039 0.9678
-4.0577 -6.6798 -2.4039 0.9678
-2.8090 -7.2934 -2.4039 0.9678
-2.1487 -7.5145 -2.4039 0.9678
-1.5345 -8.0051 -2.5070 0.9665
-0.8159 -8.1099 -2.5070 0.9665
0.6350 -8.1261 -2.5070 0.9665
1.3557 -8.0373 -2.5070 0.9665
3.4310 -7.3936 -2.5070 0.9665
5.2624 -6.2244 -2.5070 0.9665
5.7955 -5.7313 -2.5070 0.9665
6.8112 -3.8319 -2.4038 0.9678
6.7821 -3.0559 -2.2880 0.9693
7.5816 -1.8963 -2.4038 0.9678
7.7977 -0.5220 -2.4038 0.9678
7.4896 2.2321 -2.4038 0.9678
7.2612 2.8899 -2.4038 0.9678
6.4630 4.8740 -2.4898 0.9667
6.0451 5.4675 -2.5070 0.9665
5.5345 5.9838 -2.5070 0.9665
4.9799 6.4526 -2.5070 0.9665
4.3858 6.8703 -2.5070 0.9665
3.7569 7.2334 -2.5070 0.9665
3.0982 7.5391 -2.5070 0.9665
1.7124 7.9689 -2.5070 0.9665
0.2724 8.1463 -2.5070 0.9665
-1.1763 8.0655 -2.5070 0.9665
-1.8118 7.6028 -2.4039 0.9678
-2.4813 7.4113 -2.4039 0.9678
-3.7561 6.8539 -2.4039 0.9678
-4.3512 6.4924 -2.4039 0.9678
-4.9118 6.0794 -2.4039 0.9678
-5.4334 5.6181 -2.4039 0.9678
-9.2414 5.4737 -3.3036 0.9560
-10.0045 4.7787 -3.4102 0.9547
-10.7854 4.0165 -3.5399 0.9530
-11.8005 3.2325 -3.7633 0.9501
-14.1571 2.5505 -4.4245 0.9416
-5.5944 -2.0834 -1.9844 0.9752
-5.5968 -3.3150 -2.1623 0.9730
-5.5982 -4.0294 -2.2928 0.9713
-5.4703 -4.7304 -2.4039 0.9700
-5.0276 -5.1985 -2.4039 0.9700
-4.5449 -5.6253 -2.4039 0.9700
-2.8973 -6.6262 -2.4039 0.9700
-1.6765 -7.0349 -2.4039 0.9700
-0.4199 -7.5304 -2.5070 0.9687
0.2520 -7.5379 -2.5070 0.9687
0.9219 -7.4855 -2.5070 0.9687
1.5845 -7.3737 -2.5070 0.9687
4.0583 -6.3571 -2.5070 0.9687
4.6080 -5.9707 -2.5070 0.9687
5.1211 -5.5369 -2.5070 0.9687
5.5936 -5.0591 -2.5070 0.9687
7.0865 -1.4404 -2.4038 0.9700
7.2296 -0.1611 -2.4038 0.9700
7.2153 0.4830 -2.4038 0.9700
7.1437 1.1233 -2.4038 0.9700
7.0153 1.7546 -2.4038 0.9700
6.5931 2.9707 -2.4038 0.9700
6.4630 3.6360 -2.4650 0.9692
5.3627 5.3033 -2.5070 0.9687
3.7710 6.5316 -2.5070 0.9687
1.9114 7.2958 -2.5070 0.9687
-0.0840 7.5416 -2.5070 0.9687
-0.7549 7.5042 -2.5070 0.9687
-2.5992 6.7487 -2.4039 0.9700
-4.7910 5.4173 -2.4039 0.9700
-9.1184 4.8657 -3.4355 0.9574
-5.5014 1.2464 -1.8750 0.9765
-15.8967 2.1379 -5.3317 0.9346
-18.8514 -0.8407 -6.2726 0.9235
-5.6915 -1.8353 -1.9878 0.9751
-5.5950 -2.3725 -2.0201 0.9747
-5.5975 -3.6617 -2.2234 0.9722
-5.5990 -4.4215 -2.3715 0.9704
-3.7546 -6.1809 -2.4039 0.9700
-3.1896 -6.4905 -2.4039 0.9700
-2.5992 -6.7487 -2.4039 0.9700
-1.4198 -7.4072 -2.5070 0.9687
0.5876 -7.5191 -2.5070 0.9687
2.5532 -7.0967 -2.5070 0.9687
3.7710 -6.5316 -2.5070 0.9687
5.3627 -5.3032 -2.5070 0.9687
6.2180 -4.2684 -2.5070 0.9687
6.4630 -3.6360 -2.4650 0.9692
6.5931 -2.9707 -2.4038 0.9700
6.8313 -2.3721 -2.4038 0.9700
7.2153 -0.4830 -2.4038 0.9700
7.2296 0.1611 -2.4038 0.9700
7.0865 1.4404 -2.4038 0.9700
6.7189 2.6740 -2.4038 0.9700
6.4739 3.2714 -2.4111 0.9699
6.0217 4.5412 -2.5070 0.9687
5.5936 5.0591 -2.5070 0.9687
4.6080 5.9707 -2.5070 0.9687
3.4763 6.6931 -2.5070 0.9687
2.8668 6.9760 -2.5070 0.9687
2.2345 7.2034 -2.5070 0.9687
1.5845 7.3737 -2.5070 0.9687
-2.8973 6.6262 -2.4039 0.9700
-9.4726 4.5247 -3.4895 0.9567
-5.5084 2.0513 -1.9539 0.9755
-12.7820 2.3028 -4.3172 0.9467
-18.5263 1.6555 -6.1828 0.9246
-5.5944 -2.0834 -2.1348 0.9750
-5.5968 -3.3150 -2.3262 0.9727
-5.0848 -4.3970 -2.4039 0.9718
-3.2306 -5.8951 -2.4039 0.9718
-2.6931 -6.1592 -2.4039 0.9718
-2.1342 -6.3745 -2.4039 0.9718
-1.5850 -6.6509 -2.4450 0.9714
-1.0118 -6.9371 -2.5070 0.9707
-0.3903 -6.9997 -2.5070 0.9707
0.2343 -7.0066 -2.5070 0.9707
1.4729 -6.8541 -2.5070 0.9707
2.0771 -6.6958 -2.5070 0.9707
2.6648 -6.4844 -2.5070 0.9707
3.7723 -5.9091 -2.5070 0.9707
4.2832 -5.5499 -2.5070 0.9707
5.1994 -4.7026 -2.5070 0.9707
6.6802 -0.7473 -2.4038 0.9718
6.7202 -0.1498 -2.4038 0.9718
6.7068 0.4490 -2.4038 0.9718
6.5209 1.6310 -2.4038 0.9718
6.4647 2.2448 -2.4472 0.9713
6.3917 2.8800 -2.5070 0.9707
6.1100 3.4374 -2.5070 0.9707
5.7798 3.9676 -2.5070 0.9707
5.4037 4.4663 -2.5070 0.9707
4.0317 5.7352 -2.5070 0.9707
3.5053 6.0713 -2.5070 0.9707
2.3733 6.5966 -2.5070 0.9707
1.7767 6.7817 -2.5070 0.9707
1.1661 6.9129 -2.5070 0.9707
-0.0781 7.0101 -2.5070 0.9707
-0.7017 6.9753 -2.5070 0.9707
-1.8481 6.4632 -2.4039 0.9718
-2.4160 6.2731 -2.4039 0.9718
-2.9648 6.0332 -2.4039 0.9718
-3.9875 5.4119 -2.4039 0.9718
-4.4534 5.0355 -2.4039 0.9718
-5.2756 4.1661 -2.4039 0.9718
-7.9872 5.2250 -3.4131 0.9603
-8.6551 4.6185 -3.5082 0.9592
-10.0652 3.2456 -3.7819 0.9561
-5.5014 1.2464 -2.0172 0.9763
-13.1051 1.7625 -4.7287 0.9454
-18.5308 -0.8264 -6.6334 0.9242
-18.6325 -2.5059 -6.7231 0.9232
-5.5090 -1.2482 -2.0200 0.9763
-5.5962 -2.9862 -2.2683 0.9734
-5.5975 -3.6617 -2.3920 0.9720
-5.2756 -4.1661 -2.4039 0.9718
-4.8839 -4.6192 -2.4039 0.9718
-3.4900 -5.7453 -2.4039 0.9718
-2.4160 -6.2731 -2.4039 0.9718
-1.8481 -6.4632 -2.4039 0.9718
-1.3198 -6.8852 -2.5070 0.9707
-0.7017 -6.9753 -2.5070 0.9707
0.5461 -6.9892 -2.5070 0.9707
1.7767 -6.7817 -2.5070 0.9707
2.9510 -6.3592 -2.5070 0.9707
4.9847 -4.9295 -2.5070 0.9707
5.4037 -4.4663 -2.5070 0.9707
6.3917 -2.8799 -2.5070 0.9707
6.4647 -2.2448 -2.4472 0.9713
6.6402 -1.0441 -2.4038 0.9718
6.7068 -0.4490 -2.4038 0.9718
6.6802 0.7473 -2.4038 0.9718
6.5871 1.3389 -2.4038 0.9718
6.4728 1.9291 -2.4153 0.9717
6.2570 3.1618 -2.5070 0.9707
5.9508 3.7062 -2.5070 0.9707
5.5973 4.2211 -2.5070 0.9707
5.1994 4.7026 -2.5070 0.9707
4.7602 5.1467 -2.5070 0.9707
2.6648 6.4843 -2.5070 0.9707
2.0771 6.6958 -2.5070 0.9707
1.4729 6.8541 -2.5070 0.9707
0.2343 7.0066 -2.5070 0.9707
-1.0118 6.9371 -2.5070 0.9707
-1.5850 6.6509 -2.4450 0.9714
-2.1342 6.3745 -2.4039 0.9718
-2.6931 6.1592 -2.4039 0.9718
-3.2306 5.8951 -2.4039 0.9718
-3.7425 5.5842 -2.4039 0.9718
-4.2246 5.2289 -2.4039 0.9718
-5.4560 3.9270 -2.4039 0.9718
-8.9850 4.2918 -3.5608 0.9586
-10.5379 2.8866 -3.9073 0.9546
-11.7772 2.1218 -4.2794 0.9504
-5.0914 -3.6645 -2.4039 0.9735
-4.7450 -4.1031 -2.4039 0.9735
-3.4924 -5.2110 -2.4039 0.9735
-3.0147 -5.5011 -2.4039 0.9735
-1.9916 -5.9485 -2.4039 0.9735
-1.5166 -6.3638 -2.5070 0.9724
-0.9441 -6.4735 -2.5070 0.9724
1.3744 -6.3960 -2.5070 0.9724
1.9382 -6.2483 -2.5070 0.9724
3.0154 -5.8056 -2.5070 0.9724
3.9970 -5.1790 -2.5070 0.9724
4.8519 -4.3883 -2.5070 0.9724
5.8389 -2.9505 -2.5070 0.9724
6.2695 -1.8685 -2.5070 0.9724
6.4109 -1.3031 -2.5070 0.9724
6.4630 -0.7230 -2.4922 0.9725
6.4630 1.0163 -2.5072 0.9724
6.3465 1.5874 -2.5070 0.9724
6.1800 2.1459 -2.5070 0.9724
5.9645 2.6875 -2.5070 0.9724
5.3935 3.7024 -2.5070 0.9724
4.6516 4.6001 -2.5070 0.9724
2.7538 5.9342 -2.5070 0.9724
2.2147 6.1558 -2.5070 0.9724
1.0881 6.4509 -2.5070 0.9724
0.5096 6.5221 -2.5070 0.9724
-0.0729 6.5416 -2.5070 0.9724
-0.6548 6.5092 -2.5070 0.9724
-1.2316 6.4251 -2.5070 0.9724
-1.7246 6.0313 -2.4039 0.9735
-2.2546 5.8539 -2.4039 0.9735
-2.7666 5.6300 -2.4039 0.9735
-3.2568 5.3614 -2.4039 0.9735
-3.7210 5.0502 -2.4039 0.9735
-4.1558 4.6990 -2.4039 0.9735
-4.5575 4.3104 -2.4039 0.9735
-5.2495 3.4341 -2.4039 0.9735
-5.5080 2.3356 -2.2927 0.9747
-9.5901 3.0924 -3.8614 0.9578
-18.4031 0.8206 -7.0594 0.9241
-18.5137 -0.8256 -7.1019 0.9237
-5.5950 -2.3725 -2.3289 0.9743
-5.2495 -3.4341 -2.4039 0.9735
-4.1558 -4.6990 -2.4039 0.9735
-2.7666 -5.6300 -2.4039 0.9735
-2.2546 -5.8538 -2.4039 0.9735
-1.7246 -6.0313 -2.4039 0.9735
-0.6548 -6.5092 -2.5070 0.9724
0.5096 -6.5221 -2.5070 0.9724
2.2147 -6.1558 -2.5070 0.9724
3.2710 -5.6655 -2.5070 0.9724
4.6516 -4.6001 -2.5070 0.9724
5.3935 -3.7024 -2.5070 0.9724
6.1801 -2.1460 -2.5070 0.9724
6.3465 -1.5874 -2.5070 0.9724
6.4630 -0.4326 -2.4823 0.9726
6.4630 0.1440 -2.4773 0.9727
6.2695 1.8685 -2.5070 0.9724
5.8389 2.9505 -2.5070 0.9724
5.2232 3.9390 -2.5070 0.9724
3.0154 5.8056 -2.5070 0.9724
2.4867 6.0510 -2.5070 0.9724
1.9382 6.2483 -2.5070 0.9724
0.7997 6.4930 -2.5070 0.9724
-1.5166 6.3638 -2.5070 0.9724
-2.5131 5.7476 -2.4039 0.9735
-3.4924 5.2110 -2.4039 0.9735
-4.3610 4.5092 -2.4039 0.9735
-4.7450 4.1032 -2.4039 0.9735
-5.3973 3.1969 -2.4039 0.9735
-11.0938 1.9987 -4.3198 0.9529
-14.1855 1.2676 -5.4578 0.9408
-17.9724 0.0000 -7.3557 0.9253
-1.6200 -0.2919 -0.6737 0.9929
-1.6035 -0.4392 -0.6804 0.9928
-5.5043 -2.0498 -2.4039 0.9749
-5.0537 -2.9933 -2.4039 0.9749
-4.7672 -3.4312 -2.4039 0.9749
-3.2700 -4.8792 -2.4039 0.9749
-1.4200 -5.9587 -2.5070 0.9739
-0.8840 -6.0614 -2.5070 0.9739
-0.3410 -6.1160 -2.5070 0.9739
0.2047 -6.1221 -2.5070 0.9739
0.7488 -6.0796 -2.5070 0.9739
1.2869 -5.9888 -2.5070 0.9739
1.8148 -5.8505 -2.5070 0.9739
3.2960 -5.1631 -2.5070 0.9739
4.1593 -4.4970 -2.5070 0.9739
4.5430 -4.1089 -2.5070 0.9739
5.4671 -2.7627 -2.5070 0.9739
6.1118 0.4091 -2.5070 0.9739
5.7866 2.0093 -2.5070 0.9739
5.5848 2.5164 -2.5070 0.9739
5.0501 3.4667 -2.5070 0.9739
4.3555 4.3072 -2.5070 0.9739
3.9548 4.6778 -2.5070 0.9739
3.5228 5.0112 -2.5070 0.9739
2.0737 5.7638 -2.5070 0.9739
1.5524 5.9255 -2.5070 0.9739
1.0189 6.0402 -2.5070 0.9739
0.4772 6.1069 -2.5070 0.9739
-0.0682 6.1252 -2.5070 0.9739
-2.1110 5.4812 -2.4039 0.9749
-3.4841 4.7287 -2.4039 0.9749
-3.8912 4.3998 -2.4039 0.9749
-4.2673 4.0360 -2.4039 0.9749
-4.9153 3.2155 -2.4039 0.9749
-1.6146 0.3658 -0.6776 0.9929
-1.6301 0.2192 -0.6732 0.9929
-18.2530 0.8139 -7.4779 0.9241
-1.6301 -0.2192 -0.6732 0.9929
-1.6146 -0.3658 -0.6776 0.9929
-5.4076 -2.2930 -2.4039 0.9749
-4.9153 -3.2155 -2.4039 0.9749
-2.5905 -5.2715 -2.4039 0.9749
-1.6148 -5.6473 -2.4039 0.9749
-1.1532 -6.0160 -2.5070 0.9739
-0.6131 -6.0947 -2.5070 0.9739
0.4772 -6.1069 -2.5070 0.9739
1.5524 -5.9255 -2.5070 0.9739
2.0737 -5.7638 -2.5070 0.9739
2.5784 -5.5564 -2.5070 0.9739
3.0628 -5.3049 -2.5070 0.9739
3.5228 -5.0112 -2.5070 0.9739
3.9548 -4.6778 -2.5070 0.9739
4.3555 -4.3072 -2.5070 0.9739
5.3386 -3.0035 -2.5070 0.9739
5.5848 -2.5164 -2.5070 0.9739
5.7866 -2.0093 -2.5070 0.9739
6.0512 -0.9515 -2.5070 0.9739
6.1118 -0.4091 -2.5070 0.9739
5.8704 1.7496 -2.5070 0.9739
5.6913 2.2651 -2.5070 0.9739
5.1996 3.2383 -2.5070 0.9739
4.8907 3.6882 -2.5070 0.9739
4.5430 4.1089 -2.5070 0.9739
0.7488 6.0796 -2.5070 0.9739
-1.4200 5.9587 -2.5070 0.9739
-2.8228 5.1509 -2.4039 0.9749
-3.2700 4.8792 -2.4039 0.9749
-3.6913 4.5688 -2.4039 0.9749
-4.4429 3.8419 -2.4039 0.9749
-4.7672 3.4312 -2.4039 0.9749
-5.0537 2.9933 -2.4039 0.9749
-5.3000 2.5316 -2.4039 0.9749
-5.5043 2.0498 -2.4039 0.9749
-1.6200 0.2919 -0.6737 0.9929
-1.6390 0.1465 -0.6735 0.9929
-1.5215 -0.1360 -0.6657 0.9934
-5.1691 -1.9250 -2.4039 0.9762
-4.1723 -3.6079 -2.4039 0.9762
-3.4665 -4.2905 -2.4039 0.9762
-2.6509 -4.8372 -2.4039 0.9762
-1.7512 -5.2305 -2.4039 0.9762
-1.3335 -5.5958 -2.5070 0.9752
-0.8302 -5.6922 -2.5070 0.9752
-0.3203 -5.7436 -2.5070 0.9752
0.1922 -5.7493 -2.5070 0.9752
3.5146 -4.5540 -2.5070 0.9752
3.9060 -4.2231 -2.5070 0.9752
4.5928 -3.4636 -2.5070 0.9752
4.8829 -3.0411 -2.5070 0.9752
5.1342 -2.5944 -2.5070 0.9752
5.3447 -2.1272 -2.5070 0.9752
5.5128 -1.6430 -2.5070 0.9752
5.7510 -0.1282 -2.5070 0.9752
5.7396 0.3842 -2.5070 0.9752
5.4342 1.8870 -2.5070 0.9752
5.0135 2.8205 -2.5070 0.9752
4.7426 3.2556 -2.5070 0.9752
4.4340 3.6648 -2.5070 0.9752
4.0902 4.0449 -2.5070 0.9752
3.7140 4.3929 -2.5070 0.9752
3.3082 4.7060 -2.5070 0.9752
2.8762 4.9818 -2.5070 0.9752
1.9474 5.4128 -2.5070 0.9752
-0.0641 5.7521 -2.5070 0.9752
-0.5758 5.7236 -2.5070 0.9752
-1.0829 5.6496 -2.5070 0.9752
-1.5815 5.5308 -2.5070 0.9752
-1.9825 5.1474 -2.4039 0.9762
-2.8637 4.7143 -2.4039 0.9762
-3.2719 4.4407 -2.4039 0.9762
-3.6542 4.1319 -2.4039 0.9762
-4.0074 3.7902 -2.4039 0.9762
-4.3289 3.4185 -2.4039 0.9762
-1.4861 0.4792 -0.6805 0.9932
-1.5133 0.2035 -0.6654 0.9934
-1.5259 0.0680 -0.6657 0.9934
-1.5259 -0.0680 -0.6657 0.9934
-1.4861 -0.4792 -0.6805 0.9932
-5.0782 -2.1534 -2.4039 0.9762
-4.6160 -3.0196 -2.4039 0.9762
-4.0075 -3.7902 -2.4039 0.9762
-3.2719 -4.4407 -2.4039 0.9762
-2.8637 -4.7143 -2.4039 0.9762
-1.9825 -5.1473 -2.4039 0.9762
-1.5815 -5.5308 -2.5070 0.9752
-1.0829 -5.6496 -2.5070 0.9752
-0.5758 -5.7236 -2.5070 0.9752
-0.0641 -5.7521 -2.5070 0.9752
0.9568 -5.6723 -2.5070 0.9752
1.9474 -5.4128 -2.5070 0.9752
2.4214 -5.2180 -2.5070 0.9752
3.7140 -4.3929 -2.5070 0.9752
4.0902 -4.0449 -2.5070 0.9752
4.4340 -3.6648 -2.5070 0.9752
4.7426 -3.2556 -2.5070 0.9752
5.5806 -1.3958 -2.5070 0.9752
5.6826 -0.8936 -2.5070 0.9752
5.7168 0.6395 -2.5070 0.9752
5.3447 2.1272 -2.5070 0.9752
2.6515 5.1050 -2.5070 0.9752
2.1866 5.3207 -2.5070 0.9752
-1.3335 5.5958 -2.5070 0.9752
-2.2098 5.0539 -2.4039 0.9762
-3.0709 4.5821 -2.4039 0.9762
-4.1723 3.6079 -2.4039 0.9762
-4.9773 2.3774 -2.4039 0.9762
-5.1691 1.9250 -2.4039 0.9762
-1.5001 0.4109 -0.6779 0.9932
-1.4172 -0.1266 -0.6586 0.9937
-4.8668 -1.8124 -2.4039 0.9774
-4.6862 -2.2384 -2.4039 0.9774
-4.4684 -2.6466 -2.4039 0.9774
-3.9283 -3.3970 -2.4039 0.9774
-3.6104 -3.7331 -2.4039 0.9774
-3.2638 -4.0396 -2.4039 0.9774
-0.7816 -5.3594 -2.5070 0.9764
0.1810 -5.4131 -2.5070 0.9764
1.1379 -5.2952 -2.5070 0.9764
2.0587 -5.0096 -2.5070 0.9764
2.9143 -4.5652 -2.5070 0.9764
3.6776 -3.9761 -2.5070 0.9764
4.8340 -2.4427 -2.5070 0.9764
5.1905 -1.5469 -2.5070 0.9764
5.4147 -0.1207 -2.5070 0.9764
5.3503 0.8413 -2.5070 0.9764
4.1747 3.4505 -2.5070 0.9764
3.4968 4.1360 -2.5070 0.9764
3.1148 4.4308 -2.5070 0.9764
2.7080 4.6905 -2.5070 0.9764
2.2798 4.9129 -2.5070 0.9764
1.8335 5.0963 -2.5070 0.9764
1.3726 5.2393 -2.5070 0.9764
-0.0603 5.4157 -2.5070 0.9764
-1.0196 5.3192 -2.5070 0.9764
-2.2119 3.0020 -1.7260 0.9837
-3.7731 3.5686 -2.4039 0.9774
-4.7813 2.0274 -2.4039 0.9774
-1.3890 0.4479 -0.6755 0.9936
-4.7813 -2.0274 -2.4039 0.9774
-4.3461 -2.8431 -2.4039 0.9774
-3.7731 -3.5686 -2.4039 0.9774
-3.0806 -4.1810 -2.4039 0.9774
-2.6962 -4.4386 -2.4039 0.9774
-1.0196 -5.3192 -2.5070 0.9764
-0.5421 -5.3889 -2.5070 0.9764
0.4219 -5.3996 -2.5070 0.9764
0.9009 -5.3406 -2.5070 0.9764
1.3726 -5.2393 -2.5070 0.9764
1.8335 -5.0963 -2.5070 0.9764
3.4968 -4.1360 -2.5070 0.9764
4.1747 -3.4505 -2.5070 0.9764
4.4652 -3.0652 -2.5070 0.9764
4.9380 -2.2249 -2.5070 0.9764
5.1164 -1.7766 -2.5070 0.9764
5.2542 -1.3142 -2.5070 0.9764
5.3503 -0.8413 -2.5070 0.9764
5.4147 0.1207 -2.5070 0.9764
5.3825 0.6021 -2.5070 0.9764
5.3076 1.0788 -2.5070 0.9764
4.0168 3.6330 -2.5070 0.9764
3.6776 3.9761 -2.5070 0.9764
3.3091 4.2877 -2.5070 0.9764
2.9143 4.5652 -2.5070 0.9764
2.0587 5.0096 -2.5070 0.9764
1.6047 5.1729 -2.5070 0.9764
1.1379 5.2952 -2.5070 0.9764
-0.3015 5.4077 -2.5070 0.9764
-2.0806 4.7584 -2.4039 0.9774
-3.2638 4.0396 -2.4039 0.9774
-3.6104 3.7331 -2.4039 0.9774
-3.9283 3.3970 -2.4039 0.9774
-4.4684 2.6466 -2.4039 0.9774
-4.6862 2.2384 -2.4039 0.9774
-4.8668 1.8124 -2.4039 0.9774
-1.4172 0.1266 -0.6586 0.9937
-1.3367 0.0000 -0.6557 0.9941
-1.3317 -0.1190 -0.6558 0.9941
-1.3061 -0.3578 -0.6642 0.9940
-4.2166 -2.4975 -2.4039 0.9784
-3.9776 -2.8629 -2.4039 0.9784
-3.7070 -3.2055 -2.4039 0.9784
-2.0470 -3.0543 -1.8036 0.9838
-2.3552 -4.2977 -2.4039 0.9784
-1.1848 -4.9717 -2.5070 0.9775
-0.2845 -5.1030 -2.5070 0.9775
0.1708 -5.1081 -2.5070 0.9775
1.0738 -4.9969 -2.5070 0.9775
1.5142 -4.8814 -2.5070 0.9775
3.1226 -4.0461 -2.5070 0.9775
3.4703 -3.7521 -2.5070 0.9775
4.7486 -1.8899 -2.5070 0.9775
4.8980 -1.4598 -2.5070 0.9775
5.0995 0.3414 -2.5070 0.9775
5.0489 0.7939 -2.5070 0.9775
4.2136 2.8925 -2.5070 0.9775
3.9395 3.2561 -2.5070 0.9775
3.6340 3.5938 -2.5070 0.9775
2.5555 4.4262 -2.5070 0.9775
2.1514 4.6361 -2.5070 0.9775
1.2953 4.9441 -2.5070 0.9775
0.8501 5.0397 -2.5070 0.9775
-0.0569 5.1106 -2.5070 0.9775
-0.5116 5.0852 -2.5070 0.9775
-0.9622 5.0195 -2.5070 0.9775
-1.7723 4.6017 -2.4189 0.9783
-2.1817 2.9611 -1.8042 0.9837
-3.2467 3.6710 -2.4039 0.9784
-3.8461 3.0372 -2.4039 0.9784
-4.1012 2.6829 -2.4039 0.9784
-4.5119 1.9132 -2.4039 0.9784
-1.3003 0.4193 -0.6702 0.9939
-1.3251 0.1782 -0.6559 0.9941
-1.3355 0.0596 -0.6558 0.9941
-1.3355 -0.0596 -0.6558 0.9941
-1.3089 -0.2966 -0.6583 0.9940
-1.3003 -0.4193 -0.6702 0.9939
-4.5119 -1.9132 -2.4039 0.9784
-4.3237 -2.3072 -2.4039 0.9784
-4.1012 -2.6829 -2.4039 0.9784
-3.5605 -3.3675 -2.4039 0.9784
-2.9070 -3.9454 -2.4039 0.9784
-1.7723 -4.6017 -2.4189 0.9783
-0.5116 -5.0852 -2.5070 0.9775
1.2953 -4.9441 -2.5070 0.9775
1.7302 -4.8092 -2.5070 0.9775
2.1514 -4.6361 -2.5070 0.9775
3.2997 -3.9030 -2.5070 0.9775
3.6340 -3.5938 -2.5070 0.9775
3.9395 -3.2561 -2.5070 0.9775
4.2136 -2.8925 -2.5070 0.9775
4.4544 -2.5060 -2.5070 0.9775
5.0489 -0.7939 -2.5070 0.9775
5.1096 0.1139 -2.5070 0.9775
5.0792 0.5682 -2.5070 0.9775
5.0085 1.0180 -2.5070 0.9775
4.0806 3.0773 -2.5070 0.9775
1.9427 4.7273 -2.5070 0.9775
1.0738 4.9968 -2.5070 0.9775
-1.5843 4.7322 -2.4479 0.9780
-2.3552 4.2977 -2.4039 0.9784
-2.0413 3.0458 -1.7986 0.9838
-3.0799 3.8120 -2.4039 0.9784
-3.7070 3.2056 -2.4039 0.9784
-3.9776 2.8629 -2.4039 0.9784
-4.2166 2.4975 -2.4039 0.9784
-4.4222 2.1123 -2.4039 0.9784
-1.2931 0.4815 -0.6768 0.9939
-1.3159 0.2371 -0.6559 0.9941
-1.2624 0.0000 -0.6549 0.9943
-1.2576 -0.1124 -0.6550 0.9943
-1.2426 -0.2239 -0.6550 0.9943
-1.2283 -0.3365 -0.6607 0.9943
-1.2162 -0.4529 -0.6733 0.9942
-4.1813 -1.9972 -2.4039 0.9793
-3.7609 -2.7070 -2.4039 0.9793
-3.5051 -3.0310 -2.4039 0.9793
-3.2214 -3.3309 -2.4039 0.9793
-2.9121 -3.6044 -2.4039 0.9793
-2.0470 -3.0543 -1.9075 0.9836
-2.2269 -4.0637 -2.4039 0.9793
-1.8564 -4.2457 -2.4039 0.9793
-1.1203 -4.7009 -2.5070 0.9785
-0.6974 -4.7820 -2.5070 0.9785
-0.2690 -4.8250 -2.5070 0.9785
0.1615 -4.8298 -2.5070 0.9785
2.2274 -4.2886 -2.5070 0.9785
2.9525 -3.8257 -2.5070 0.9785
3.8584 -2.9097 -2.5070 0.9785
4.1020 -2.5548 -2.5070 0.9785
4.4900 -1.7870 -2.5070 0.9785
4.6312 -1.3803 -2.5070 0.9785
4.7357 -0.9626 -2.5070 0.9785
4.8026 -0.5372 -2.5070 0.9785
4.8313 -0.1077 -2.5070 0.9785
4.8218 0.3228 -2.5070 0.9785
4.7739 0.7507 -2.5070 0.9785
4.4059 1.9852 -2.5070 0.9785
3.9841 2.7350 -2.5070 0.9785
3.7249 3.0787 -2.5070 0.9785
3.4361 3.3980 -2.5070 0.9785
1.6360 4.5472 -2.5070 0.9785
1.2247 4.6748 -2.5070 0.9785
-0.4837 4.8083 -2.5070 0.9785
-1.3286 4.6463 -2.5070 0.9785
-2.0437 4.1588 -2.4039 0.9793
-3.0698 3.4711 -2.4039 0.9793
-3.6366 2.8718 -2.4039 0.9793
-3.8778 2.5367 -2.4039 0.9793
-4.0882 2.1815 -2.4039 0.9793
-4.2661 1.8090 -2.4039 0.9793
-1.2316 0.2790 -0.6551 0.9943
-1.2613 -0.0562 -0.6550 0.9943
-1.2222 -0.3941 -0.6662 0.9942
-4.0882 -2.1815 -2.4039 0.9793
-3.8778 -2.5367 -2.4039 0.9793
-3.6366 -2.8718 -2.4039 0.9793
-3.3666 -3.1841 -2.4039 0.9793
-3.0698 -3.4711 -2.4039 0.9793
-2.7487 -3.7305 -2.4039 0.9793
-2.4057 -3.9604 -2.4039 0.9793
-2.0437 -4.1588 -2.4039 0.9793
-1.6654 -4.3242 -2.4039 0.9793
-1.3286 -4.6463 -2.5070 0.9785
-0.4837 -4.8083 -2.5070 0.9785
-0.0538 -4.8322 -2.5070 0.9785
0.3765 -4.8179 -2.5070 0.9785
0.8038 -4.7652 -2.5070 0.9785
1.2247 -4.6748 -2.5070 0.9785
1.6360 -4.5472 -2.5070 0.9785
2.0342 -4.3836 -2.5070 0.9785
2.4163 -4.1851 -2.5070 0.9785
3.1200 -3.6904 -2.5070 0.9785
3.4361 -3.3980 -2.5070 0.9785
3.7249 -3.0787 -2.5070 0.9785
4.2118 -2.3695 -2.5070 0.9785
4.4059 -1.9852 -2.5070 0.9785
4.5652 -1.5852 -2.5070 0.9785
4.7739 -0.7507 -2.5070 0.9785
4.8218 -0.3228 -2.5070 0.9785
4.6312 1.3802 -2.5070 0.9785
4.1020 2.5548 -2.5070 0.9785
3.8584 2.9097 -2.5070 0.9785
3.5841 3.2416 -2.5070 0.9785
2.9525 3.8257 -2.5070 0.9785
2.6003 4.0733 -2.5070 0.9785
1.4318 4.6156 -2.5070 0.9785
1.0153 4.7247 -2.5070 0.9785
0.5907 4.7963 -2.5070 0.9785
0.1615 4.8298 -2.5070 0.9785
-0.2690 4.8250 -2.5070 0.9785
-1.8564 4.2457 -2.4039 0.9793
-2.2269 4.0636 -2.4039 0.9793
-2.9121 3.6044 -2.4039 0.9793
-3.2214 3.3309 -2.4039 0.9793
-3.9869 2.3615 -2.4039 0.9793
-4.1813 1.9972 -2.4039 0.9793
-1.1944 0.0000 -0.6542 0.9946
-1.1899 -0.1063 -0.6543 0.9946
-1.1756 -0.2118 -0.6543 0.9946
-1.1464 -0.4269 -0.6700 0.9944
-3.7764 -2.2368 -2.4039 0.9802
-3.0513 -3.1550 -2.4039 0.9802
-2.7584 -3.4141 -2.4039 0.9802
-2.1093 -3.8490 -2.4039 0.9802
-1.7716 -4.0517 -2.4220 0.9800
-1.4532 -4.3405 -2.5070 0.9793
-0.2548 -4.5702 -2.5070 0.9793
1.3562 -4.3718 -2.5070 0.9793
1.7399 -4.2338 -2.5070 0.9793
2.1098 -4.0621 -2.5070 0.9793
3.3948 -3.0704 -2.5070 0.9793
3.8854 -2.4198 -2.5070 0.9793
4.3867 -1.3074 -2.5070 0.9793
4.4856 -0.9117 -2.5070 0.9793
4.5490 -0.5089 -2.5070 0.9793
4.5218 0.7110 -2.5070 0.9793
4.3241 1.5015 -2.5070 0.9793
3.7737 2.5905 -2.5070 0.9793
3.2546 3.2186 -2.5070 0.9793
2.9553 3.4955 -2.5070 0.9793
1.5496 4.3071 -2.5070 0.9793
1.1601 4.4279 -2.5070 0.9793
0.3566 4.5634 -2.5070 0.9793
-0.0510 4.5771 -2.5070 0.9793
-1.2584 4.4010 -2.5070 0.9793
-1.9358 3.9392 -2.4039 0.9802
-2.2787 3.7513 -2.4039 0.9802
-2.9077 3.2878 -2.4039 0.9802
-3.1888 3.0159 -2.4039 0.9802
-3.4446 2.7202 -2.4039 0.9802
-3.8723 2.0663 -2.4039 0.9802
-1.1411 0.4838 -0.6788 0.9944
-1.1649 0.2639 -0.6542 0.9946
-1.1840 0.1592 -0.6543 0.9946
-1.1933 0.0532 -0.6542 0.9946
-1.1933 -0.0532 -0.6542 0.9946
-1.1840 -0.1592 -0.6543 0.9946
-1.1515 -0.3713 -0.6626 0.9945
-3.8723 -2.0663 -2.4039 0.9802
-3.6730 -2.4028 -2.4039 0.9802
-3.4446 -2.7202 -2.4039 0.9802
-3.1888 -3.0160 -2.4039 0.9802
-2.9077 -3.2878 -2.4039 0.9802
-2.6035 -3.5335 -2.4039 0.9802
-0.8617 -4.4955 -2.5070 0.9793
-0.4582 -4.5543 -2.5070 0.9793
0.7613 -4.5136 -2.5070 0.9793
1.5496 -4.3071 -2.5070 0.9793
1.9268 -4.1521 -2.5070 0.9793
2.6324 -3.7446 -2.5070 0.9793
2.9553 -3.4955 -2.5070 0.9793
3.5282 -2.9161 -2.5070 0.9793
3.7737 -2.5905 -2.5070 0.9793
4.1733 -1.8804 -2.5070 0.9793
4.4405 -1.1107 -2.5070 0.9793
4.5218 -0.7110 -2.5070 0.9793
4.5671 -0.3057 -2.5070 0.9793
4.5490 0.5089 -2.5070 0.9793
4.4856 0.9117 -2.5070 0.9793
4.3867 1.3073 -2.5070 0.9793
4.2529 1.6926 -2.5070 0.9793
3.8854 2.4198 -2.5070 0.9793
3.6546 2.7561 -2.5070 0.9793
2.7966 3.6237 -2.5070 0.9793
2.4630 3.8582 -2.5070 0.9793
1.7399 4.2338 -2.5070 0.9793
0.9617 4.4752 -2.5070 0.9793
-0.2548 4.5702 -2.5070 0.9793
-2.0328 3.0331 -1.9998 0.9835
-3.5623 2.5640 -2.4039 0.9802
-3.9605 1.8918 -2.4039 0.9802
-1.1756 0.2118 -0.6543 0.9946
-1.0934 -0.2995 -0.6545 0.9948
-1.0827 -0.4032 -0.6671 0.9947
-3.5825 -2.1219 -2.4039 0.9810
-3.1495 -2.7235 -2.4039 0.9810
-2.0404 -3.0445 -2.1160 0.9832
-2.0010 -3.6514 -2.4039 0.9810
-1.6681 -3.8150 -2.4039 0.9810
-0.6267 -4.2968 -2.5070 0.9801
-0.2417 -4.3355 -2.5070 0.9801
0.5308 -4.3097 -2.5070 0.9801
1.6505 -4.0164 -2.5070 0.9801
3.4669 -2.6145 -2.5070 0.9801
3.6859 -2.2956 -2.5070 0.9801
3.8756 -1.9584 -2.5070 0.9801
4.1614 -1.2402 -2.5070 0.9801
4.2896 0.6745 -2.5070 0.9801
4.2125 1.0536 -2.5070 0.9801
3.9590 1.7838 -2.5070 0.9801
3.7845 2.1291 -2.5070 0.9801
3.3470 2.7664 -2.5070 0.9801
2.1711 3.7605 -2.5070 0.9801
1.4700 4.0859 -2.5070 0.9801
0.7223 4.2818 -2.5070 0.9801
0.3383 4.3291 -2.5070 0.9801
-0.4346 4.3205 -2.5070 0.9801
-0.8175 4.2647 -2.5070 0.9801
-1.1938 4.1750 -2.5070 0.9801
-1.5607 4.0521 -2.5070 0.9801
-1.8364 3.7369 -2.4039 0.9810
-2.1720 2.9479 -2.1141 0.9832
-2.7584 3.1190 -2.4039 0.9810
-3.0251 2.8611 -2.4039 0.9810
-3.2677 2.5805 -2.4039 0.9810
-3.4844 2.2794 -2.4039 0.9810
-3.6735 1.9602 -2.4039 0.9810
-1.0769 0.4566 -0.6753 0.9946
-1.1039 0.2501 -0.6535 0.9948
-1.1309 0.0504 -0.6536 0.9948
-1.1220 -0.1509 -0.6536 0.9948
-1.0870 -0.3505 -0.6594 0.9947
-1.0769 -0.4566 -0.6753 0.9946
-3.6735 -1.9602 -2.4039 0.9810
-3.2677 -2.5805 -2.4039 0.9810
-3.0251 -2.8611 -2.4039 0.9810
-2.7584 -3.1190 -2.4039 0.9810
-2.4698 -3.3521 -2.4039 0.9810
-1.8364 -3.7369 -2.4039 0.9810
-1.5607 -4.0521 -2.5070 0.9801
-0.0484 -4.3420 -2.5070 0.9801
1.1005 -4.2005 -2.5070 0.9801
1.4700 -4.0859 -2.5070 0.9801
2.1711 -3.7605 -2.5070 0.9801
2.4972 -3.5524 -2.5070 0.9801
3.3470 -2.7664 -2.5070 0.9801
3.7845 -2.1291 -2.5070 0.9801
4.2125 -1.0536 -2.5070 0.9801
4.2896 -0.6745 -2.5070 0.9801
4.3326 -0.2900 -2.5070 0.9801
4.3154 0.4827 -2.5070 0.9801
4.2553 0.8649 -2.5070 0.9801
4.1614 1.2402 -2.5070 0.9801
3.8756 1.9584 -2.5070 0.9801
2.9484 3.1878 -2.5070 0.9801
2.6530 3.4376 -2.5070 0.9801
2.3365 3.6601 -2.5070 0.9801
2.0015 3.8535 -2.5070 0.9801
1.2865 4.1473 -2.5070 0.9801
0.9123 4.2454 -2.5070 0.9801
0.5308 4.3097 -2.5070 0.9801
-1.0066 4.2240 -2.5070 0.9801
-1.6681 3.8150 -2.4039 0.9810
-2.0284 3.0265 -2.1035 0.9833
-2.6167 3.2387 -2.4039 0.9810
-3.1495 2.7235 -2.4039 0.9810
-3.3794 2.4323 -2.4039 0.9810
-3.7571 1.7946 -2.4039 0.9810
-1.0827 0.4032 -0.6671 0.9947
-1.0934 0.2995 -0.6545 0.9948
-1.1141 0.2007 -0.6536 0.9948
