ply
format ascii 1.0
element vertex 1395
property float32 x
property float32 y
property float32 z
property float32 I
end_header
7.0663 -15.2276 2.9601 0.9341
7.0660 -15.2268 2.5716 0.9343
7.0656 -15.2260 2.1858 0.9345
12.0285 15.5858 2.1141 0.9239
12.8489 15.1977 1.6847 0.9232
11.9964 15.5442 1.6622 0.9242
12.0353 15.5945 1.2215 0.9241
12.0353 15.5945 0.7767 0.9242
-18.7491 6.0458 0.3328 0.9242
17.9263 0.3995 0.3029 0.9308
-18.6040 6.9282 0.3353 0.9237
7.0621 -15.2184 -0.0945 0.9351
17.6476 -1.1814 -0.0996 0.9317
17.9263 0.3995 -0.1010 0.9308
12.0353 15.5945 -0.1109 0.9242
-18.3941 6.8500 -0.1105 0.9245
12.8979 15.2557 -0.5625 0.9232
7.0613 -15.2168 -0.4724 0.9351
17.9263 0.3995 -0.5049 0.9308
12.0353 15.5945 -0.5547 0.9242
-18.2132 6.7827 -0.5473 0.9252
12.8831 15.2382 -1.0120 0.9232
-18.0865 5.8321 -0.9638 0.9267
7.0606 -15.2152 -0.8507 0.9350
17.6476 -1.1814 -0.8970 0.9316
17.9263 0.3995 -0.9093 0.9307
-18.0049 6.7051 -0.9744 0.9259
10.5148 -13.6245 -1.2619 0.9333
17.7860 -0.3964 -1.3044 0.9311
-9.2494 15.2266 -1.3063 0.9310
-10.0445 13.6324 -1.2416 0.9343
-11.3226 12.8027 -1.2532 0.9337
-14.2912 11.2857 -1.3352 0.9296
-15.2031 9.9454 -1.3321 0.9297
-17.8143 7.5539 -1.4188 0.9253
7.0598 -15.2135 -1.2297 0.9349
10.7040 -12.6607 -1.2156 0.9357
-9.1353 16.6698 -1.3938 0.9266
-9.4382 14.0828 -1.2430 0.9343
-17.6683 8.4394 -1.4357 0.9245
-17.7670 6.6165 -1.3901 0.9268
-5.6236 -16.7968 -1.7006 0.9313
10.4675 -13.5632 -1.6448 0.9335
10.5261 -7.9381 -1.2657 0.9484
17.7860 -0.3963 -1.7080 0.9310
-8.5869 17.4739 -1.8692 0.9247
-11.8622 11.2192 -1.5675 0.9365
-13.4466 10.6187 -1.6449 0.9335
-16.7072 8.9152 -1.8181 0.9267
-5.7568 -14.9471 -1.5378 0.9377
10.4649 -14.8866 -1.7470 0.9295
10.5246 -8.6988 -1.3109 0.9466
-8.7358 15.9409 -1.7451 0.9296
-14.3244 10.3101 -1.6944 0.9315
-15.2774 9.0488 -1.7047 0.9311
-5.6157 -12.8436 -1.6651 0.9451
-5.6236 -16.7968 -2.1041 0.9311
-4.5829 -19.2305 -2.3483 0.9235
-2.8531 -19.5621 -2.3483 0.9235
9.1114 -17.5426 -2.3481 0.9235
10.4675 -13.5632 -2.0351 0.9333
10.4720 -11.3222 -1.8320 0.9398
18.7412 -2.0965 -2.2401 0.9269
17.7860 -0.3963 -2.1133 0.9308
9.8838 17.1193 -2.3481 0.9235
8.3209 17.9311 -2.3481 0.9235
6.6919 18.6005 -2.3481 0.9235
-1.9788 19.6697 -2.3483 0.9235
-8.2012 16.6889 -2.2088 0.9278
-15.9760 8.5251 -2.1510 0.9297
-17.7360 7.5207 -2.2884 0.9253
-5.6192 -14.5899 -1.8572 0.9390
-3.7217 -19.4155 -2.3483 0.9235
9.8838 -17.1193 -2.3481 0.9235
10.4699 -12.3838 -1.9263 0.9368
10.4739 -10.3579 -1.7498 0.9424
10.7226 -7.3607 -1.5449 0.9490
10.5346 -3.6580 -1.3247 0.9561
10.5366 -2.6354 -1.2902 0.9572
17.6476 -1.1814 -2.1010 0.9312
17.9323 0.3996 -2.1306 0.9303
9.1114 17.5426 -2.3481 0.9235
-10.6966 11.0602 -1.8277 0.9399
-12.3714 10.6979 -1.9428 0.9362
-13.6521 9.8262 -1.9981 0.9345
-14.6526 8.6788 -2.0229 0.9337
-17.4891 8.3538 -2.3023 0.9249
-5.9644 -6.1671 -1.2156 0.9659
-5.6106 -10.2380 -1.6542 0.9539
-5.6157 -12.8435 -1.9861 0.9449
-5.2618 -15.7160 -2.3483 0.9352
-3.8421 -16.1220 -2.3483 0.9352
-2.3919 -16.4000 -2.3483 0.9352
0.5781 -17.2914 -2.4514 0.9325
3.6348 -16.9149 -2.4514 0.9325
5.1259 -16.5243 -2.4514 0.9325
6.4630 -15.7268 -2.4091 0.9336
7.6386 -14.7069 -2.3481 0.9352
10.1252 -13.1196 -2.3481 0.9352
10.4757 -9.4747 -2.0013 0.9445
10.4788 -7.9024 -1.8596 0.9484
10.4815 -6.5280 -1.7496 0.9513
10.4840 -5.2978 -1.6644 0.9537
10.4862 -4.1734 -1.5991 0.9554
16.7327 -0.3729 -2.3714 0.9346
16.5337 2.5998 -2.3714 0.9346
16.2366 4.0611 -2.3714 0.9346
15.8108 5.4901 -2.3714 0.9346
15.2594 6.8755 -2.3714 0.9346
14.5868 8.2064 -2.3714 0.9346
12.9007 10.6627 -2.3714 0.9346
9.5307 13.5576 -2.3481 0.9352
8.2862 14.3520 -2.3481 0.9352
6.9759 15.0326 -2.3481 0.9352
5.8569 16.2795 -2.4514 0.9325
4.3847 16.7362 -2.4514 0.9325
2.8777 17.0600 -2.4514 0.9325
-1.6589 16.4902 -2.3483 0.9352
-4.5564 15.9348 -2.3483 0.9352
-7.8468 15.9677 -2.5209 0.9306
-9.0670 12.3058 -2.1658 0.9401
-10.0576 11.3723 -2.1511 0.9405
-12.5552 9.9147 -2.2667 0.9374
-13.6292 8.9158 -2.3076 0.9363
-15.3037 8.1663 -2.4578 0.9323
-17.4283 7.3902 -2.6822 0.9264
-17.4459 5.6256 -2.5972 0.9286
-5.6129 -11.4220 -1.8032 0.9499
-5.6192 -14.5899 -2.2153 0.9388
-3.1201 -16.2771 -2.3483 0.9352
-1.6589 -16.4902 -2.3483 0.9352
4.3847 -16.7362 -2.4514 0.9325
5.8569 -16.2795 -2.4514 0.9325
9.5307 -13.5576 -2.3481 0.9352
10.4699 -12.3838 -2.2977 0.9366
10.4739 -10.3579 -2.0872 0.9422
10.4773 -8.6597 -1.9260 0.9466
10.4828 -5.8975 -1.7042 0.9526
10.4851 -4.7244 -1.6295 0.9546
10.4987 -3.6455 -1.5747 0.9561
10.5237 -2.6321 -1.5370 0.9571
13.3337 -2.0966 -1.9125 0.9469
16.6994 -1.1179 -2.3714 0.9346
16.7327 0.3729 -2.3714 0.9346
16.6331 1.8607 -2.3714 0.9346
16.4014 3.3337 -2.3714 0.9346
15.5505 6.1889 -2.3714 0.9346
14.2068 8.8481 -2.3714 0.9346
13.3629 10.0774 -2.3714 0.9346
12.4129 11.2268 -2.3714 0.9346
11.3644 12.2871 -2.3714 0.9346
10.1252 13.1196 -2.3481 0.9352
8.9173 13.9687 -2.3481 0.9352
7.6386 14.7069 -2.3481 0.9352
5.1259 16.5243 -2.4514 0.9325
3.6348 16.9149 -2.4514 0.9325
2.1149 17.1713 -2.4514 0.9325
-0.9632 17.2742 -2.4514 0.9325
-3.8421 16.1220 -2.3483 0.9352
-5.2617 15.7160 -2.3483 0.9352
-8.0254 14.6444 -2.3661 0.9348
-5.8650 -5.0716 -1.2773 0.9691
-5.6069 -8.3660 -1.6591 0.9600
-5.6106 -10.2380 -1.9233 0.9538
-5.6157 -12.8436 -2.3092 0.9448
0.4972 -14.8720 -2.4514 0.9415
6.5698 -12.6492 -2.3481 0.9439
7.6696 -12.0142 -2.3481 0.9439
9.6782 -10.4640 -2.3481 0.9439
10.4815 -6.5280 -2.0342 0.9512
10.4862 -4.1734 -1.8593 0.9553
14.3058 -1.6004 -2.3714 0.9433
14.3629 0.9615 -2.3714 0.9433
13.9649 3.4929 -2.3714 0.9433
13.1243 5.9135 -2.3714 0.9433
10.1348 10.0225 -2.3481 0.9439
8.1972 11.6606 -2.3481 0.9439
7.1268 12.3439 -2.3481 0.9439
6.2636 13.4978 -2.4514 0.9415
2.4750 14.6730 -2.4514 0.9415
1.1592 14.8351 -2.4514 0.9415
-0.1658 14.8794 -2.4514 0.9415
-2.6835 13.9997 -2.3483 0.9439
-5.1232 13.3021 -2.3483 0.9439
-5.5002 7.4650 -1.5275 0.9631
-9.7440 11.0177 -2.4230 0.9421
-10.7496 10.1670 -2.4375 0.9418
-12.1538 9.5978 -2.5512 0.9391
-13.0400 8.5304 -2.5670 0.9388
-14.6847 7.8360 -2.7420 0.9348
-16.8821 7.1586 -3.0209 0.9284
-17.4165 5.6161 -3.0147 0.9285
-5.1232 -13.3021 -2.3483 0.9439
-2.6835 -13.9997 -2.3483 0.9439
-0.1658 -14.8794 -2.4514 0.9415
6.2636 -13.4978 -2.4514 0.9415
7.1268 -12.3439 -2.3481 0.9439
8.1972 -11.6606 -2.3481 0.9439
10.1348 -10.0225 -2.3481 0.9439
10.4802 -7.1943 -2.0941 0.9498
10.4828 -5.8975 -1.9815 0.9524
10.4872 -3.6416 -1.8289 0.9560
10.4893 -2.6236 -1.7812 0.9571
13.3309 -2.0962 -2.2231 0.9468
14.3629 -0.9615 -2.3714 0.9433
12.8479 6.4923 -2.3714 0.9433
11.4932 8.6674 -2.3714 0.9433
10.6761 9.6560 -2.3714 0.9433
9.6783 10.4640 -2.3481 0.9439
7.6696 12.0142 -2.3481 0.9439
4.4087 14.2122 -2.4514 0.9415
3.1262 14.5482 -2.4514 0.9415
-2.0572 14.1053 -2.3483 0.9439
-3.3045 13.8662 -2.3483 0.9439
-7.2421 16.5631 -2.9780 0.9293
-7.7087 14.0665 -2.6425 0.9370
-9.4366 11.6798 -2.4737 0.9409
-10.0434 10.3848 -2.3800 0.9431
-11.5529 9.9902 -2.5161 0.9400
-13.6992 8.1141 -2.6230 0.9375
-15.9743 7.6303 -2.9164 0.9307
-16.9870 6.3260 -2.9862 0.9292
-5.8650 -5.0716 -1.4574 0.9689
-5.6431 -5.8349 -1.5257 0.9675
-5.6069 -8.3660 -1.8930 0.9598
-5.0051 -11.4471 -2.3483 0.9504
-3.9664 -11.8471 -2.3483 0.9504
-1.8031 -12.3627 -2.3483 0.9504
-0.7261 -13.0217 -2.4514 0.9483
1.5942 -12.9441 -2.4514 0.9483
3.8640 -12.4564 -2.4514 0.9483
8.4825 -9.1712 -2.3481 0.9504
10.4815 -6.5280 -2.3210 0.9510
10.4840 -5.2978 -2.2079 0.9533
10.4883 -3.1259 -2.0571 0.9564
12.5884 0.8427 -2.3714 0.9499
12.4635 1.9598 -2.3714 0.9499
12.2396 3.0613 -2.3714 0.9499
11.5029 5.1829 -2.3714 0.9499
8.8827 8.7843 -2.3481 0.9504
5.4898 11.8302 -2.4514 0.9483
4.4151 12.2719 -2.4514 0.9483
3.3053 12.6161 -2.4514 0.9483
2.1693 12.8603 -2.4514 0.9483
1.0160 13.0023 -2.4514 0.9483
-0.1453 13.0411 -2.4514 0.9483
-1.3054 12.9764 -2.4514 0.9483
-2.3520 12.2701 -2.3483 0.9504
-3.4347 12.0121 -2.3483 0.9504
-4.4902 11.6587 -2.3483 0.9504
-5.5101 11.2127 -2.3483 0.9504
-7.5936 12.5007 -2.7492 0.9422
-10.4241 9.8591 -2.6969 0.9433
-11.6112 9.1693 -2.7809 0.9416
-14.0108 7.4764 -2.9850 0.9374
-15.1010 6.4034 -3.0830 0.9354
-16.9544 5.4671 -3.3483 0.9301
-5.6048 -6.3375 -1.5902 0.9662
-5.6054 -7.6077 -1.7762 0.9623
-5.6086 -9.2330 -2.0305 0.9570
-5.5101 -11.2127 -2.3483 0.9504
-3.4347 -12.0120 -2.3483 0.9504
2.1693 -12.8603 -2.4514 0.9483
4.4151 -12.2719 -2.4514 0.9483
7.1845 -10.2200 -2.3481 0.9504
8.0656 -9.5400 -2.3481 0.9504
12.4635 -1.9598 -2.3714 0.9499
12.5884 -0.8427 -2.3714 0.9499
12.5384 1.4026 -2.3714 0.9499
12.0910 3.6035 -2.3714 0.9499
11.7223 4.6654 -2.3714 0.9499
10.7094 6.6699 -2.3714 0.9499
9.2652 8.3798 -2.3481 0.9504
8.4826 9.1712 -2.3481 0.9504
7.6326 9.8898 -2.3481 0.9504
6.7221 10.5299 -2.3481 0.9504
4.9574 12.0630 -2.4514 0.9483
3.8640 12.4564 -2.4514 0.9483
2.7400 12.7508 -2.4514 0.9483
-0.7261 13.0217 -2.4514 0.9483
-2.8962 12.1531 -2.3483 0.9504
-3.9664 11.8471 -2.3483 0.9504
-5.0051 11.4471 -2.3483 0.9504
-7.4157 13.5319 -2.9004 0.9391
-7.9559 11.8710 -2.6860 0.9435
-8.9072 11.0246 -2.6640 0.9439
-11.1864 9.6732 -2.7797 0.9416
-11.8598 8.5362 -2.7466 0.9423
-13.1765 7.8045 -2.8785 0.9396
-18.7523 5.1368 -3.6545 0.9239
-5.6069 -8.3660 -2.1288 0.9597
-5.3389 -9.7423 -2.3483 0.9556
-4.4506 -10.1788 -2.3483 0.9556
-2.5754 -10.8066 -2.3483 0.9556
-1.6033 -10.9930 -2.3483 0.9556
-0.6456 -11.5790 -2.4514 0.9537
1.4176 -11.5100 -2.4514 0.9537
3.4359 -11.0763 -2.4514 0.9537
4.4081 -10.7265 -2.4514 0.9537
7.5428 -8.1552 -2.3481 0.9556
8.8692 -6.6886 -2.3481 0.9556
9.4293 -5.8726 -2.3481 0.9556
9.9146 -5.0101 -2.3481 0.9556
10.3211 -4.1077 -2.3481 0.9556
10.4902 -2.1322 -2.2628 0.9572
11.1493 -1.2472 -2.3714 0.9552
11.2160 -0.2499 -2.3714 0.9552
11.1937 0.7493 -2.3714 0.9552
11.0826 1.7427 -2.3714 0.9552
10.8835 2.7221 -2.3714 0.9552
9.6816 5.4468 -2.3481 0.9556
9.1583 6.2868 -2.3481 0.9556
7.1720 8.4830 -2.3481 0.9556
6.4683 9.2013 -2.3774 0.9551
5.7985 10.0433 -2.4514 0.9537
2.9391 11.2184 -2.4514 0.9537
-0.1292 11.5963 -2.4514 0.9537
-2.0914 10.9106 -2.3483 0.9556
-3.0542 10.6812 -2.3483 0.9556
-3.9928 10.3670 -2.3483 0.9556
-5.5067 9.0653 -2.2421 0.9576
-10.8434 8.5630 -2.9206 0.9451
-11.6989 7.6531 -2.9551 0.9444
-12.6842 6.7685 -3.0390 0.9429
-13.5326 5.7383 -3.1071 0.9417
-15.2914 4.9309 -3.3962 0.9364
-5.6086 -9.2330 -2.2835 0.9568
-4.8996 -9.9704 -2.3483 0.9556
-3.9928 -10.3670 -2.3483 0.9556
0.9035 -11.5618 -2.4514 0.9537
1.9289 -11.4354 -2.4514 0.9537
6.4683 -9.2013 -2.3774 0.9551
7.1720 -8.4830 -2.3481 0.9556
7.8985 -7.8110 -2.3481 0.9556
10.4872 -3.6416 -2.3466 0.9556
11.1937 -0.7493 -2.3714 0.9552
11.2160 0.2499 -2.3714 0.9552
11.1493 1.2472 -2.3714 0.9552
10.7515 3.2043 -2.3714 0.9552
10.3212 4.1077 -2.3481 0.9556
9.9146 5.0100 -2.3481 0.9556
7.5428 8.1551 -2.3481 0.9556
6.2401 9.7750 -2.4514 0.9537
3.4359 11.0763 -2.4514 0.9537
2.4364 11.3382 -2.4514 0.9537
1.4176 11.5100 -2.4514 0.9537
-0.6456 11.5790 -2.4514 0.9537
-1.6033 10.9930 -2.3483 0.9556
-3.5270 10.5346 -2.3483 0.9556
-7.6567 11.4246 -2.9071 0.9453
-8.3685 10.3578 -2.8147 0.9470
-9.4573 9.7788 -2.8756 0.9459
-11.3207 8.1481 -2.9484 0.9446
-13.1150 6.2645 -3.0723 0.9423
-14.2082 5.2912 -3.2048 0.9399
-17.2948 4.7375 -3.7905 0.9293
-5.8337 -3.4553 -1.5935 0.9725
-5.5982 -4.0294 -1.6211 0.9721
-5.5999 -4.8424 -1.7399 0.9700
-5.6017 -5.7922 -1.8938 0.9674
-5.6040 -6.9362 -2.0957 0.9640
-2.3163 -9.7195 -2.3483 0.9598
-0.5807 -10.4142 -2.4514 0.9580
1.2750 -10.3521 -2.4514 0.9580
2.1913 -10.1976 -2.4514 0.9580
6.7840 -7.3347 -2.3481 0.9598
7.4099 -6.7018 -2.3481 0.9598
7.9770 -6.0157 -2.3481 0.9598
9.2829 -3.6945 -2.3481 0.9598
9.5748 -2.8536 -2.3481 0.9598
9.7908 -1.9901 -2.3481 0.9598
9.9291 -1.1107 -2.3481 0.9598
9.9885 -0.2226 -2.3481 0.9598
9.9687 0.6673 -2.3481 0.9598
9.8698 1.5520 -2.3481 0.9598
9.6925 2.4243 -2.3481 0.9598
9.4382 3.2773 -2.3481 0.9598
9.1091 4.1044 -2.3481 0.9598
8.7076 4.8988 -2.3481 0.9598
8.2370 5.6544 -2.3481 0.9598
7.7011 6.3651 -2.3481 0.9598
6.4736 7.6570 -2.3565 0.9596
3.5310 9.8145 -2.4514 0.9580
-0.1162 10.4297 -2.4514 0.9580
-1.0440 10.3780 -2.4514 0.9580
-3.5911 9.3241 -2.3483 0.9598
-4.4067 8.9674 -2.3483 0.9598
-5.5074 7.4748 -2.1821 0.9626
-5.5009 3.5985 -1.5449 0.9734
-11.5832 6.1810 -3.0857 0.9475
-12.4563 5.2819 -3.1798 0.9459
-13.7712 4.4406 -3.4007 0.9423
-5.6740 -3.7118 -1.5935 0.9725
-5.6008 -5.2972 -1.8118 0.9688
-5.6028 -6.3352 -1.9877 0.9658
-4.4067 -8.9674 -2.3483 0.9598
-2.7470 -9.6067 -2.3483 0.9598
-1.8810 -9.8130 -2.3483 0.9598
-0.1162 -10.4297 -2.4514 0.9580
1.7349 -10.2851 -2.4514 0.9580
3.5310 -9.8145 -2.4514 0.9580
4.3905 -9.4613 -2.4514 0.9580
5.9985 -8.5329 -2.4514 0.9580
6.4736 -7.6571 -2.3565 0.9596
9.9687 -0.6673 -2.3481 0.9598
9.9885 0.2226 -2.3481 0.9598
9.9291 1.1107 -2.3481 0.9598
9.5748 2.8536 -2.3481 0.9598
7.9770 6.0157 -2.3481 0.9598
6.3726 8.2572 -2.4514 0.9580
4.8076 9.2563 -2.4514 0.9580
3.9647 9.6475 -2.4514 0.9580
2.1913 10.1976 -2.4514 0.9580
1.2750 10.3521 -2.4514 0.9580
0.3485 10.4245 -2.4514 0.9580
-2.3163 9.7195 -2.3483 0.9598
-4.0029 9.1548 -2.3483 0.9598
-4.8018 8.7622 -2.3483 0.9598
-5.5627 8.3001 -2.3483 0.9598
-8.8589 9.1601 -2.9949 0.9490
-9.6230 8.3213 -2.9899 0.9491
-10.4217 7.5011 -3.0178 0.9486
-11.9593 5.7125 -3.1149 0.9470
-5.5956 -2.6728 -1.6056 0.9747
-5.5968 -3.3150 -1.6842 0.9735
-5.5999 -4.8424 -1.9168 0.9699
-5.6040 -6.9362 -2.3088 0.9638
-5.0493 -7.5341 -2.3483 0.9632
-4.3587 -7.9536 -2.3483 0.9632
-2.8794 -8.6004 -2.3483 0.9632
-2.1025 -8.8225 -2.3483 0.9632
-1.3664 -9.3687 -2.4514 0.9616
0.3164 -9.4625 -2.4514 0.9616
1.1573 -9.3968 -2.4514 0.9616
1.9891 -9.2565 -2.4514 0.9616
2.8051 -9.0427 -2.4514 0.9616
4.3639 -8.4021 -2.4514 0.9616
5.0944 -7.9803 -2.4514 0.9616
5.7845 -7.4952 -2.4514 0.9616
7.6981 -4.7944 -2.3481 0.9632
8.0942 -4.0902 -2.3481 0.9632
8.4262 -3.3535 -2.3481 0.9632
8.8872 -1.8064 -2.3481 0.9632
9.0128 -1.0082 -2.3481 0.9632
9.0487 0.6057 -2.3481 0.9632
8.9589 1.4087 -2.3481 0.9632
8.7980 2.2005 -2.3481 0.9632
7.9040 4.4467 -2.3481 0.9632
6.4734 6.4017 -2.3573 0.9631
5.4449 7.7454 -2.4514 0.9616
4.7339 8.1993 -2.4514 0.9616
2.3995 9.1587 -2.4514 0.9616
-0.1055 9.4672 -2.4514 0.9616
-0.9477 9.4202 -2.4514 0.9616
-2.4935 8.7201 -2.3483 0.9632
-3.2597 8.4636 -2.3483 0.9632
-7.7052 8.7123 -3.0114 0.9531
-8.4859 8.0259 -3.0242 0.9529
-5.5229 1.7809 -1.5025 0.9763
-15.0045 3.3996 -3.9834 0.9384
-5.5962 -2.9862 -1.6423 0.9741
-5.5990 -4.4215 -1.8472 0.9710
-5.6028 -6.3352 -2.1898 0.9657
-4.7087 -7.7515 -2.3483 0.9632
-4.0001 -8.1399 -2.3483 0.9632
-2.4935 -8.7201 -2.3483 0.9632
-1.7074 -8.9074 -2.3483 0.9632
-0.9477 -9.4202 -2.4514 0.9616
-0.1055 -9.4672 -2.4514 0.9616
0.7376 -9.4390 -2.4514 0.9616
1.5748 -9.3359 -2.4514 0.9616
3.9853 -8.5881 -2.4514 0.9616
6.1127 -7.2301 -2.4514 0.9616
6.4734 -6.4017 -2.3573 0.9631
7.9040 -4.4467 -2.3481 0.9632
8.5672 -2.9748 -2.3481 0.9632
8.9589 -1.4087 -2.3481 0.9632
9.0487 -0.6057 -2.3481 0.9632
9.0667 0.2021 -2.3481 0.9632
9.0128 1.0082 -2.3481 0.9632
8.6912 2.5903 -2.3481 0.9632
8.4262 3.3535 -2.3481 0.9632
8.0942 4.0902 -2.3481 0.9632
7.6981 4.7944 -2.3481 0.9632
5.7845 7.4952 -2.4514 0.9616
4.3639 8.4021 -2.4514 0.9616
3.5988 8.7571 -2.4514 0.9616
2.8051 9.0427 -2.4514 0.9616
1.9891 9.2565 -2.4514 0.9616
1.1573 9.3968 -2.4514 0.9616
-0.5271 9.4531 -2.4514 0.9616
-2.8794 8.6004 -2.3483 0.9632
-5.0493 7.5341 -2.3483 0.9632
-7.2927 9.0263 -3.0046 0.9532
-8.1054 8.3809 -3.0188 0.9530
-5.5012 2.0487 -1.5199 0.9760
-13.3409 3.6545 -3.5814 0.9444
-19.2039 0.0000 -5.4365 0.9233
-5.5999 -4.8424 -2.0958 0.9697
-5.2131 -6.4523 -2.3483 0.9661
-3.9865 -7.2744 -2.3483 0.9661
-3.3232 -7.6003 -2.3483 0.9661
-2.6335 -7.8659 -2.3483 0.9661
-1.2497 -8.5686 -2.4514 0.9646
-0.4821 -8.6458 -2.4514 0.9646
0.2893 -8.6544 -2.4514 0.9646
1.0585 -8.5943 -2.4514 0.9646
3.2915 -8.0093 -2.4514 0.9646
3.9913 -7.6846 -2.4514 0.9646
5.2905 -6.8551 -2.4514 0.9646
5.8797 -6.3571 -2.4514 0.9646
6.4221 -5.8085 -2.4514 0.9646
6.6224 -4.9942 -2.3481 0.9661
7.0407 -4.3850 -2.3481 0.9661
7.7066 -3.0671 -2.3481 0.9661
8.1283 -1.6521 -2.3481 0.9661
8.2431 -0.9221 -2.3481 0.9661
8.2760 0.5540 -2.3481 0.9661
8.0466 2.0126 -2.3481 0.9661
7.2290 4.0670 -2.3481 0.9661
6.8384 4.6943 -2.3481 0.9661
6.4687 5.3465 -2.3758 0.9657
5.5907 6.6127 -2.4514 0.9646
4.3296 7.4991 -2.4514 0.9646
3.6450 7.8547 -2.4514 0.9646
2.1946 8.3765 -2.4514 0.9646
1.4403 8.5386 -2.4514 0.9646
-1.5860 8.2741 -2.3850 0.9656
-2.2805 7.9754 -2.3483 0.9661
-7.8499 7.4244 -3.0587 0.9561
-8.6777 6.8527 -3.1302 0.9551
-5.5082 3.6033 -1.8633 0.9730
-5.6915 -1.8353 -1.6929 0.9754
-5.5950 -2.3725 -1.7204 0.9751
-5.5990 -4.4215 -2.0197 0.9708
-5.6008 -5.2972 -2.1824 0.9685
-5.4953 -6.2137 -2.3483 0.9661
-4.9205 -6.6781 -2.3483 0.9661
-4.3066 -7.0896 -2.3483 0.9661
-3.6585 -7.4447 -2.3483 0.9661
-0.8668 -8.6158 -2.4514 0.9646
2.1946 -8.3765 -2.4514 0.9646
2.9314 -8.1480 -2.4514 0.9646
3.6450 -7.8547 -2.4514 0.9646
4.3296 -7.4991 -2.4514 0.9646
5.5907 -6.6127 -2.4514 0.9646
6.4687 -5.3465 -2.3758 0.9657
7.2290 -4.0670 -2.3481 0.9661
8.2431 0.9221 -2.3481 0.9661
7.9490 2.3691 -2.3481 0.9661
7.4030 3.7409 -2.3481 0.9661
6.4221 5.8085 -2.4514 0.9646
5.2905 6.8551 -2.4514 0.9646
1.0585 8.5943 -2.4514 0.9646
-1.9230 8.0691 -2.3483 0.9661
-2.6335 7.8660 -2.3483 0.9661
-3.9865 7.2744 -2.3483 0.9661
-5.2131 6.4523 -2.3483 0.9661
-5.5073 5.6946 -2.2427 0.9676
-12.4135 3.4004 -3.6437 0.9479
-18.8282 -1.6825 -5.8142 0.9239
-5.5944 -2.0834 -1.8362 0.9753
-5.5968 -3.3150 -2.0008 0.9731
-5.5999 -4.8424 -2.2771 0.9695
-4.2505 -6.3421 -2.3483 0.9686
-3.6691 -6.6953 -2.3483 0.9686
-2.4239 -7.2397 -2.3483 0.9686
-1.1502 -7.8865 -2.4514 0.9672
-0.4437 -7.9575 -2.4514 0.9672
2.3613 -7.6121 -2.4514 0.9672
3.0294 -7.3717 -2.4514 0.9672
3.6735 -7.0728 -2.4514 0.9672
5.9109 -5.3461 -2.4514 0.9672
6.4802 -4.0359 -2.3481 0.9686
7.4812 -1.5206 -2.3481 0.9686
7.6172 0.5099 -2.3481 0.9686
7.2118 2.5042 -2.3481 0.9686
6.6746 3.7551 -2.3556 0.9685
6.4630 4.4366 -2.4112 0.9677
5.1456 6.0862 -2.4514 0.9672
4.5835 6.5200 -2.4514 0.9672
3.3548 7.2294 -2.4514 0.9672
2.0199 7.7097 -2.4514 0.9672
0.6209 7.9457 -2.4514 0.9672
-0.7978 7.9299 -2.4514 0.9672
-2.7440 7.1246 -2.3483 0.9686
-3.3672 6.8521 -2.3483 0.9686
-3.9637 6.5252 -2.3483 0.9686
-4.5288 6.1465 -2.3483 0.9686
-5.0579 5.7190 -2.3483 0.9686
-9.5146 5.0771 -3.3171 0.9559
-5.5089 -0.7409 -1.7097 0.9770
-5.5950 -2.3725 -1.8692 0.9749
-5.0579 -5.7190 -2.3483 0.9686
-3.9637 -6.5252 -2.3483 0.9686
-3.3672 -6.8521 -2.3483 0.9686
-1.5004 -7.8274 -2.4514 0.9672
1.3256 -7.8589 -2.4514 0.9672
2.0198 -7.7097 -2.4514 0.9672
4.5835 -6.5201 -2.4514 0.9672
5.1456 -6.0862 -2.4514 0.9672
6.1432 -5.0775 -2.4514 0.9672
6.6746 -3.7551 -2.3556 0.9685
6.7821 -3.0559 -2.2880 0.9693
7.2118 -2.5042 -2.3481 0.9686
7.5416 -1.1859 -2.3481 0.9686
7.5869 0.8487 -2.3481 0.9686
7.0931 2.8230 -2.3481 0.9686
6.4802 4.0359 -2.3481 0.9686
5.9109 5.3461 -2.4514 0.9672
5.4116 5.8510 -2.4514 0.9672
4.8694 6.3094 -2.4514 0.9672
3.6735 7.0728 -2.4514 0.9672
1.6744 7.7920 -2.4514 0.9672
-1.1502 7.8865 -2.4514 0.9672
-1.7745 7.4459 -2.3543 0.9685
-3.0586 6.9953 -2.3483 0.9686
-3.6691 6.6953 -2.3483 0.9686
-4.7981 5.9387 -2.3483 0.9686
-5.3076 5.4880 -2.3483 0.9686
-8.4812 6.1044 -3.2141 0.9572
-11.6690 3.1965 -3.7213 0.9506
-18.7488 1.6754 -5.7897 0.9242
-18.5412 0.0000 -6.1632 0.9248
-18.5108 -1.6542 -6.1776 0.9247
-5.5956 -2.6728 -2.0613 0.9742
-5.5968 -3.3150 -2.1623 0.9730
-5.5982 -4.0294 -2.2928 0.9713
-4.4397 -5.4951 -2.3483 0.9707
-3.9330 -5.8684 -2.3483 0.9707
-2.8302 -6.4728 -2.3483 0.9707
0.2464 -7.3705 -2.4514 0.9694
0.9015 -7.3193 -2.4514 0.9694
1.5493 -7.2101 -2.4514 0.9694
2.1849 -7.0435 -2.4514 0.9694
2.8032 -6.8211 -2.4514 0.9694
3.3992 -6.5445 -2.4514 0.9694
5.0074 -5.4140 -2.4514 0.9694
5.4694 -4.9468 -2.4514 0.9694
6.2598 -3.8987 -2.4514 0.9694
6.9225 -1.4071 -2.3481 0.9707
7.0202 -0.7853 -2.3481 0.9707
7.0623 -0.1574 -2.3481 0.9707
7.0482 0.4718 -2.3481 0.9707
6.9783 1.0973 -2.3481 0.9707
6.4273 3.6159 -2.4514 0.9694
5.6844 4.6982 -2.4514 0.9694
5.2436 5.1855 -2.4514 0.9694
3.6873 6.3866 -2.4514 0.9694
2.4965 6.9392 -2.4514 0.9694
1.8690 7.1339 -2.4514 0.9694
0.5745 7.3522 -2.4514 0.9694
-0.0822 7.3742 -2.4514 0.9694
-0.7382 7.3376 -2.4514 0.9694
-1.3883 7.2428 -2.4514 0.9694
-3.1157 6.3403 -2.3483 0.9707
-3.6677 6.0378 -2.3483 0.9707
-5.1325 4.8543 -2.3483 0.9707
-8.3064 5.4338 -3.2994 0.9590
-9.7114 4.1180 -3.5064 0.9565
-10.4734 3.3772 -3.6579 0.9547
-5.5014 1.2464 -1.8750 0.9765
-5.6915 -1.8353 -1.9878 0.9751
-5.5950 -2.3725 -2.0201 0.9747
-5.5442 -4.3782 -2.3483 0.9707
-4.6801 -5.2919 -2.3483 0.9707
-4.1905 -5.6874 -2.3483 0.9707
-3.6677 -6.0378 -2.3483 0.9707
-1.9422 -6.7923 -2.3483 0.9707
-0.7382 -7.3376 -2.4514 0.9694
1.2266 -7.2719 -2.4514 0.9694
1.8690 -7.1339 -2.4514 0.9694
3.1042 -6.6895 -2.4514 0.9694
3.6873 -6.3866 -2.4514 0.9694
4.2411 -6.0331 -2.4514 0.9694
4.7613 -5.6317 -2.4514 0.9694
5.2436 -5.1855 -2.4514 0.9694
5.6844 -4.6982 -2.4514 0.9694
6.4273 -3.6159 -2.4514 0.9694
6.8529 -1.7140 -2.3481 0.9707
6.9783 -1.0973 -2.3481 0.9707
7.0482 -0.4718 -2.3481 0.9707
6.5633 2.6121 -2.3481 0.9707
6.2598 3.8987 -2.4514 0.9694
5.8880 4.4404 -2.4514 0.9694
4.5057 5.8382 -2.4514 0.9694
3.9682 6.2160 -2.4514 0.9694
2.1849 7.0435 -2.4514 0.9694
0.9015 7.3193 -2.4514 0.9694
0.2464 7.3705 -2.4514 0.9694
-0.4106 7.3632 -2.4514 0.9694
-1.6377 6.8721 -2.3483 0.9707
-2.2428 6.6990 -2.3483 0.9707
-2.8302 6.4728 -2.3483 0.9707
-4.9112 5.0781 -2.3483 0.9707
-7.9895 5.7505 -3.2721 0.9594
-8.6611 5.1300 -3.3461 0.9585
-9.3651 4.4733 -3.4499 0.9572
-10.0663 3.7487 -3.5706 0.9557
-10.9967 3.0123 -3.7900 0.9531
-5.5944 -2.0834 -2.1348 0.9750
-4.9671 -4.2952 -2.3483 0.9725
-4.5651 -4.7203 -2.3483 0.9725
-4.1268 -5.1079 -2.3483 0.9725
-3.1558 -5.7586 -2.3483 0.9725
-2.0848 -6.2269 -2.3483 0.9725
-1.5829 -6.6423 -2.4419 0.9714
0.2291 -6.8511 -2.4514 0.9713
0.8379 -6.8035 -2.4514 0.9713
1.4402 -6.7020 -2.4514 0.9713
3.1596 -6.0833 -2.4514 0.9713
3.6885 -5.7780 -2.4514 0.9713
4.6545 -5.0324 -2.4514 0.9713
5.0840 -4.5982 -2.4514 0.9713
5.8187 -3.6239 -2.4514 0.9713
6.3690 -2.5348 -2.4514 0.9713
6.4630 -1.9262 -2.4117 0.9718
6.5646 -0.1463 -2.3481 0.9725
6.5515 0.4386 -2.3481 0.9725
6.4865 1.0200 -2.3481 0.9725
6.4667 1.6174 -2.3838 0.9721
6.4630 2.2442 -2.4466 0.9714
6.2498 2.8160 -2.4514 0.9713
5.2838 4.3671 -2.4514 0.9713
4.8741 4.8201 -2.4514 0.9713
4.4257 5.2348 -2.4514 0.9713
3.9422 5.6079 -2.4514 0.9713
3.4275 5.9365 -2.4514 0.9713
0.5340 6.8341 -2.4514 0.9713
-0.0764 6.8545 -2.4514 0.9713
-0.6861 6.8205 -2.4514 0.9713
-1.2905 6.7323 -2.4514 0.9713
-2.8961 5.8935 -2.3483 0.9725
-3.4092 5.6123 -2.3483 0.9725
-3.8952 5.2866 -2.3483 0.9725
-4.3503 4.9189 -2.3483 0.9725
-4.7708 4.5122 -2.3483 0.9725
-5.1535 4.0697 -2.3483 0.9725
-5.4953 3.5948 -2.3483 0.9725
-5.5078 2.9391 -2.2325 0.9738
-9.2053 3.9034 -3.5756 0.9584
-9.9628 3.2126 -3.7434 0.9565
-5.5014 1.2464 -2.0172 0.9763
-5.5087 0.7408 -1.9877 0.9767
-5.5950 -2.3725 -2.1732 0.9745
-5.4953 -3.5948 -2.3483 0.9725
-4.7708 -4.5122 -2.3483 0.9725
-4.3503 -4.9189 -2.3483 0.9725
-3.4092 -5.6123 -2.3483 0.9725
-2.8961 -5.8935 -2.3483 0.9725
-2.3601 -6.1279 -2.3483 0.9725
-1.8053 -6.3136 -2.3483 0.9725
-1.2905 -6.7324 -2.4514 0.9713
-0.6862 -6.8205 -2.4514 0.9713
-0.0764 -6.8545 -2.4514 0.9713
1.1402 -6.7595 -2.4514 0.9713
1.7373 -6.6311 -2.4514 0.9713
2.3206 -6.4502 -2.4514 0.9713
2.8855 -6.2180 -2.4514 0.9713
3.4275 -5.9365 -2.4514 0.9713
3.9422 -5.6079 -2.4514 0.9713
4.4257 -5.2348 -2.4514 0.9713
5.2838 -4.3671 -2.4514 0.9713
5.9744 -3.3611 -2.4514 0.9713
6.4630 -2.2442 -2.4466 0.9714
6.4865 -1.0199 -2.3481 0.9725
6.5515 -0.4386 -2.3481 0.9725
6.5646 0.1463 -2.3481 0.9725
6.4723 1.3155 -2.3619 0.9723
6.3690 2.5348 -2.4514 0.9713
2.0310 6.5471 -2.4514 0.9713
1.4402 6.7019 -2.4514 0.9713
0.8379 6.8035 -2.4514 0.9713
-0.3816 6.8443 -2.4514 0.9713
-0.9893 6.7832 -2.4514 0.9713
-1.5829 6.6423 -2.4419 0.9714
-2.0848 6.2269 -2.3483 0.9725
-2.6307 6.0167 -2.3483 0.9725
-3.1558 5.7586 -2.3483 0.9725
-3.6558 5.4549 -2.3483 0.9725
-4.9671 4.2952 -2.3483 0.9725
-8.2272 4.8730 -3.4195 0.9602
-8.8822 4.2427 -3.5201 0.9590
-9.5267 3.5478 -3.6354 0.9577
-5.5944 -2.0834 -2.2877 0.9748
-5.2724 -3.1229 -2.3483 0.9741
-4.2600 -4.4048 -2.3483 0.9741
-2.4549 -5.6146 -2.3483 0.9741
-1.4829 -6.2225 -2.4514 0.9730
-0.9232 -6.3298 -2.4514 0.9730
0.2138 -6.3932 -2.4514 0.9730
0.7819 -6.3488 -2.4514 0.9730
1.3439 -6.2540 -2.4514 0.9730
1.8952 -6.1096 -2.4514 0.9730
2.4315 -5.9167 -2.4514 0.9730
2.9484 -5.6768 -2.4514 0.9730
4.3435 -4.6961 -2.4514 0.9730
5.4298 -3.3817 -2.4514 0.9730
5.9434 -2.3654 -2.4514 0.9730
6.2686 -1.2742 -2.4514 0.9730
6.3572 -0.7112 -2.4514 0.9730
6.3952 -0.1425 -2.4514 0.9730
6.3825 0.4272 -2.4514 0.9730
4.9306 4.0753 -2.4514 0.9730
3.6788 5.2331 -2.4514 0.9730
1.0640 6.3077 -2.4514 0.9730
-0.0713 6.3964 -2.4514 0.9730
-2.2024 5.7183 -2.3483 0.9741
-2.7026 5.4996 -2.3483 0.9741
-3.1814 5.2372 -2.3483 0.9741
-4.4520 4.2107 -2.3483 0.9741
-5.4062 2.8849 -2.3483 0.9741
-5.5014 1.2464 -2.1617 0.9761
-5.5087 -1.7764 -2.2181 0.9755
-5.4062 -2.8849 -2.3483 0.9741
-5.1280 -3.3546 -2.3483 0.9741
-4.4520 -4.2107 -2.3483 0.9741
-4.0595 -4.5902 -2.3483 0.9741
-3.6349 -4.9333 -2.3483 0.9741
-3.1814 -5.2372 -2.3483 0.9741
-2.2024 -5.7183 -2.3483 0.9741
-1.6847 -5.8917 -2.3483 0.9741
-0.6403 -6.3647 -2.4514 0.9730
-0.0713 -6.3964 -2.4514 0.9730
1.0640 -6.3077 -2.4514 0.9730
1.6212 -6.1880 -2.4514 0.9730
3.6788 -5.2331 -2.4514 0.9730
4.5484 -4.4980 -2.4514 0.9730
5.8321 -2.6278 -2.4514 0.9730
6.0429 -2.0983 -2.4514 0.9730
6.3825 -0.4272 -2.4514 0.9730
6.3952 0.1425 -2.4514 0.9730
6.3572 0.7112 -2.4514 0.9730
6.2686 1.2742 -2.4514 0.9730
5.1073 3.8516 -2.4514 0.9730
3.9083 5.0641 -2.4514 0.9730
2.9485 5.6768 -2.4514 0.9730
1.8952 6.1096 -2.4514 0.9730
0.2138 6.3932 -2.4514 0.9730
-0.3561 6.3869 -2.4514 0.9730
-1.4829 6.2225 -2.4514 0.9730
-2.9449 5.3737 -2.3483 0.9741
-3.8510 4.7665 -2.3483 0.9741
-4.2600 4.4048 -2.3483 0.9741
-9.0626 3.3749 -3.7060 0.9594
-10.9691 1.9762 -4.2712 0.9534
-13.4613 1.2029 -5.1792 0.9438
-17.9825 0.0000 -7.3598 0.9252
-1.6200 -0.2919 -0.6737 0.9929
-1.6035 -0.4392 -0.6804 0.9928
-5.1774 -2.4730 -2.3483 0.9755
-4.9367 -2.9240 -2.3483 0.9755
-4.3400 -3.7530 -2.3483 0.9755
-3.9888 -4.1244 -2.3483 0.9755
-3.6059 -4.4630 -2.3483 0.9755
-2.7574 -5.0317 -2.3483 0.9755
-1.3885 -5.8264 -2.4514 0.9744
-0.8644 -5.9268 -2.4514 0.9744
-0.3335 -5.9803 -2.4514 0.9744
1.2583 -5.8559 -2.4514 0.9744
2.2767 -5.5400 -2.4514 0.9744
2.7607 -5.3154 -2.4514 0.9744
3.2229 -5.0485 -2.4514 0.9744
3.6594 -4.7417 -2.4514 0.9744
4.0669 -4.3971 -2.4514 0.9744
4.4422 -4.0177 -2.4514 0.9744
4.7821 -3.6064 -2.4514 0.9744
5.0841 -3.1664 -2.4514 0.9744
5.5650 -2.2148 -2.4514 0.9744
5.8695 -1.1930 -2.4514 0.9744
5.9524 -0.6659 -2.4514 0.9744
5.4608 2.4605 -2.4514 0.9744
4.9380 3.3898 -2.4514 0.9744
4.6167 3.8158 -2.4514 0.9744
2.9948 5.1871 -2.4514 0.9744
2.0276 5.6359 -2.4514 0.9744
0.9962 5.9061 -2.4514 0.9744
0.4666 5.9713 -2.4514 0.9744
-2.0622 5.3543 -2.3483 0.9755
-2.5305 5.1495 -2.3483 0.9755
-4.1685 3.9426 -2.3483 0.9755
-4.8015 3.1410 -2.3483 0.9755
-5.2824 2.2399 -2.3483 0.9755
-1.6146 0.3658 -0.6776 0.9929
-1.6301 0.2192 -0.6732 0.9929
-17.7919 0.7934 -7.2890 0.9259
-1.6146 -0.3658 -0.6776 0.9929
-1.5889 -0.5124 -0.6833 0.9928
-5.2824 -2.2399 -2.3483 0.9755
-5.0620 -2.7012 -2.3483 0.9755
-4.5029 -3.5559 -2.3483 0.9755
-3.8011 -4.2980 -2.3483 0.9755
-3.4035 -4.6192 -2.3483 0.9755
-2.9788 -4.9038 -2.3483 0.9755
-2.0622 -5.3543 -2.3483 0.9755
-1.5901 -5.5610 -2.3672 0.9753
-0.5995 -5.9595 -2.4514 0.9744
0.9962 -5.9061 -2.4514 0.9744
1.5180 -5.7940 -2.4514 0.9744
2.0276 -5.6359 -2.4514 0.9744
2.5212 -5.4331 -2.4514 0.9744
2.9948 -5.1871 -2.4514 0.9744
3.4446 -4.9000 -2.4514 0.9744
4.2588 -4.2116 -2.4514 0.9744
4.9380 -3.3898 -2.4514 0.9744
5.2201 -2.9368 -2.4514 0.9744
5.4608 -2.4605 -2.4514 0.9744
5.6581 -1.9647 -2.4514 0.9744
5.9762 -0.4001 -2.4514 0.9744
5.9881 0.1334 -2.4514 0.9744
5.8695 1.1930 -2.4514 0.9744
5.5650 2.2148 -2.4514 0.9744
5.3458 2.7013 -2.4514 0.9744
5.0841 3.1664 -2.4514 0.9744
4.7821 3.6064 -2.4514 0.9744
4.4422 4.0177 -2.4514 0.9744
4.0669 4.3971 -2.4514 0.9744
3.2229 5.0485 -2.4514 0.9744
2.2767 5.5400 -2.4514 0.9744
1.2583 5.8559 -2.4514 0.9744
0.7322 5.9446 -2.4514 0.9744
0.2001 5.9862 -2.4514 0.9744
-0.3335 5.9803 -2.4514 0.9744
-1.3885 5.8264 -2.4514 0.9744
-1.8216 5.4408 -2.3483 0.9755
-3.1943 4.7662 -2.3483 0.9755
-3.6059 4.4630 -2.3483 0.9755
-4.9367 2.9240 -2.3483 0.9755
-5.1774 2.4730 -2.3483 0.9755
-1.6200 0.2919 -0.6737 0.9929
-1.5266 0.0000 -0.6653 0.9934
-1.5015 -0.2705 -0.6649 0.9934
-5.0495 -1.8804 -2.3483 0.9768
-4.3732 -3.1477 -2.3483 0.9768
-4.0757 -3.5244 -2.3483 0.9768
-3.7459 -3.8732 -2.3483 0.9768
-2.9998 -4.4760 -2.3483 0.9768
-1.3039 -5.4716 -2.4514 0.9758
-0.8118 -5.5659 -2.4514 0.9758
-0.3131 -5.6160 -2.4514 0.9758
1.6665 -5.3722 -2.4514 0.9758
2.1380 -5.2026 -2.4514 0.9758
2.5926 -4.9916 -2.4514 0.9758
3.0266 -4.7411 -2.4514 0.9758
3.4366 -4.4529 -2.4514 0.9758
3.8193 -4.1293 -2.4514 0.9758
5.5121 -1.1204 -2.4514 0.9758
5.5899 -0.6253 -2.4514 0.9758
5.6234 -0.1253 -2.4514 0.9758
5.5565 0.8737 -2.4514 0.9758
5.1282 2.3107 -2.4514 0.9758
4.6373 3.1833 -2.4514 0.9758
3.9994 3.9551 -2.4514 0.9758
3.6315 4.2954 -2.4514 0.9758
2.8124 4.8712 -2.4514 0.9758
2.3677 5.1022 -2.4514 0.9758
1.9041 5.2927 -2.4514 0.9758
1.4255 5.4411 -2.4514 0.9758
-0.0627 5.6245 -2.4514 0.9758
-1.0589 5.5242 -2.4514 0.9758
-1.5464 5.4080 -2.4514 0.9758
-2.3764 4.8359 -2.3483 0.9768
-2.7974 4.6052 -2.3483 0.9768
-4.5091 2.9497 -2.3483 0.9768
-4.7538 2.5367 -2.3483 0.9768
-4.9607 2.1035 -2.3483 0.9768
-1.4861 0.4792 -0.6805 0.9932
-1.5133 0.2035 -0.6654 0.9934
-1.5259 0.0680 -0.6657 0.9934
-1.5029 -0.3405 -0.6716 0.9933
-1.4861 -0.4792 -0.6805 0.9932
-4.9607 -2.1035 -2.3483 0.9768
-4.7538 -2.5367 -2.3483 0.9768
-4.5091 -2.9497 -2.3483 0.9768
-4.2287 -3.3394 -2.3483 0.9768
-3.9147 -3.7025 -2.3483 0.9768
-3.5696 -4.0362 -2.3483 0.9768
-3.1962 -4.3379 -2.3483 0.9768
-2.3764 -4.8359 -2.3483 0.9768
-1.9366 -5.0282 -2.3483 0.9768
-1.0589 -5.5242 -2.4514 0.9758
-0.0627 -5.6244 -2.4514 0.9758
0.4382 -5.6077 -2.4514 0.9758
0.9356 -5.5464 -2.4514 0.9758
1.4255 -5.4411 -2.4514 0.9758
2.3677 -5.1022 -2.4514 0.9758
2.8124 -4.8712 -2.4514 0.9758
3.9994 -3.9551 -2.4514 0.9758
5.3136 -1.8451 -2.4514 0.9758
5.4567 -1.3648 -2.4514 0.9758
5.5565 -0.8737 -2.4514 0.9758
5.6122 -0.3757 -2.4514 0.9758
5.5899 0.6253 -2.4514 0.9758
5.3905 1.6065 -2.4514 0.9758
5.0202 2.5368 -2.4514 0.9758
4.4909 3.3868 -2.4514 0.9758
3.8193 4.1293 -2.4514 0.9758
2.5926 4.9917 -2.4514 0.9758
0.6876 5.5826 -2.4514 0.9758
-0.8118 5.5659 -2.4514 0.9758
-1.3039 5.4715 -2.4514 0.9758
-1.7107 5.1095 -2.3483 0.9768
-2.5895 4.7252 -2.3483 0.9768
-2.1338 3.1839 -1.6704 0.9834
-4.3732 3.1477 -2.3483 0.9768
-1.4219 0.0000 -0.6582 0.9938
-1.4172 -0.1266 -0.6586 0.9937
-1.3993 -0.2521 -0.6581 0.9938
-1.3946 -0.3820 -0.6693 0.9936
-4.5777 -2.1866 -2.3483 0.9779
-3.8374 -3.3183 -2.3483 0.9779
-3.1882 -3.9461 -2.3483 0.9779
-2.4381 -4.4489 -2.3483 0.9779
-2.0324 -4.6482 -2.3483 0.9779
-1.6106 -4.8107 -2.3483 0.9779
-1.2277 -5.1516 -2.4514 0.9769
-0.7643 -5.2404 -2.4514 0.9769
0.6474 -5.2561 -2.4514 0.9769
2.0130 -4.8984 -2.4514 0.9769
2.4410 -4.6997 -2.4514 0.9769
2.8496 -4.4638 -2.4514 0.9769
3.2356 -4.1925 -2.4514 0.9769
3.5959 -3.8879 -2.4514 0.9769
3.9277 -3.5524 -2.4514 0.9769
4.2283 -3.1887 -2.4514 0.9769
5.0753 -1.5126 -2.4514 0.9769
5.2630 -0.5888 -2.4514 0.9769
5.2945 -0.1180 -2.4514 0.9769
5.2840 0.3537 -2.4514 0.9769
5.2316 0.8226 -2.4514 0.9769
4.8284 2.1755 -2.4514 0.9769
4.6156 2.5967 -2.4514 0.9769
4.3661 2.9972 -2.4514 0.9769
4.0820 3.3739 -2.4514 0.9769
3.7655 3.7238 -2.4514 0.9769
3.4192 4.0442 -2.4514 0.9769
2.6479 4.5863 -2.4514 0.9769
2.2292 4.8038 -2.4514 0.9769
1.3422 5.1230 -2.4514 0.9769
0.4126 5.2798 -2.4514 0.9769
-0.5301 5.2693 -2.4514 0.9769
-0.9970 5.2012 -2.4514 0.9769
-1.8233 4.7342 -2.3483 0.9779
-2.2375 4.5531 -2.3483 0.9779
-2.6338 4.3359 -2.3483 0.9779
-3.3609 3.8002 -2.3483 0.9779
-4.4758 2.3884 -2.3483 0.9779
-1.3967 0.3165 -0.6629 0.9937
-1.3890 -0.4479 -0.6755 0.9936
-4.6706 -1.9805 -2.3483 0.9779
-4.4758 -2.3883 -2.3483 0.9779
-4.2454 -2.7772 -2.3483 0.9779
-3.9814 -3.1441 -2.3483 0.9779
-3.6858 -3.4860 -2.3483 0.9779
-3.3609 -3.8002 -2.3483 0.9779
-3.0093 -4.0842 -2.3483 0.9779
-2.2375 -4.5531 -2.3483 0.9779
-1.8233 -4.7342 -2.3483 0.9779
0.4126 -5.2798 -2.4514 0.9769
0.8809 -5.2221 -2.4514 0.9769
1.3422 -5.1230 -2.4514 0.9769
1.7928 -4.9832 -2.4514 0.9769
2.6479 -4.5863 -2.4514 0.9769
3.4192 -4.0442 -2.4514 0.9769
3.7655 -3.7238 -2.4514 0.9769
4.8284 -2.1755 -2.4514 0.9769
5.0028 -1.7372 -2.4514 0.9769
5.1376 -1.2850 -2.4514 0.9769
5.2316 -0.8226 -2.4514 0.9769
5.2630 0.5888 -2.4514 0.9769
5.0753 1.5126 -2.4514 0.9769
4.7267 2.3885 -2.4514 0.9769
4.4953 2.7997 -2.4514 0.9769
4.2283 3.1887 -2.4514 0.9769
3.5959 3.8879 -2.4514 0.9769
2.4410 4.6997 -2.4514 0.9769
2.0130 4.8984 -2.4514 0.9769
1.1126 5.1777 -2.4514 0.9769
0.6474 5.2561 -2.4514 0.9769
0.1770 5.2929 -2.4514 0.9769
-0.2948 5.2876 -2.4514 0.9769
-0.7643 5.2404 -2.4514 0.9769
-1.2277 5.1516 -2.4514 0.9769
-2.0324 4.6482 -2.3483 0.9779
-3.1882 3.9461 -2.3483 0.9779
-4.1175 2.9636 -2.3483 0.9779
-4.5777 2.1866 -2.3483 0.9779
-4.7542 1.7705 -2.3483 0.9779
-1.3946 0.3820 -0.6693 0.9936
-1.4172 0.1266 -0.6586 0.9937
-4.3198 -2.0634 -2.3483 0.9789
-4.1190 -2.4397 -2.3483 0.9789
-3.8855 -2.7966 -2.3483 0.9789
-3.6212 -3.1313 -2.3483 0.9789
-3.3281 -3.4412 -2.3483 0.9789
-3.0086 -3.7238 -2.3483 0.9789
-1.9179 -4.3863 -2.3483 0.9789
-1.1585 -4.8613 -2.4514 0.9780
-0.2782 -4.9897 -2.4514 0.9780
0.1670 -4.9947 -2.4514 0.9780
0.6109 -4.9600 -2.4514 0.9780
1.0499 -4.8859 -2.4514 0.9780
1.8996 -4.6224 -2.4514 0.9780
3.0533 -3.9563 -2.4514 0.9780
3.7064 -3.3522 -2.4514 0.9780
3.9900 -3.0090 -2.4514 0.9780
4.2420 -2.6419 -2.4514 0.9780
4.4603 -2.2539 -2.4514 0.9780
4.6432 -1.8480 -2.4514 0.9780
4.8973 -0.9954 -2.4514 0.9780
4.9665 -0.5556 -2.4514 0.9780
4.8481 1.2126 -2.4514 0.9780
3.2265 3.8163 -2.4514 0.9780
2.1036 4.5331 -2.4514 0.9780
1.6918 4.7024 -2.4514 0.9780
1.2665 4.8343 -2.4514 0.9780
0.8312 4.9279 -2.4514 0.9780
0.3893 4.9823 -2.4514 0.9780
-0.5002 4.9724 -2.4514 0.9780
-1.3739 4.8049 -2.4514 0.9780
-2.1114 4.2965 -2.3483 0.9789
-2.4854 4.0915 -2.3483 0.9789
-3.4781 3.2896 -2.3483 0.9789
-3.7571 2.9669 -2.3483 0.9789
-4.0062 2.6207 -2.3483 0.9789
-4.2236 2.2538 -2.3483 0.9789
-4.4074 1.8689 -2.3483 0.9789
-1.3003 0.4193 -0.6702 0.9939
-1.3251 0.1782 -0.6559 0.9941
-1.3355 0.0596 -0.6558 0.9941
-1.3089 -0.2966 -0.6583 0.9940
-1.3003 -0.4193 -0.6702 0.9939
-4.4074 -1.8689 -2.3483 0.9789
-4.2236 -2.2538 -2.3483 0.9789
-4.0062 -2.6207 -2.3483 0.9789
-3.7571 -2.9669 -2.3483 0.9789
-3.4781 -3.2896 -2.3483 0.9789
-3.1715 -3.5861 -2.3483 0.9789
-2.1114 -4.2965 -2.3483 0.9789
-0.9408 -4.9081 -2.4514 0.9780
0.8312 -4.9279 -2.4514 0.9780
1.2665 -4.8343 -2.4514 0.9780
1.6918 -4.7024 -2.4514 0.9780
3.5534 -3.5140 -2.4514 0.9780
4.1201 -2.8283 -2.4514 0.9780
4.3555 -2.4504 -2.4514 0.9780
4.5563 -2.0530 -2.4514 0.9780
4.8481 -1.2126 -2.4514 0.9780
4.9863 -0.3338 -2.4514 0.9780
4.8973 0.9954 -2.4514 0.9780
4.7893 1.4274 -2.4514 0.9780
4.2420 2.6420 -2.4514 0.9780
3.7064 3.3522 -2.4514 0.9780
3.3933 3.6688 -2.4514 0.9780
3.0533 3.9563 -2.4514 0.9780
2.3035 4.4350 -2.4514 0.9780
1.4806 4.7731 -2.4514 0.9780
0.1670 4.9947 -2.4514 0.9780
-0.7212 4.9451 -2.4514 0.9780
-1.1585 4.8613 -2.4514 0.9780
-1.5829 4.7280 -2.4457 0.9780
-2.0390 3.0424 -1.7966 0.9838
-3.0086 3.7238 -2.3483 0.9789
-3.6212 3.1313 -2.3483 0.9789
-3.8855 2.7966 -2.3483 0.9789
-4.3198 2.0634 -2.3483 0.9789
-1.2931 0.4815 -0.6768 0.9939
-1.2624 0.0000 -0.6549 0.9943
-1.2576 -0.1124 -0.6550 0.9943
-1.2426 -0.2239 -0.6550 0.9943
-4.0845 -1.9510 -2.3483 0.9798
-3.1468 -3.2538 -2.3483 0.9798
-2.8447 -3.5210 -2.3483 0.9798
-1.8134 -4.1474 -2.3483 0.9798
-0.6819 -4.6758 -2.4514 0.9789
-0.2631 -4.7179 -2.4514 0.9789
0.1579 -4.7226 -2.4514 0.9789
0.5776 -4.6898 -2.4514 0.9789
0.9927 -4.6198 -2.4514 0.9789
1.4000 -4.5131 -2.4514 0.9789
2.5426 -3.9829 -2.4514 0.9789
2.8870 -3.7408 -2.4514 0.9789
3.2085 -3.4690 -2.4514 0.9789
3.5045 -3.1696 -2.4514 0.9789
3.7727 -2.8451 -2.4514 0.9789
4.0110 -2.4980 -2.4514 0.9789
4.3903 -1.7473 -2.4514 0.9789
4.5284 -1.3496 -2.4514 0.9789
4.6306 -0.9412 -2.4514 0.9789
4.7241 -0.1053 -2.4514 0.9789
4.5841 1.1465 -2.4514 0.9789
4.4638 1.5500 -2.4514 0.9789
4.3081 1.9412 -2.4514 0.9789
4.1183 2.3169 -2.4514 0.9789
3.3598 3.3226 -2.4514 0.9789
2.3626 4.0922 -2.4514 0.9789
1.9890 4.2863 -2.4514 0.9789
1.5996 4.4462 -2.4514 0.9789
1.1975 4.5710 -2.4514 0.9789
-1.2991 4.5432 -2.4514 0.9789
-1.6269 4.2241 -2.3483 0.9798
-1.9964 4.0625 -2.3483 0.9798
-2.9988 3.3907 -2.3483 0.9798
-3.2886 3.1104 -2.3483 0.9798
-3.7880 2.4780 -2.3483 0.9798
-1.2613 0.0562 -0.6550 0.9943
-1.2613 -0.0562 -0.6550 0.9943
-1.2316 -0.2790 -0.6551 0.9943
-4.1674 -1.7671 -2.3483 0.9798
-3.9935 -2.1310 -2.3483 0.9798
-3.5524 -2.8053 -2.3483 0.9798
-3.2886 -3.1104 -2.3483 0.9798
-2.9988 -3.3907 -2.3483 0.9798
-2.3501 -3.8687 -2.3483 0.9798
-1.9964 -4.0625 -2.3483 0.9798
-1.2991 -4.5432 -2.4514 0.9789
-0.8896 -4.6408 -2.4514 0.9789
-0.4730 -4.7015 -2.4514 0.9789
-0.0526 -4.7250 -2.4514 0.9789
1.1975 -4.5710 -2.4514 0.9789
1.9890 -4.2863 -2.4514 0.9789
2.7175 -3.8657 -2.4514 0.9789
3.0508 -3.6085 -2.4514 0.9789
3.3598 -3.3226 -2.4514 0.9789
3.8957 -2.6743 -2.4514 0.9789
4.7147 -0.3156 -2.4514 0.9789
4.6960 0.5253 -2.4514 0.9789
4.5284 1.3496 -2.4514 0.9789
4.2174 2.1311 -2.4514 0.9789
3.7727 2.8451 -2.4514 0.9789
3.2085 3.4690 -2.4514 0.9789
1.7961 4.3706 -2.4514 0.9789
1.4000 4.5131 -2.4514 0.9789
0.9927 4.6198 -2.4514 0.9789
0.1579 4.7226 -2.4514 0.9789
-0.2631 4.7179 -2.4514 0.9789
-1.8134 4.1474 -2.3483 0.9798
-2.1754 3.9696 -2.3483 0.9798
-3.1468 3.2538 -2.3483 0.9798
-3.4239 2.9608 -2.3483 0.9798
-3.6739 2.6443 -2.3483 0.9798
-3.8947 2.3068 -2.3483 0.9798
-1.2283 0.3365 -0.6607 0.9943
-1.1944 0.0000 -0.6542 0.9946
-1.1756 -0.2118 -0.6543 0.9946
-3.6890 -2.1850 -2.3483 0.9806
-3.4799 -2.5046 -2.3483 0.9806
-3.2431 -2.8044 -2.3483 0.9806
-2.0605 -3.7599 -2.3483 0.9806
-1.7177 -3.9284 -2.3483 0.9806
-1.0376 -4.3538 -2.4514 0.9798
0.1496 -4.4732 -2.4514 0.9798
1.3260 -4.2748 -2.4514 0.9798
1.7013 -4.1398 -2.4514 0.9798
2.0630 -3.9719 -2.4514 0.9798
2.4083 -3.7725 -2.4514 0.9798
3.3194 -3.0023 -2.4514 0.9798
3.7991 -2.3661 -2.4514 0.9798
4.1585 -1.6550 -2.4514 0.9798
4.4480 -0.4976 -2.4514 0.9798
4.4657 0.2989 -2.4514 0.9798
4.3420 1.0860 -2.4514 0.9798
4.2281 1.4682 -2.4514 0.9798
2.2379 3.8761 -2.4514 0.9798
1.8840 4.0599 -2.4514 0.9798
0.3487 4.4621 -2.4514 0.9798
-0.0499 4.4754 -2.4514 0.9798
-0.4480 4.4532 -2.4514 0.9798
-1.2305 4.3033 -2.4514 0.9798
-1.5829 4.1100 -2.4123 0.9801
-1.8910 3.8480 -2.3483 0.9806
-2.8404 3.2117 -2.3483 0.9806
-3.3648 2.6572 -2.3483 0.9806
-3.5880 2.3471 -2.3483 0.9806
-1.1411 0.4838 -0.6788 0.9944
-1.1840 0.1592 -0.6543 0.9946
-1.1933 0.0532 -0.6542 0.9946
-1.1515 -0.3713 -0.6626 0.9945
-1.1411 -0.4838 -0.6788 0.9944
-3.5880 -2.3471 -2.3483 0.9806
-3.3648 -2.6572 -2.3483 0.9806
-2.8404 -3.2117 -2.3483 0.9806
-1.8910 -3.8480 -2.3483 0.9806
-1.5829 -4.1100 -2.4123 0.9801
-0.8426 -4.3957 -2.4514 0.9798
-0.4480 -4.4532 -2.4514 0.9798
0.3487 -4.4621 -2.4514 0.9798
1.1343 -4.3296 -2.4514 0.9798
1.5152 -4.2115 -2.4514 0.9798
1.8840 -4.0599 -2.4514 0.9798
2.8897 -3.4179 -2.4514 0.9798
3.1824 -3.1471 -2.4514 0.9798
3.4499 -2.8514 -2.4514 0.9798
3.6900 -2.5330 -2.4514 0.9798
3.9008 -2.1946 -2.4514 0.9798
4.2281 -1.4681 -2.4514 0.9798
4.3420 -1.0860 -2.4514 0.9798
4.4746 0.0997 -2.4514 0.9798
4.2893 1.2783 -2.4514 0.9798
4.1585 1.6550 -2.4514 0.9798
3.3194 3.0022 -2.4514 0.9798
3.0390 3.2858 -2.4514 0.9798
2.7345 3.5432 -2.4514 0.9798
2.0630 3.9719 -2.4514 0.9798
1.7013 4.1398 -2.4514 0.9798
1.3261 4.2748 -2.4514 0.9798
0.1496 4.4732 -2.4514 0.9798
-0.2492 4.4688 -2.4514 0.9798
-1.0376 4.3538 -2.4514 0.9798
-2.6945 3.3350 -2.3483 0.9806
-2.9806 3.0820 -2.3483 0.9806
-3.8688 1.8480 -2.3483 0.9806
-1.1577 0.3171 -0.6575 0.9945
-1.1319 0.0000 -0.6535 0.9948
-1.0827 -0.4032 -0.6671 0.9947
-3.6701 -1.7531 -2.3483 0.9814
-3.4995 -2.0728 -2.3483 0.9814
-3.0766 -2.6604 -2.3483 0.9814
-2.8276 -2.9237 -2.3483 0.9814
-2.0404 -3.0445 -2.1160 0.9832
-1.6295 -3.7267 -2.3483 0.9814
-1.3480 -4.0262 -2.4514 0.9806
-0.6128 -4.2014 -2.4514 0.9806
-0.2364 -4.2393 -2.4514 0.9806
0.8920 -4.1511 -2.4514 0.9806
1.2580 -4.0553 -2.4514 0.9806
1.6139 -3.9272 -2.4514 0.9806
1.9570 -3.7680 -2.4514 0.9806
3.1490 -2.8481 -2.4514 0.9806
3.6041 -2.2446 -2.4514 0.9806
3.7895 -1.9150 -2.4514 0.9806
3.9449 -1.5701 -2.4514 0.9806
4.0690 -1.2127 -2.4514 0.9806
4.1608 -0.8457 -2.4514 0.9806
4.2448 -0.0946 -2.4514 0.9806
4.2364 0.2836 -2.4514 0.9806
4.1944 0.6595 -2.4514 0.9806
3.8711 1.7442 -2.4514 0.9806
3.0190 2.9855 -2.4514 0.9806
2.4418 3.4735 -2.4514 0.9806
1.4374 3.9952 -2.4514 0.9806
1.0761 4.1073 -2.4514 0.9806
0.7062 4.1868 -2.4514 0.9806
0.3308 4.2330 -2.4514 0.9806
-0.4250 4.2246 -2.4514 0.9806
-0.7993 4.1700 -2.4514 0.9806
-1.1673 4.0823 -2.4514 0.9806
-1.5260 3.9622 -2.4514 0.9806
-1.7939 3.6504 -2.3483 0.9814
-2.6945 3.0468 -2.3483 0.9814
-2.9550 2.7948 -2.3483 0.9814
-3.1920 2.5207 -2.3483 0.9814
-1.0769 0.4566 -0.6753 0.9946
-1.1309 0.0504 -0.6536 0.9948
-1.1220 -0.1509 -0.6536 0.9948
-1.1039 -0.2501 -0.6535 0.9948
-1.0870 -0.3505 -0.6594 0.9947
-1.0769 -0.4566 -0.6753 0.9946
-3.5884 -1.9148 -2.3483 0.9814
-2.9550 -2.7948 -2.3483 0.9814
-1.7939 -3.6504 -2.3483 0.9814
-0.7993 -4.1700 -2.4514 0.9806
-0.4250 -4.2246 -2.4514 0.9806
0.3308 -4.2330 -2.4514 0.9806
0.7062 -4.1868 -2.4514 0.9806
1.4374 -3.9952 -2.4514 0.9806
2.7413 -3.2424 -2.4514 0.9806
3.0190 -2.9855 -2.4514 0.9806
3.2727 -2.7050 -2.4514 0.9806
4.1190 -1.0302 -2.4514 0.9806
4.2448 0.0946 -2.4514 0.9806
4.2196 0.4720 -2.4514 0.9806
4.0690 1.2127 -2.4514 0.9806
3.7895 1.9149 -2.4514 0.9806
3.6041 2.2446 -2.4514 0.9806
3.3900 2.5565 -2.4514 0.9806
3.1490 2.8481 -2.4514 0.9806
2.8830 3.1171 -2.4514 0.9806
2.5941 3.3613 -2.4514 0.9806
2.2846 3.5788 -2.4514 0.9806
1.6139 3.9272 -2.4514 0.9806
1.2580 4.0553 -2.4514 0.9806
0.8920 4.1511 -2.4514 0.9806
0.5190 4.2141 -2.4514 0.9806
0.1419 4.2435 -2.4514 0.9806
-0.6128 4.2014 -2.4514 0.9806
-0.9843 4.1302 -2.4514 0.9806
-2.0261 3.0231 -2.1011 0.9833
-2.5561 3.1638 -2.3483 0.9814
-2.8276 2.9237 -2.3483 0.9814
-3.0766 2.6604 -2.3483 0.9814
-3.3012 2.3760 -2.3483 0.9814
-3.6701 1.7531 -2.3483 0.9814
-1.0827 0.4032 -0.6671 0.9947
-1.0934 0.2995 -0.6545 0.9948
