ply
format ascii 1.0
element vertex 1404
property float32 x
property float32 y
property float32 z
property float32 I
end_header
7.0666 -15.2281 2.9601 0.9341
7.0662 -15.2273 2.5717 0.9343
7.0658 -15.2265 2.1859 0.9345
12.0285 15.5858 2.1141 0.9239
12.0285 15.5858 1.6666 0.9240
12.7349 15.0629 1.2231 0.9240
11.4502 16.2882 1.2346 0.9233
7.0647 -15.2241 1.0407 0.9349
11.9964 15.5442 1.2176 0.9243
11.4575 16.2986 0.7856 0.9233
7.0640 -15.2226 0.6617 0.9350
12.0353 15.5945 0.7767 0.9242
-18.7198 6.9713 0.7877 0.9231
11.4575 16.2986 0.3365 0.9234
-18.9990 6.1263 0.3372 0.9232
12.0353 15.5945 0.3327 0.9242
-18.7183 6.9707 0.3374 0.9232
11.4575 16.2986 -0.1122 0.9234
7.0625 -15.2194 -0.0945 0.9351
17.6476 -1.1814 -0.0996 0.9317
-18.4985 6.8889 -0.1111 0.9241
17.7860 -0.3964 -0.5009 0.9313
12.8979 15.2557 -0.5625 0.9232
7.0618 -15.2177 -0.4724 0.9351
17.6476 -1.1814 -0.4980 0.9317
17.9263 0.3995 -0.5049 0.9308
12.0353 15.5945 -0.5547 0.9242
11.4575 16.2985 -1.0104 0.9233
-18.1938 5.8667 -0.9695 0.9263
17.9263 0.3995 -0.9093 0.9307
12.0353 15.5945 -0.9990 0.9241
-18.1162 6.7465 -0.9804 0.9255
11.4575 16.2986 -1.4608 0.9232
-10.0514 16.5468 -1.4196 0.9253
-11.3015 15.3386 -1.3970 0.9264
-16.5351 10.8168 -1.4488 0.9238
-18.0162 5.8095 -1.3880 0.9269
7.0603 -15.2145 -1.2298 0.9349
17.6476 -1.1814 -1.2969 0.9315
12.0353 15.5945 -1.4443 0.9240
-10.6851 15.9433 -1.4073 0.9259
-11.9610 14.8043 -1.3955 0.9265
-14.5839 12.6111 -1.4137 0.9256
-15.6756 11.2826 -1.4161 0.9255
-17.1504 10.1582 -1.4615 0.9232
-17.9081 6.6690 -1.4012 0.9262
-6.0336 -18.0214 -1.8245 0.9265
10.4619 -16.3884 -1.8666 0.9248
18.7451 -2.0970 -1.8108 0.9270
17.7860 -0.3963 -1.7080 0.9310
-11.1318 12.5869 -1.6132 0.9347
-12.1206 11.4636 -1.6016 0.9352
-13.9190 10.9917 -1.7027 0.9312
-14.8822 9.7355 -1.7073 0.9310
-17.1173 9.1341 -1.8627 0.9250
7.0595 -15.2129 -1.6101 0.9348
17.6476 -1.1813 -1.6981 0.9314
-9.2259 13.7660 -1.5910 0.9356
-13.1009 11.3287 -1.6628 0.9328
-14.7298 10.6019 -1.7423 0.9297
-17.6640 8.4373 -1.8794 0.9244
-17.6065 6.5567 -1.8037 0.9273
-5.8528 -10.6801 -1.4466 0.9521
-5.6236 -16.7968 -2.1041 0.9311
10.4619 -16.3884 -2.3096 0.9247
10.4675 -13.5632 -2.0351 0.9333
10.4720 -11.3222 -1.8320 0.9398
10.5261 -7.9381 -1.5661 0.9483
17.7860 -0.3963 -2.1133 0.9308
-8.7308 14.3728 -1.9976 0.9345
-9.5515 12.9634 -1.9127 0.9372
-10.6842 12.0808 -1.9157 0.9371
-11.7100 11.0752 -1.9146 0.9371
-14.3396 9.3805 -2.0354 0.9333
-16.3676 8.7340 -2.2037 0.9280
-17.9235 7.6002 -2.3126 0.9246
-17.8606 5.7593 -2.2292 0.9272
-5.6192 -14.5899 -1.8572 0.9390
7.0240 -15.1363 -1.9821 0.9350
17.6476 -1.1814 -2.1010 0.9312
12.0353 15.5945 -2.3399 0.9237
-10.3684 12.8331 -1.9598 0.9357
-15.0095 8.8901 -2.0722 0.9321
-17.6565 8.4337 -2.3243 0.9242
-17.3806 6.4726 -2.2031 0.9280
-2.6272 -18.0134 -2.5793 0.9291
-1.0540 -18.9022 -2.6824 0.9264
8.3901 -16.1539 -2.5791 0.9291
9.7946 -15.3430 -2.5791 0.9291
10.4675 -13.5632 -2.4275 0.9331
18.3628 -0.4092 -2.6025 0.9285
18.1444 2.8531 -2.6025 0.9285
17.8184 4.4567 -2.6025 0.9285
17.3511 6.0249 -2.6025 0.9285
16.0079 9.0059 -2.6025 0.9285
15.1428 10.3949 -2.6025 0.9285
13.0598 12.9151 -2.6025 0.9285
6.4089 17.8137 -2.6824 0.9264
3.1489 18.6678 -2.6824 0.9264
-3.4270 17.8785 -2.5793 0.9291
-5.0047 17.5025 -2.5793 0.9291
-5.4995 11.1913 -1.7668 0.9509
-9.2431 12.5448 -2.2078 0.9390
-10.2713 11.6139 -2.1968 0.9393
-12.8149 10.1198 -2.3136 0.9362
-17.4719 5.6339 -2.6011 0.9285
-5.0047 -17.5025 -2.5793 0.9291
-1.8221 -18.1126 -2.5793 0.9291
-0.2109 -18.9304 -2.6824 0.9264
3.1489 -18.6678 -2.6824 0.9264
4.7979 -18.3135 -2.6824 0.9264
6.4089 -17.8137 -2.6824 0.9264
9.1014 -15.7641 -2.5791 0.9291
10.4649 -14.8865 -2.5783 0.9291
10.4699 -12.3838 -2.2977 0.9366
10.4773 -8.6597 -1.9260 0.9466
10.5346 -3.6580 -1.5801 0.9559
10.5366 -2.6354 -1.5389 0.9571
18.3628 0.4092 -2.6025 0.9285
18.2535 2.0419 -2.6025 0.9285
17.9993 3.6585 -2.6025 0.9285
17.6022 5.2460 -2.6025 0.9285
17.0654 6.7919 -2.6025 0.9285
16.3932 8.2838 -2.6025 0.9285
14.6647 11.0592 -2.6025 0.9285
9.7946 15.3430 -2.5791 0.9291
5.6090 18.0816 -2.6824 0.9264
2.3142 18.7896 -2.6824 0.9264
0.6326 18.9210 -2.6824 0.9264
-5.5054 16.4437 -2.4570 0.9323
-7.8218 17.8888 -2.7664 0.9242
-8.2233 15.0055 -2.4244 0.9332
-10.0062 12.3849 -2.2560 0.9377
-12.2096 10.5581 -2.2871 0.9369
-14.4167 8.5390 -2.3741 0.9345
-17.1101 8.1728 -2.6867 0.9263
-17.2875 6.4379 -2.6138 0.9282
-5.6106 -10.2380 -1.9233 0.9538
-5.6157 -12.8436 -2.3092 0.9448
-4.9708 -14.8469 -2.5793 0.9385
-3.6296 -15.2304 -2.5793 0.9385
-0.9065 -16.2574 -2.6824 0.9361
0.5441 -16.2736 -2.6824 0.9361
1.9904 -16.1606 -2.6824 0.9361
4.8242 -15.5517 -2.6824 0.9361
6.1892 -15.0606 -2.6824 0.9361
7.2162 -13.8937 -2.5791 0.9385
8.4242 -13.1963 -2.5791 0.9385
9.5653 -12.3941 -2.5791 0.9385
10.4720 -11.3222 -2.5407 0.9394
10.4788 -7.9024 -2.1621 0.9482
10.4815 -6.5280 -2.0342 0.9512
10.4840 -5.2978 -1.9351 0.9535
10.4862 -4.1734 -1.8593 0.9553
10.5002 -3.1294 -1.8050 0.9566
10.6592 -2.1666 -1.7919 0.9569
15.3253 3.8331 -2.6025 0.9380
14.9233 5.1820 -2.6025 0.9380
13.7681 7.7458 -2.6025 0.9380
13.0241 8.9405 -2.6025 0.9380
12.1766 10.0642 -2.6025 0.9380
10.1079 11.9557 -2.5791 0.9385
9.0037 12.8079 -2.5791 0.9385
6.5901 14.2014 -2.5791 0.9385
1.2685 16.2332 -2.6824 0.9361
-0.1814 16.2817 -2.6824 0.9361
-1.5870 15.7750 -2.6119 0.9377
-4.3045 15.0536 -2.5793 0.9385
-6.9034 17.9244 -3.1643 0.9251
-5.4999 9.0541 -1.7452 0.9580
-10.9754 10.3804 -2.4887 0.9406
-13.4697 8.8115 -2.6516 0.9368
-15.0424 8.0269 -2.8088 0.9332
-17.4185 5.6167 -3.0150 0.9285
-5.7370 -9.4444 -1.8204 0.9562
-5.6129 -11.4220 -2.0966 0.9497
-5.6192 -14.5899 -2.5756 0.9386
-4.3045 -15.0536 -2.5793 0.9385
-2.9475 -15.3770 -2.5793 0.9385
-1.5870 -15.7750 -2.6119 0.9377
-0.1814 -16.2817 -2.6824 0.9361
2.7083 -16.0559 -2.6824 0.9361
10.1079 -11.9557 -2.5791 0.9385
10.4773 -8.6597 -2.2393 0.9464
10.4851 -4.7244 -1.8945 0.9544
10.5132 -2.6295 -1.7853 0.9570
15.7622 -1.0552 -2.6025 0.9380
15.7935 0.3520 -2.6025 0.9380
15.6995 1.7562 -2.6025 0.9380
14.0995 7.1248 -2.6025 0.9380
12.6129 9.5118 -2.6025 0.9380
7.2162 13.8937 -2.5791 0.9385
4.8242 15.5517 -2.6824 0.9361
3.4209 15.9193 -2.6824 0.9361
1.9904 16.1606 -2.6824 0.9361
0.5441 16.2736 -2.6824 0.9361
-0.9065 16.2574 -2.6824 0.9361
-3.6296 15.2304 -2.5793 0.9385
-4.9708 14.8469 -2.5793 0.9385
-7.4736 17.0926 -3.0732 0.9272
-7.8988 14.4134 -2.7076 0.9355
-8.3430 12.4486 -2.4688 0.9411
-10.2568 10.6055 -2.4306 0.9419
-12.7834 9.2010 -2.5947 0.9381
-13.9638 8.2708 -2.6736 0.9363
-16.3671 7.8179 -2.9881 0.9291
-17.0998 6.3680 -3.0060 0.9287
-5.6493 -5.8413 -1.5274 0.9675
-5.6069 -8.3660 -1.8930 0.9598
-5.6106 -10.2380 -2.1944 0.9536
-5.4976 -12.5733 -2.5793 0.9457
-4.3567 -13.0127 -2.5793 0.9457
-3.1812 -13.3488 -2.5793 0.9457
-0.7945 -14.2489 -2.6824 0.9436
0.4769 -14.2631 -2.6824 0.9436
1.7445 -14.1640 -2.6824 0.9436
2.9982 -13.9525 -2.6824 0.9436
5.4246 -13.1999 -2.6824 0.9436
8.3835 -10.8629 -2.5791 0.9457
9.3171 -10.0736 -2.5791 0.9457
10.1767 -9.2043 -2.5791 0.9457
10.4788 -7.9024 -2.4669 0.9480
10.4862 -4.1734 -2.1214 0.9551
10.4902 -2.1322 -2.0121 0.9574
13.7599 -1.5393 -2.6025 0.9452
13.8423 -0.3085 -2.6025 0.9452
13.8148 0.9248 -2.6025 0.9452
13.6777 2.1507 -2.6025 0.9452
13.0796 4.5418 -2.6025 0.9452
12.0671 6.7889 -2.6025 0.9452
11.4150 7.8360 -2.6025 0.9452
10.6723 8.8208 -2.6025 0.9452
9.7566 9.6485 -2.5791 0.9457
8.8591 10.4786 -2.5791 0.9457
4.8312 13.4285 -2.6824 0.9436
2.3737 14.0723 -2.6824 0.9436
1.1118 14.2277 -2.6824 0.9436
-0.1590 14.2702 -2.6824 0.9436
-1.4285 14.1994 -2.6824 0.9436
-2.5834 13.4772 -2.5793 0.9457
-7.3916 15.0416 -3.1501 0.9341
-5.5002 7.4650 -1.7429 0.9630
-9.6480 10.9091 -2.7373 0.9424
-16.0849 6.8206 -3.2839 0.9314
-5.7580 -7.8148 -1.8245 0.9613
-5.6086 -9.2330 -2.0305 0.9570
-5.6129 -11.4220 -2.3921 0.9495
-4.9320 -12.8057 -2.5793 0.9457
-3.7727 -13.1938 -2.5793 0.9457
-2.5834 -13.4772 -2.5793 0.9457
-0.1590 -14.2702 -2.6824 0.9436
4.8312 -13.4284 -2.6824 0.9436
6.0072 -12.9452 -2.6824 0.9436
7.8913 -11.2255 -2.5791 0.9457
9.7566 -9.6485 -2.5791 0.9457
10.4773 -8.6597 -2.5549 0.9462
10.4802 -7.1943 -2.3893 0.9496
10.4828 -5.8975 -2.2608 0.9522
10.4893 -2.6236 -2.0323 0.9569
13.8148 -0.9248 -2.6025 0.9452
13.5683 2.7579 -2.6025 0.9452
12.8643 5.1199 -2.6025 0.9452
11.7527 7.3197 -2.6025 0.9452
11.0546 8.3367 -2.6025 0.9452
10.1768 9.2043 -2.5791 0.9457
8.3836 10.8629 -2.5791 0.9457
7.3834 11.5659 -2.5791 0.9457
6.4630 12.4435 -2.6355 0.9445
5.4246 13.1999 -2.6824 0.9436
4.2282 13.6303 -2.6824 0.9436
2.9982 13.9525 -2.6824 0.9436
1.7445 14.1640 -2.6824 0.9436
-1.9804 13.5789 -2.5793 0.9457
-3.1812 13.3488 -2.5793 0.9457
-4.3567 13.0127 -2.5793 0.9457
-7.5980 13.8646 -2.9717 0.9377
-8.1103 12.1015 -2.7382 0.9424
-11.4226 9.8775 -2.8384 0.9404
-13.5451 8.0228 -2.9590 0.9379
-16.9155 6.2994 -3.3928 0.9292
-5.8650 -5.0716 -1.6390 0.9688
-5.6493 -5.8413 -1.7177 0.9673
-5.6040 -6.9362 -1.8849 0.9642
-5.6069 -8.3660 -2.1288 0.9597
-4.8885 -11.1802 -2.5793 0.9513
-3.8740 -11.5710 -2.5793 0.9513
0.4240 -12.6829 -2.6824 0.9494
1.5512 -12.5948 -2.6824 0.9494
2.6660 -12.4067 -2.6824 0.9494
6.5654 -10.2845 -2.5791 0.9513
7.4547 -9.6594 -2.5791 0.9513
8.2849 -8.9575 -2.5791 0.9513
9.7418 -7.3467 -2.5791 0.9513
10.4862 -4.1734 -2.3857 0.9549
10.4883 -3.1258 -2.3134 0.9562
10.4902 -2.1322 -2.2628 0.9572
12.2354 -1.3687 -2.6025 0.9509
12.2843 0.8223 -2.6025 0.9509
11.2249 5.0577 -2.6025 0.9509
10.7302 6.0367 -2.6025 0.9509
10.0594 6.9054 -2.5791 0.9513
9.4049 7.7733 -2.5791 0.9513
8.6757 8.5796 -2.5791 0.9513
7.8776 9.3177 -2.5791 0.9513
7.0170 9.9819 -2.5791 0.9513
6.3450 10.9898 -2.6824 0.9494
5.3416 11.5109 -2.6824 0.9494
3.2161 12.2756 -2.6824 0.9494
2.1107 12.5132 -2.6824 0.9494
0.9886 12.6514 -2.6824 0.9494
-0.1414 12.6891 -2.6824 0.9494
-2.2971 11.9841 -2.5793 0.9513
-4.3856 11.3869 -2.5793 0.9513
-8.3644 11.3522 -2.9807 0.9440
-10.3276 9.7678 -3.0048 0.9435
-12.1252 7.9320 -3.0627 0.9425
-16.2384 5.2362 -3.6065 0.9326
-5.6483 -5.3421 -1.6433 0.9687
-5.6216 -6.3565 -1.7937 0.9659
-5.6054 -7.6076 -1.9975 0.9621
-5.6086 -9.2330 -2.2835 0.9568
-4.3856 -11.3869 -2.5793 0.9513
-3.3547 -11.7320 -2.5793 0.9513
-2.2972 -11.9841 -2.5793 0.9513
-1.2702 -12.6262 -2.6824 0.9494
-0.1414 -12.6892 -2.6824 0.9494
0.9886 -12.6514 -2.6824 0.9494
3.2161 -12.2757 -2.6824 0.9494
4.2959 -11.9407 -2.6824 0.9494
7.0170 -9.9819 -2.5791 0.9513
8.6757 -8.5796 -2.5791 0.9513
10.0594 -6.9054 -2.5791 0.9513
10.4851 -4.7244 -2.4309 0.9541
12.1623 -1.9124 -2.6025 0.9509
12.2843 -0.8223 -2.6025 0.9509
12.3087 0.2743 -2.6025 0.9509
12.2354 1.3687 -2.6025 0.9509
11.4391 4.5526 -2.6025 0.9509
10.9885 5.5527 -2.6025 0.9509
9.0493 8.1846 -2.5791 0.9513
8.2849 8.9575 -2.5791 0.9513
7.4547 9.6594 -2.5791 0.9513
6.5654 10.2845 -2.5791 0.9513
4.8236 11.7375 -2.6824 0.9494
3.7597 12.1202 -2.6824 0.9494
0.4240 12.6829 -2.6824 0.9494
-0.7065 12.6703 -2.6824 0.9494
-1.7720 12.1501 -2.5955 0.9510
-4.8885 11.1802 -2.5793 0.9513
-9.6583 9.9866 -2.9367 0.9448
-11.0363 9.5435 -3.0841 0.9421
-11.6951 8.4176 -3.0459 0.9428
-13.9670 6.6715 -3.2719 0.9387
-5.6069 -8.3660 -2.3669 0.9595
-3.4843 -10.4069 -2.5793 0.9559
-1.5916 -10.9128 -2.5919 0.9557
2.3978 -11.1586 -2.6824 0.9542
4.3383 -10.5567 -2.6824 0.9542
5.2607 -10.1287 -2.6824 0.9542
6.1413 -9.6202 -2.6824 0.9542
6.7048 -8.6877 -2.5791 0.9559
8.1389 -7.3612 -2.5791 0.9559
9.3151 -5.8015 -2.5791 0.9559
10.4883 -3.1259 -2.5721 0.9560
11.0704 -0.2467 -2.6025 0.9555
11.0485 0.7396 -2.6025 0.9555
10.9388 1.7200 -2.6025 0.9555
9.5643 5.3808 -2.5791 0.9559
7.8029 7.7165 -2.5791 0.9559
4.8043 10.3529 -2.6824 0.9542
3.8637 10.7395 -2.6824 0.9542
0.8891 11.3787 -2.6824 0.9542
-0.1271 11.4127 -2.6824 0.9542
-2.0661 10.7785 -2.5793 0.9559
-4.8403 9.8497 -2.5793 0.9559
-7.0981 11.6851 -3.2133 0.9454
-9.8362 9.3030 -3.1819 0.9459
-12.3310 6.5800 -3.2849 0.9442
-13.1288 5.5671 -3.3515 0.9431
-18.9465 4.2927 -4.5657 0.9233
-5.6028 -6.3352 -1.9877 0.9658
-3.9444 -10.2414 -2.5793 0.9559
-3.0172 -10.5518 -2.5793 0.9559
-1.1424 -11.3560 -2.6824 0.9542
-0.1271 -11.4127 -2.6824 0.9542
0.8891 -11.3787 -2.6824 0.9542
2.8925 -11.0407 -2.6824 0.9542
3.8637 -10.7395 -2.6824 0.9542
5.7067 -9.8842 -2.6824 0.9542
6.4630 -9.1937 -2.6412 0.9549
7.0851 -8.3803 -2.5791 0.9559
9.0474 -6.2107 -2.5791 0.9559
9.5643 -5.3808 -2.5791 0.9559
10.3668 -3.5997 -2.5791 0.9559
10.6119 3.1627 -2.6025 0.9555
10.1962 4.0580 -2.5791 0.9559
8.7618 6.6076 -2.5791 0.9559
6.7048 8.6877 -2.5791 0.9559
6.1413 9.6202 -2.6824 0.9542
5.2607 10.1287 -2.6824 0.9542
4.3383 10.5567 -2.6824 0.9542
1.3951 11.3278 -2.6824 0.9542
-0.6354 11.3956 -2.6824 0.9542
-2.5442 10.6757 -2.5793 0.9559
-3.4843 10.4069 -2.5793 0.9559
-5.2742 9.6243 -2.5793 0.9559
-8.2403 10.1992 -3.0816 0.9475
-9.3808 9.6997 -3.1714 0.9461
-12.7363 6.0836 -3.3173 0.9437
-16.1148 4.4143 -3.9269 0.9336
-5.7194 -4.1165 -1.8245 0.9713
-5.6017 -5.7922 -2.0863 0.9673
-5.6040 -6.9362 -2.3088 0.9638
-5.5461 -8.2753 -2.5793 0.9597
-4.7875 -8.7361 -2.5793 0.9597
-0.5768 -10.3440 -2.6824 0.9581
0.3462 -10.3543 -2.6824 0.9581
3.0694 -9.8949 -2.6824 0.9581
4.7752 -9.1939 -2.6824 0.9581
5.5746 -8.7324 -2.6824 0.9581
6.3297 -8.2016 -2.6824 0.9581
6.7638 -7.3129 -2.5791 0.9597
7.3878 -6.6819 -2.5791 0.9597
8.8906 -4.4926 -2.5791 0.9597
9.2552 -3.6835 -2.5791 0.9597
9.8995 -1.1074 -2.5791 0.9597
9.8404 1.5473 -2.5791 0.9597
9.4101 3.2675 -2.5791 0.9597
8.2125 5.6375 -2.5791 0.9597
7.6781 6.3461 -2.5791 0.9597
6.4716 7.6547 -2.5953 0.9594
4.3609 9.3975 -2.6824 0.9581
3.5072 9.7483 -2.6824 0.9581
2.6256 10.0218 -2.6824 0.9581
-1.8754 9.7838 -2.5793 0.9597
-2.7388 9.5780 -2.5793 0.9597
-3.5804 9.2962 -2.5793 0.9597
-4.3936 8.9407 -2.5793 0.9597
-5.1719 8.5141 -2.5793 0.9597
-8.2487 9.3269 -3.2238 0.9499
-9.8102 7.7470 -3.2365 0.9497
-10.6594 6.9730 -3.2980 0.9487
-11.3425 6.0525 -3.3287 0.9483
-12.2122 5.1784 -3.4345 0.9467
-13.4135 4.3253 -3.6491 0.9434
-16.5888 3.7585 -4.4040 0.9321
-5.8971 -3.8577 -1.8245 0.9713
-5.5990 -4.4215 -1.8472 0.9710
-5.6028 -6.3352 -2.1898 0.9657
-4.3936 -8.9407 -2.5793 0.9597
-2.7388 -9.5780 -2.5793 0.9597
-1.8754 -9.7838 -2.5793 0.9597
-0.1154 -10.3594 -2.6824 0.9581
2.6256 -10.0218 -2.6824 0.9581
3.5072 -9.7484 -2.6824 0.9581
4.3609 -9.3975 -2.6824 0.9581
7.0828 -7.0043 -2.5791 0.9597
7.6781 -6.3461 -2.5791 0.9597
8.2125 -5.6376 -2.5791 0.9597
8.6817 -4.8842 -2.5791 0.9597
9.4101 -3.2675 -2.5791 0.9597
9.6636 -2.4170 -2.5791 0.9597
9.8404 -1.5473 -2.5791 0.9597
9.9588 0.2219 -2.5791 0.9597
9.5463 2.8451 -2.5791 0.9597
9.2552 3.6835 -2.5791 0.9597
7.3878 6.6819 -2.5791 0.9597
6.3297 8.2016 -2.6824 0.9581
5.5746 8.7324 -2.6824 0.9581
3.0694 9.8949 -2.6824 0.9581
2.1766 10.1288 -2.6824 0.9581
0.3462 10.3543 -2.6824 0.9581
-0.5768 10.3440 -2.6824 0.9581
-3.9909 9.1275 -2.5793 0.9597
-4.7875 8.7361 -2.5793 0.9597
-7.7875 9.6386 -3.2084 0.9501
-8.6771 8.9721 -3.2317 0.9497
-5.5009 3.9593 -1.7548 0.9724
-11.0139 6.5236 -3.3144 0.9485
-11.6948 5.5861 -3.3557 0.9479
-12.7705 4.7558 -3.5283 0.9452
-5.5968 -3.3150 -1.8415 0.9733
-5.5982 -4.0294 -1.9526 0.9717
-5.0724 -7.5686 -2.5793 0.9628
-4.3787 -7.9900 -2.5793 0.9628
-3.6501 -8.3481 -2.5793 0.9628
-2.8926 -8.6398 -2.5793 0.9628
0.3166 -9.4701 -2.6824 0.9614
1.1582 -9.4043 -2.6824 0.9614
1.9907 -9.2638 -2.6824 0.9614
3.6017 -8.7641 -2.6824 0.9614
4.3674 -8.4088 -2.6824 0.9614
5.0985 -7.9867 -2.6824 0.9614
5.7891 -7.5012 -2.6824 0.9614
6.4338 -6.9562 -2.6824 0.9614
6.7569 -6.1113 -2.5791 0.9628
9.1084 -0.2030 -2.5791 0.9628
9.0000 1.4152 -2.5791 0.9628
8.8383 2.2106 -2.5791 0.9628
8.6065 2.9885 -2.5791 0.9628
8.3064 3.7427 -2.5791 0.9628
6.4780 6.4062 -2.5791 0.9628
5.4492 7.7516 -2.6824 0.9614
4.7377 8.2059 -2.6824 0.9614
3.9885 8.5950 -2.6824 0.9614
3.2077 8.9159 -2.6824 0.9614
2.4014 9.1660 -2.6824 0.9614
1.5760 9.3434 -2.6824 0.9614
-0.1056 9.4747 -2.6824 0.9614
-0.9484 9.4277 -2.6824 0.9614
-1.7152 8.9483 -2.5793 0.9628
-2.5049 8.7601 -2.5793 0.9628
-4.0184 8.1772 -2.5793 0.9628
-7.5965 8.5895 -3.2462 0.9534
-8.3634 7.9101 -3.2588 0.9533
-9.1532 7.2282 -3.3018 0.9527
-5.5011 2.9354 -1.7652 0.9744
-12.4503 4.0147 -3.7033 0.9471
-14.4349 3.2705 -4.1900 0.9403
-5.9336 -2.5161 -1.8245 0.9736
-5.5975 -3.6617 -1.8936 0.9726
-5.6008 -5.2972 -2.1824 0.9685
-5.6028 -6.3352 -2.3942 0.9655
-4.0184 -8.1772 -2.5793 0.9628
-1.7152 -8.9483 -2.5793 0.9628
-0.9484 -9.4278 -2.6824 0.9614
-0.1056 -9.4747 -2.6824 0.9614
1.5760 -9.3434 -2.6824 0.9614
3.2077 -8.9159 -2.6824 0.9614
3.9885 -8.5950 -2.6824 0.9614
5.4492 -7.7516 -2.6824 0.9614
6.4780 -6.4062 -2.5791 0.9628
7.0224 -5.8042 -2.5791 0.9628
8.8383 -2.2106 -2.5791 0.9628
9.0000 -1.4152 -2.5791 0.9628
9.0903 -0.6085 -2.5791 0.9628
9.1084 0.2030 -2.5791 0.9628
9.0541 1.0129 -2.5791 0.9628
8.7311 2.6021 -2.5791 0.9628
8.4648 3.3689 -2.5791 0.9628
6.7569 6.1112 -2.5791 0.9628
6.4338 6.9562 -2.6824 0.9614
5.7891 7.5012 -2.6824 0.9614
5.0985 7.9867 -2.6824 0.9614
4.3674 8.4088 -2.6824 0.9614
2.8073 9.0499 -2.6824 0.9614
0.3166 9.4700 -2.6824 0.9614
-1.3675 9.3761 -2.6824 0.9614
-2.8926 8.6398 -2.5793 0.9628
-7.1912 8.9007 -3.2394 0.9535
-9.5362 6.8637 -3.3262 0.9523
-10.2731 6.0847 -3.3801 0.9516
-5.5265 2.6397 -1.7338 0.9749
-18.2030 3.2794 -5.2361 0.9260
-19.0551 0.0000 -5.8609 0.9234
-5.5944 -2.0834 -1.8362 0.9753
-5.5968 -3.3150 -2.0008 0.9731
-5.5999 -4.8424 -2.2771 0.9695
-4.0301 -7.3540 -2.5793 0.9655
-3.3595 -7.6835 -2.5793 0.9655
-1.9440 -8.1574 -2.5793 0.9655
-1.2586 -8.6297 -2.6824 0.9642
-0.4855 -8.7075 -2.6824 0.9642
1.0660 -8.6556 -2.6824 0.9642
1.8322 -8.5264 -2.6824 0.9642
5.9216 -6.4024 -2.6824 0.9642
6.6950 -5.0489 -2.5791 0.9655
7.1178 -4.4330 -2.5791 0.9655
7.4841 -3.7819 -2.5791 0.9655
8.0360 -2.3950 -2.5791 0.9655
8.2173 -1.6703 -2.5791 0.9655
7.9214 2.7506 -2.5791 0.9655
7.6451 3.4447 -2.5791 0.9655
5.6305 6.6598 -2.6824 0.9642
3.6710 7.9108 -2.6824 0.9642
2.9523 8.2061 -2.6824 0.9642
0.6794 8.6945 -2.6824 0.9642
-0.8729 8.6772 -2.6824 0.9642
-3.0139 7.8255 -2.5793 0.9655
-3.6985 7.5262 -2.5793 0.9655
-4.3537 7.1671 -2.5793 0.9655
-4.9743 6.7512 -2.5793 0.9655
-8.6009 6.7920 -3.3708 0.9552
-5.5091 -1.7765 -1.7804 0.9761
-5.5962 -2.9862 -1.9510 0.9738
-5.5990 -4.4215 -2.1944 0.9706
-5.6008 -5.2972 -2.3711 0.9683
-5.5555 -6.2817 -2.5793 0.9655
-4.9743 -6.7512 -2.5793 0.9655
-4.3537 -7.1671 -2.5793 0.9655
-3.6985 -7.5262 -2.5793 0.9655
-2.3055 -8.0627 -2.5793 0.9655
-1.5902 -8.2958 -2.5981 0.9653
0.6794 -8.6945 -2.6824 0.9642
1.4506 -8.5995 -2.6824 0.9642
5.0154 -7.1346 -2.6824 0.9642
5.6305 -6.6598 -2.6824 0.9642
6.4746 -5.3514 -2.5836 0.9655
7.3082 -4.1115 -2.5791 0.9655
7.9214 -2.7506 -2.5791 0.9655
8.1347 -2.0346 -2.5791 0.9655
8.2836 -1.3025 -2.5791 0.9655
8.3666 -0.5601 -2.5791 0.9655
8.3334 0.9322 -2.5791 0.9655
8.0360 2.3950 -2.5791 0.9655
7.4841 3.7819 -2.5791 0.9655
7.1178 4.4330 -2.5791 0.9655
5.9216 6.4024 -2.6824 0.9642
4.6926 7.3509 -2.6824 0.9642
4.0197 7.7394 -2.6824 0.9642
2.5838 8.3295 -2.6824 0.9642
-0.4855 8.7075 -2.6824 0.9642
-1.9440 8.1574 -2.5793 0.9655
-3.3595 7.6835 -2.5793 0.9655
-5.2701 6.5229 -2.5793 0.9655
-7.3961 7.6475 -3.2723 0.9565
-8.9460 6.4389 -3.3902 0.9549
-5.5082 3.2625 -1.9691 0.9736
-11.1766 4.1622 -3.6683 0.9513
-18.7241 0.0000 -6.2240 0.9241
-5.5944 -2.0834 -1.9844 0.9752
-5.5982 -4.0294 -2.2928 0.9713
-4.8765 -6.0357 -2.5793 0.9678
-4.3199 -6.4458 -2.5793 0.9678
-1.1646 -7.9852 -2.6824 0.9666
-0.4493 -8.0571 -2.6824 0.9666
0.2696 -8.0652 -2.6824 0.9666
2.3908 -7.7073 -2.6824 0.9666
3.0673 -7.4640 -2.6824 0.9666
3.7195 -7.1613 -2.6824 0.9666
4.9303 -6.3884 -2.6824 0.9666
5.9849 -5.4130 -2.6824 0.9666
6.4429 -4.8588 -2.6824 0.9666
7.2091 -2.8691 -2.5791 0.9678
7.4358 -2.2161 -2.5791 0.9678
7.7417 0.5182 -2.5791 0.9678
7.5272 1.8827 -2.5791 0.9678
7.0741 3.1874 -2.5791 0.9678
6.7623 3.8044 -2.5791 0.9678
6.4684 4.4403 -2.6080 0.9675
6.2201 5.1410 -2.6824 0.9666
2.7318 7.5932 -2.6824 0.9666
2.0451 7.8062 -2.6824 0.9666
1.3422 7.9573 -2.6824 0.9666
0.6287 8.0452 -2.6824 0.9666
-0.0899 8.0692 -2.6824 0.9666
-1.5192 7.9254 -2.6824 0.9666
-2.7888 7.2410 -2.5793 0.9678
-3.4222 6.9641 -2.5793 0.9678
-4.0285 6.6318 -2.5793 0.9678
-4.6028 6.2470 -2.5793 0.9678
-7.3437 6.9456 -3.3599 0.9583
-8.7404 5.7177 -3.4718 0.9569
-9.4463 5.0407 -3.5591 0.9559
-5.5014 1.2464 -1.8750 0.9765
-5.5950 -2.3725 -2.0201 0.9747
-5.5962 -2.9862 -2.1085 0.9736
-5.5990 -4.4215 -2.3715 0.9704
-5.6008 -5.2972 -2.5625 0.9680
-4.0285 -6.6318 -2.5793 0.9678
-3.4223 -6.9641 -2.5793 0.9678
-2.7888 -7.2411 -2.5793 0.9678
-1.5192 -7.9254 -2.6824 0.9666
0.6287 -8.0451 -2.6824 0.9666
3.3968 -7.3199 -2.6824 0.9666
4.6408 -6.6017 -2.6824 0.9666
5.7378 -5.6742 -2.6824 0.9666
6.2201 -5.1410 -2.6824 0.9666
6.4684 -4.4403 -2.6080 0.9675
6.7623 -3.8044 -2.5791 0.9678
7.3297 -2.5452 -2.5791 0.9678
7.6649 -1.2052 -2.5791 0.9678
7.7571 0.1729 -2.5791 0.9678
7.7109 0.8626 -2.5791 0.9678
7.6036 1.5455 -2.5791 0.9678
7.4358 2.2161 -2.5791 0.9678
7.2091 2.8691 -2.5791 0.9678
5.9849 5.4130 -2.6824 0.9666
5.4793 5.9242 -2.6824 0.9666
2.3908 7.7074 -2.6824 0.9666
1.6954 7.8896 -2.6824 0.9666
0.2697 8.0651 -2.6824 0.9666
-0.4493 8.0571 -2.6824 0.9666
-1.1646 7.9852 -2.6824 0.9666
-3.7291 6.8047 -2.5793 0.9678
-4.3199 6.4458 -2.5793 0.9678
-7.7232 6.6785 -3.3940 0.9579
-9.8115 4.6866 -3.6144 0.9552
-11.5145 3.1542 -3.9685 0.9509
-18.6151 1.6634 -6.2124 0.9242
-18.4633 -1.6499 -6.6289 0.9243
-5.5944 -2.0834 -2.1348 0.9750
-5.5956 -2.6728 -2.2176 0.9740
-4.0155 -5.9915 -2.5793 0.9698
-3.4663 -6.3252 -2.5793 0.9698
-2.8896 -6.6086 -2.5793 0.9698
-1.6720 -7.0162 -2.5793 0.9698
-1.0825 -7.4224 -2.6824 0.9686
-0.4176 -7.4893 -2.6824 0.9686
0.2506 -7.4968 -2.6824 0.9686
2.2224 -7.1642 -2.6824 0.9686
2.8512 -6.9380 -2.6824 0.9686
3.4574 -6.6567 -2.6824 0.9686
4.0361 -6.3225 -2.6824 0.9686
5.5631 -5.0315 -2.6824 0.9686
5.9889 -4.5164 -2.6824 0.9686
6.3671 -3.9654 -2.6824 0.9686
6.4722 -3.2705 -2.5932 0.9697
6.7010 -2.6670 -2.5791 0.9698
7.0677 -1.4366 -2.5791 0.9698
7.1675 -0.8018 -2.5791 0.9698
7.2104 -0.1607 -2.5791 0.9698
7.1961 0.4817 -2.5791 0.9698
6.5756 2.9628 -2.5791 0.9698
6.1841 4.2452 -2.6824 0.9686
5.3335 5.2743 -2.6824 0.9686
4.8428 5.7281 -2.6824 0.9686
3.1574 6.8040 -2.6824 0.9686
1.9010 7.2561 -2.6824 0.9686
1.2476 7.3965 -2.6824 0.9686
0.5844 7.4782 -2.6824 0.9686
-0.0836 7.5005 -2.6824 0.9686
-2.5923 6.7307 -2.5793 0.9698
-3.1811 6.4733 -2.5793 0.9698
-3.7446 6.1645 -2.5793 0.9698
-4.2784 5.8067 -2.5793 0.9698
-4.7783 5.4029 -2.5793 0.9698
-9.6453 4.0900 -3.7465 0.9565
-10.3882 3.3497 -3.9032 0.9547
-5.5014 1.2464 -2.0172 0.9763
-18.4646 0.8234 -6.6097 0.9245
-5.5090 -1.2482 -2.0200 0.9763
-5.6915 -1.8353 -2.1385 0.9749
-5.5975 -3.6617 -2.3920 0.9720
-5.2402 -4.9561 -2.5793 0.9698
-4.7783 -5.4029 -2.5793 0.9698
-3.7446 -6.1645 -2.5793 0.9698
-3.1811 -6.4733 -2.5793 0.9698
-1.4121 -7.3669 -2.6824 0.9686
-0.0836 -7.5005 -2.6824 0.9686
0.5844 -7.4782 -2.6824 0.9686
1.2476 -7.3965 -2.6824 0.9686
3.1574 -6.8041 -2.6824 0.9686
3.7505 -6.4960 -2.6824 0.9686
4.3138 -6.1364 -2.6824 0.9686
4.8428 -5.7281 -2.6824 0.9686
5.3334 -5.2744 -2.6824 0.9686
5.7817 -4.7787 -2.6824 0.9686
6.5756 -2.9628 -2.5791 0.9698
6.9967 -1.7500 -2.5791 0.9698
7.1247 -1.1203 -2.5791 0.9698
7.1675 0.8018 -2.5791 0.9698
7.0677 1.4366 -2.5791 0.9698
6.7010 2.6669 -2.5791 0.9698
5.9889 4.5164 -2.6824 0.9686
5.5631 5.0315 -2.6824 0.9686
5.0932 5.5067 -2.6824 0.9686
4.5829 5.9382 -2.6824 0.9686
4.0361 6.3225 -2.6824 0.9686
3.4574 6.6566 -2.6824 0.9686
1.5759 7.3336 -2.6824 0.9686
0.9169 7.4447 -2.6824 0.9686
0.2506 7.4968 -2.6824 0.9686
-1.6720 7.0162 -2.5793 0.9698
-2.8896 6.6086 -2.5793 0.9698
-5.0142 5.1847 -2.5793 0.9698
-5.4558 4.7178 -2.5793 0.9698
-7.9590 5.7285 -3.5068 0.9592
-8.6223 5.1070 -3.5837 0.9583
-9.3088 4.4464 -3.6891 0.9571
-12.2377 2.2047 -4.4467 0.9485
-18.4979 1.6530 -6.6414 0.9241
-18.5731 -1.6597 -7.1459 0.9232
-5.5956 -2.6728 -2.3764 0.9738
-5.5968 -3.3150 -2.4928 0.9725
-2.6964 -6.1669 -2.5793 0.9716
-1.5850 -6.6511 -2.6202 0.9711
-1.0102 -6.9264 -2.6824 0.9705
-0.3897 -6.9888 -2.6824 0.9705
0.2339 -6.9958 -2.6824 0.9705
0.8556 -6.9472 -2.6824 0.9705
1.4706 -6.8434 -2.6824 0.9705
2.0738 -6.6854 -2.6824 0.9705
2.6606 -6.4743 -2.6824 0.9705
3.2263 -6.2118 -2.6824 0.9705
3.7664 -5.9000 -2.6824 0.9705
4.2766 -5.5413 -2.6824 0.9705
4.7528 -5.1387 -2.6824 0.9705
5.1913 -4.6953 -2.6824 0.9705
5.9416 -3.7004 -2.6824 0.9705
6.2473 -3.1569 -2.6824 0.9705
6.4630 -2.5722 -2.6657 0.9706
6.4734 -1.9293 -2.5885 0.9715
6.5954 -1.3406 -2.5791 0.9716
6.6885 -0.7482 -2.5791 0.9716
6.7286 -0.1499 -2.5791 0.9716
6.5291 1.6330 -2.5791 0.9716
6.4647 2.2448 -2.6225 0.9711
5.3953 4.4594 -2.6824 0.9705
4.9770 4.9219 -2.6824 0.9705
3.4998 6.0619 -2.6824 0.9705
2.9464 6.3493 -2.6824 0.9705
1.1643 6.9022 -2.6824 0.9705
0.5453 6.9784 -2.6824 0.9705
-0.7006 6.9645 -2.6824 0.9705
-1.8504 6.4713 -2.5793 0.9716
-2.4190 6.2809 -2.5793 0.9716
-2.9685 6.0407 -2.5793 0.9716
-3.9925 5.4187 -2.5793 0.9716
-4.4589 5.0418 -2.5793 0.9716
-5.2822 4.1713 -2.5793 0.9716
-8.5268 4.5500 -3.7037 0.9594
-5.5085 1.7762 -2.2180 0.9755
-5.5014 1.2464 -2.1617 0.9761
-12.5073 1.6821 -4.8362 0.9474
-18.4109 0.8210 -7.0624 0.9241
-18.4568 -0.8231 -7.0800 0.9239
-5.6915 -1.8353 -2.2917 0.9747
-5.5950 -2.3725 -2.3289 0.9743
-4.8900 -4.6249 -2.5793 0.9716
-4.4589 -5.0418 -2.5793 0.9716
-2.9685 -6.0407 -2.5793 0.9716
-2.4191 -6.2809 -2.5793 0.9716
-1.3177 -6.8745 -2.6824 0.9705
-0.7006 -6.9645 -2.6824 0.9705
1.1643 -6.9022 -2.6824 0.9705
4.0255 -5.7263 -2.6824 0.9705
4.5192 -5.3453 -2.6824 0.9705
5.3953 -4.4594 -2.6824 0.9705
5.7708 -3.9614 -2.6824 0.9705
6.1005 -3.4321 -2.6824 0.9705
6.3818 -2.8755 -2.6824 0.9705
6.7152 -0.4495 -2.5791 0.9716
6.2473 3.1569 -2.6824 0.9705
5.9416 3.7004 -2.6824 0.9705
5.1913 4.6953 -2.6824 0.9705
4.7528 5.1387 -2.6824 0.9705
4.2766 5.5413 -2.6824 0.9705
3.7664 5.9000 -2.6824 0.9705
1.4706 6.8434 -2.6824 0.9705
0.2339 6.9958 -2.6824 0.9705
-0.3897 6.9888 -2.6824 0.9705
-1.5850 6.6511 -2.6202 0.9711
-2.1369 6.3824 -2.5793 0.9716
-2.6964 6.1669 -2.5793 0.9716
-3.2346 5.9025 -2.5793 0.9716
-4.2299 5.2354 -2.5793 0.9716
-5.0912 4.4025 -2.5793 0.9716
-5.4628 3.9319 -2.5793 0.9716
-8.8453 4.2250 -3.7565 0.9589
-9.4712 3.5271 -3.8731 0.9576
-10.3464 2.8342 -4.1110 0.9551
-11.4859 2.0693 -4.4725 0.9512
-1.6200 -0.2919 -0.6737 0.9929
-1.6035 -0.4392 -0.6804 0.9928
-5.5956 -2.6728 -2.5380 0.9736
-5.4224 -3.2117 -2.5793 0.9731
-5.1150 -3.6815 -2.5793 0.9731
-4.7670 -4.1222 -2.5793 0.9731
-4.3812 -4.5301 -2.5793 0.9731
-3.9606 -4.9021 -2.5793 0.9731
-3.0287 -5.5267 -2.5793 0.9731
-2.5248 -5.7743 -2.5793 0.9731
-2.0008 -5.9761 -2.5793 0.9731
-0.9459 -6.4854 -2.6824 0.9721
-0.3649 -6.5439 -2.6824 0.9721
0.8012 -6.5049 -2.6824 0.9721
2.4912 -6.0621 -2.6824 0.9721
3.5266 -5.5243 -2.6824 0.9721
4.8608 -4.3963 -2.6824 0.9721
5.5633 -3.4648 -2.6824 0.9721
6.4630 -0.7230 -2.6616 0.9723
6.4630 1.0163 -2.6776 0.9721
6.3582 1.5903 -2.6824 0.9721
6.1914 2.1499 -2.6824 0.9721
5.7121 3.2136 -2.6824 0.9721
5.0518 4.1754 -2.6824 0.9721
4.6601 4.6085 -2.6824 0.9721
3.2770 5.6760 -2.6824 0.9721
1.0901 6.4627 -2.6824 0.9721
-0.0730 6.5536 -2.6824 0.9721
-0.6560 6.5211 -2.6824 0.9721
-1.2338 6.4368 -2.6824 0.9721
-3.2719 5.3863 -2.5793 0.9731
-3.7383 5.0737 -2.5793 0.9731
-4.1750 4.7208 -2.5793 0.9731
-4.9459 3.9057 -2.5793 0.9731
-5.5100 2.3364 -2.4495 0.9745
-1.5889 0.5124 -0.6833 0.9928
-1.6146 0.3658 -0.6776 0.9929
-18.3498 0.8182 -7.5176 0.9237
-1.6146 -0.3658 -0.6776 0.9929
-1.5889 -0.5124 -0.6833 0.9928
-5.2739 -3.4501 -2.5793 0.9731
-4.5787 -4.3305 -2.5793 0.9731
-3.2719 -5.3863 -2.5793 0.9731
-2.7795 -5.6561 -2.5793 0.9731
-1.7326 -6.0593 -2.5793 0.9731
-1.2338 -6.4368 -2.6824 0.9721
-0.0730 -6.5536 -2.6824 0.9721
2.2187 -6.1671 -2.6824 0.9721
4.2315 -5.0050 -2.6824 0.9721
4.6601 -4.6085 -2.6824 0.9721
5.4034 -3.7092 -2.6824 0.9721
5.9755 -2.6924 -2.6824 0.9721
6.1914 -2.1499 -2.6824 0.9721
6.3582 -1.5903 -2.6824 0.9721
6.4630 -1.0163 -2.6776 0.9721
6.4630 -0.4327 -2.6511 0.9724
6.4630 0.1440 -2.6458 0.9724
6.4630 0.7230 -2.6616 0.9723
4.4502 4.8115 -2.6824 0.9721
3.0209 5.8163 -2.6824 0.9721
2.4913 6.0621 -2.6824 0.9721
1.9418 6.2598 -2.6824 0.9721
0.8012 6.5049 -2.6824 0.9721
-0.3649 6.5439 -2.6824 0.9721
-0.9459 6.4854 -2.6824 0.9721
-1.5194 6.3755 -2.6824 0.9721
-3.5086 5.2352 -2.5793 0.9731
-3.9606 4.9021 -2.5793 0.9731
-4.7670 4.1222 -2.5793 0.9731
-5.1150 3.6816 -2.5793 0.9731
-5.4224 3.2117 -2.5793 0.9731
-8.4187 4.0213 -3.8185 0.9605
-1.6035 0.4392 -0.6804 0.9928
-1.6200 0.2919 -0.6737 0.9929
-1.6390 0.1465 -0.6735 0.9929
-1.5266 0.0000 -0.6653 0.9934
-1.5215 -0.1360 -0.6657 0.9934
-5.3404 -2.5509 -2.5793 0.9745
-4.1144 -4.2542 -2.5793 0.9745
-3.7194 -4.6036 -2.5793 0.9745
-3.2949 -4.9163 -2.5793 0.9745
-1.8790 -5.6121 -2.5793 0.9745
-0.8883 -6.0904 -2.6824 0.9735
0.2057 -6.1514 -2.6824 0.9735
1.2931 -6.0175 -2.6824 0.9735
2.3395 -5.6929 -2.6824 0.9735
4.5648 -4.1286 -2.6824 0.9735
5.2245 -3.2538 -2.6824 0.9735
5.4933 -2.7759 -2.6824 0.9735
5.7186 -2.2760 -2.6824 0.9735
5.8985 -1.7579 -2.6824 0.9735
6.0315 -1.2260 -2.6824 0.9735
6.1411 0.4111 -2.6824 0.9735
6.0802 0.9561 -2.6824 0.9735
5.9709 1.4934 -2.6824 0.9735
5.8143 2.0190 -2.6824 0.9735
5.6116 2.5284 -2.6824 0.9735
4.3763 4.3279 -2.6824 0.9735
3.9738 4.7002 -2.6824 0.9735
1.5599 5.9539 -2.6824 0.9735
0.4795 6.1362 -2.6824 0.9735
-0.6161 6.1240 -2.6824 0.9735
-1.1587 6.0448 -2.6824 0.9735
-2.6102 5.3116 -2.5793 0.9745
-3.0726 5.0582 -2.5793 0.9745
-3.9208 4.4333 -2.5793 0.9745
-4.6447 3.6679 -2.5793 0.9745
-4.9527 3.2399 -2.5793 0.9745
-5.2214 2.7862 -2.5793 0.9745
-5.4487 2.3104 -2.5793 0.9745
-1.5259 0.0680 -0.6657 0.9934
-1.5133 -0.2035 -0.6654 0.9934
-1.4861 -0.4792 -0.6805 0.9932
-5.4487 -2.3104 -2.5793 0.9745
-4.6447 -3.6679 -2.5793 0.9745
-3.9208 -4.4333 -2.5793 0.9745
-2.1271 -5.5229 -2.5793 0.9745
0.4795 -6.1362 -2.6824 0.9735
1.5599 -5.9539 -2.6824 0.9735
2.0836 -5.7915 -2.6824 0.9735
2.5908 -5.5830 -2.6824 0.9735
3.0774 -5.3303 -2.6824 0.9735
3.5397 -5.0352 -2.6824 0.9735
4.3763 -4.3279 -2.6824 0.9735
4.7442 -3.9212 -2.6824 0.9735
5.3642 -3.0179 -2.6824 0.9735
5.9709 -1.4934 -2.6824 0.9735
6.0802 -0.9561 -2.6824 0.9735
6.1411 -0.4111 -2.6824 0.9735
6.1167 0.6843 -2.6824 0.9735
5.8985 1.7579 -2.6824 0.9735
5.7186 2.2760 -2.6824 0.9735
5.4933 2.7759 -2.6824 0.9735
5.2245 3.2538 -2.6824 0.9735
2.8369 5.4621 -2.6824 0.9735
0.7524 6.1087 -2.6824 0.9735
0.2057 6.1514 -2.6824 0.9735
-0.3427 6.1454 -2.6824 0.9735
-1.8790 5.6121 -2.5793 0.9745
-2.3710 5.4227 -2.5793 0.9745
-3.2949 4.9163 -2.5793 0.9745
-3.7194 4.6036 -2.5793 0.9745
-4.4767 3.8712 -2.5793 0.9745
-4.8035 3.4573 -2.5793 0.9745
-5.0921 3.0161 -2.5793 0.9745
-5.3404 2.5509 -2.5793 0.9745
-1.5001 0.4109 -0.6779 0.9932
-1.5015 0.2705 -0.6649 0.9934
-1.3946 -0.3820 -0.6693 0.9936
-5.2219 -1.9446 -2.5793 0.9757
-5.0281 -2.4017 -2.5793 0.9757
-4.2149 -3.6448 -2.5793 0.9757
-3.1022 -4.6288 -2.5793 0.9757
-2.2324 -5.1055 -2.5793 0.9757
-1.7741 -5.2991 -2.5867 0.9757
-1.3434 -5.6371 -2.6824 0.9748
-0.8363 -5.7343 -2.6824 0.9748
-0.3226 -5.7860 -2.6824 0.9748
0.1936 -5.7917 -2.6824 0.9748
0.7084 -5.7515 -2.6824 0.9748
1.2175 -5.6656 -2.6824 0.9748
1.7169 -5.5348 -2.6824 0.9748
2.2027 -5.3600 -2.6824 0.9748
3.9348 -4.2543 -2.6824 0.9748
4.2978 -3.8872 -2.6824 0.9748
4.6268 -3.4892 -2.6824 0.9748
5.1721 -2.6136 -2.6824 0.9748
5.3842 -2.1429 -2.6824 0.9748
5.6788 -1.1543 -2.6824 0.9748
5.7590 -0.6443 -2.6824 0.9748
5.7935 -0.1291 -2.6824 0.9748
5.7246 0.9002 -2.6824 0.9748
5.6218 1.4061 -2.6824 0.9748
5.4743 1.9009 -2.6824 0.9748
5.0506 2.8414 -2.6824 0.9748
4.4667 3.6919 -2.6824 0.9748
4.1204 4.0748 -2.6824 0.9748
3.7414 4.4254 -2.6824 0.9748
3.3327 4.7408 -2.6824 0.9748
2.8975 5.0186 -2.6824 0.9748
1.4686 5.6058 -2.6824 0.9748
0.9639 5.7142 -2.6824 0.9748
0.4514 5.7773 -2.6824 0.9748
-0.0646 5.7946 -2.6824 0.9748
-1.5829 5.5359 -2.6652 0.9749
-2.0027 5.1999 -2.5793 0.9757
-4.0484 3.8289 -2.5793 0.9757
-4.3731 3.4534 -2.5793 0.9757
-4.9161 2.6233 -2.5793 0.9757
-5.1301 2.1754 -2.5793 0.9757
-1.3890 0.4479 -0.6755 0.9936
-1.3967 0.3165 -0.6629 0.9937
-1.4099 0.1896 -0.6585 0.9937
-1.4212 -0.0634 -0.6585 0.9937
-1.4099 -0.1896 -0.6585 0.9937
-1.3967 -0.3165 -0.6629 0.9937
-5.1301 -2.1754 -2.5793 0.9757
-4.9161 -2.6233 -2.5793 0.9757
-4.0484 -3.8289 -2.5793 0.9757
-3.6915 -4.1741 -2.5793 0.9757
-3.3053 -4.4861 -2.5793 0.9757
-2.4576 -5.0010 -2.5793 0.9757
-2.0027 -5.1999 -2.5793 0.9757
-1.5829 -5.5359 -2.6652 0.9749
-1.0909 -5.6913 -2.6824 0.9748
-0.5801 -5.7659 -2.6824 0.9748
-0.0646 -5.7946 -2.6824 0.9748
0.4514 -5.7773 -2.6824 0.9748
0.9639 -5.7142 -2.6824 0.9748
1.9618 -5.4528 -2.6824 0.9748
2.4393 -5.2565 -2.6824 0.9748
3.3327 -4.7408 -2.6824 0.9748
4.4667 -3.6919 -2.6824 0.9748
4.7776 -3.2796 -2.6824 0.9748
5.0506 -2.8414 -2.6824 0.9748
5.4743 -1.9009 -2.6824 0.9748
5.6218 -1.4061 -2.6824 0.9748
5.7935 0.1291 -2.6824 0.9748
5.7590 0.6442 -2.6824 0.9748
5.5536 1.6551 -2.6824 0.9748
5.3842 2.1429 -2.6824 0.9748
5.1721 2.6136 -2.6824 0.9748
4.9190 3.0636 -2.6824 0.9748
4.6268 3.4892 -2.6824 0.9748
4.2978 3.8871 -2.6824 0.9748
3.9348 4.2543 -2.6824 0.9748
3.5405 4.5876 -2.6824 0.9748
2.6710 5.1427 -2.6824 0.9748
2.2027 5.3600 -2.6824 0.9748
0.7084 5.7515 -2.6824 0.9748
-0.3226 5.7860 -2.6824 0.9748
-0.8363 5.7343 -2.6824 0.9748
-1.7741 5.2991 -2.5867 0.9757
-2.2324 5.1055 -2.5793 0.9757
-2.6779 4.8866 -2.5793 0.9757
-3.1022 4.6288 -2.5793 0.9757
-3.5019 4.3344 -2.5793 0.9757
-5.2219 1.9447 -2.5793 0.9757
-1.3993 0.2521 -0.6581 0.9938
-1.4172 0.1266 -0.6586 0.9937
-1.3317 -0.1190 -0.6558 0.9941
-1.3159 -0.2371 -0.6559 0.9941
-1.3061 -0.3578 -0.6642 0.9940
-4.7448 -2.2664 -2.5793 0.9768
-4.5242 -2.6797 -2.5793 0.9768
-4.2678 -3.0718 -2.5793 0.9768
-3.6555 -3.7798 -2.5793 0.9768
-2.9274 -4.3680 -2.5793 0.9768
0.1827 -5.4654 -2.6824 0.9759
1.1489 -5.3464 -2.6824 0.9759
2.0786 -5.0580 -2.6824 0.9759
3.3410 -4.3291 -2.6824 0.9759
4.8807 -2.4663 -2.6824 0.9759
5.0808 -2.0221 -2.6824 0.9759
5.2406 -1.5619 -2.6824 0.9759
5.4345 -0.6079 -2.6824 0.9759
5.4562 0.3653 -2.6824 0.9759
5.3050 1.3269 -2.6824 0.9759
5.1659 1.7938 -2.6824 0.9759
4.7660 2.6813 -2.6824 0.9759
3.8883 3.8452 -2.6824 0.9759
3.5306 4.1760 -2.6824 0.9759
2.7342 4.7358 -2.6824 0.9759
2.3019 4.9604 -2.6824 0.9759
1.8512 5.1456 -2.6824 0.9759
1.3859 5.2899 -2.6824 0.9759
0.9096 5.3923 -2.6824 0.9759
0.4260 5.4518 -2.6824 0.9759
-0.0609 5.4681 -2.6824 0.9759
-0.5474 5.4410 -2.6824 0.9759
-1.0295 5.3707 -2.6824 0.9759
-1.5034 5.2577 -2.6824 0.9759
-1.8899 4.9069 -2.5793 0.9768
-2.7299 4.4941 -2.5793 0.9768
-3.4835 3.9389 -2.5793 0.9768
-4.4004 2.8786 -2.5793 0.9768
-1.3089 0.2966 -0.6583 0.9940
-1.3251 0.1782 -0.6559 0.9941
-1.3355 0.0596 -0.6558 0.9941
-1.3355 -0.0596 -0.6558 0.9941
-1.3089 -0.2966 -0.6583 0.9940
-1.3003 -0.4193 -0.6702 0.9939
-4.8410 -2.0528 -2.5793 0.9768
-4.6391 -2.4755 -2.5793 0.9768
-3.8203 -3.6132 -2.5793 0.9768
-3.4835 -3.9389 -2.5793 0.9768
-2.7299 -4.4941 -2.5793 0.9768
-2.3191 -4.7192 -2.5793 0.9768
-1.8899 -4.9069 -2.5793 0.9768
-1.5034 -5.2577 -2.6824 0.9759
-1.0295 -5.3707 -2.6824 0.9759
-0.5474 -5.4410 -2.6824 0.9759
-0.0609 -5.4681 -2.6824 0.9759
0.9096 -5.3923 -2.6824 0.9759
1.8512 -5.1456 -2.6824 0.9759
3.1449 -4.4737 -2.6824 0.9759
3.5306 -4.1760 -2.6824 0.9759
3.8883 -3.8452 -2.6824 0.9759
4.7660 -2.6813 -2.6824 0.9759
5.1659 -1.7938 -2.6824 0.9759
5.3050 -1.3269 -2.6824 0.9759
5.4021 -0.8494 -2.6824 0.9759
5.4562 -0.3653 -2.6824 0.9759
5.4345 0.6079 -2.6824 0.9759
5.3589 1.0892 -2.6824 0.9759
4.8807 2.4663 -2.6824 0.9759
4.6418 2.8909 -2.6824 0.9759
4.0557 3.6682 -2.6824 0.9759
3.7131 4.0146 -2.6824 0.9759
3.3410 4.3291 -2.6824 0.9759
2.9425 4.6093 -2.6824 0.9759
2.5205 4.8529 -2.6824 0.9759
-0.3044 5.4600 -2.6824 0.9759
-0.7892 5.4112 -2.6824 0.9759
-1.2677 5.3195 -2.6824 0.9759
-1.6694 4.9862 -2.5793 0.9768
-2.1066 4.8179 -2.5793 0.9768
-2.9274 4.3680 -2.5793 0.9768
-3.3046 4.0901 -2.5793 0.9768
-3.9774 3.4394 -2.5793 0.9768
-4.2678 3.0718 -2.5793 0.9768
-4.5242 2.6797 -2.5793 0.9768
-1.3061 0.3578 -0.6642 0.9940
-1.3159 0.2371 -0.6559 0.9941
-1.2576 -0.1124 -0.6550 0.9943
-1.2283 -0.3365 -0.6607 0.9943
-3.7608 -3.2521 -2.5793 0.9778
-3.4564 -3.5739 -2.5793 0.9778
-3.1246 -3.8674 -2.5793 0.9778
-2.3894 -4.3601 -2.5793 0.9778
-1.9918 -4.5554 -2.5793 0.9778
-1.5901 -4.7494 -2.5983 0.9777
-0.7462 -5.1165 -2.6824 0.9770
-0.2879 -5.1626 -2.6824 0.9770
0.1728 -5.1677 -2.6824 0.9770
0.6320 -5.1318 -2.6824 0.9770
1.0863 -5.0552 -2.6824 0.9770
1.9654 -4.7825 -2.6824 0.9770
2.3833 -4.5886 -2.6824 0.9770
3.1591 -4.0933 -2.6824 0.9770
3.5109 -3.7959 -2.6824 0.9770
3.8348 -3.4684 -2.6824 0.9770
4.1283 -3.1133 -2.6824 0.9770
4.3890 -2.7335 -2.6824 0.9770
4.6149 -2.3320 -2.6824 0.9770
4.9552 -1.4768 -2.6824 0.9770
5.1078 0.8032 -2.6824 0.9770
5.0161 1.2546 -2.6824 0.9770
4.8845 1.6961 -2.6824 0.9770
4.2629 2.9263 -2.6824 0.9770
3.9855 3.2941 -2.6824 0.9770
3.6765 3.6357 -2.6824 0.9770
3.3383 3.9486 -2.6824 0.9770
2.5853 4.4779 -2.6824 0.9770
2.1765 4.6902 -2.6824 0.9770
1.7504 4.8653 -2.6824 0.9770
1.3104 5.0018 -2.6824 0.9770
0.8600 5.0986 -2.6824 0.9770
0.4028 5.1549 -2.6824 0.9770
-0.0576 5.1703 -2.6824 0.9770
-0.9734 5.0781 -2.6824 0.9770
-1.4215 4.9714 -2.6824 0.9770
-2.1928 4.4622 -2.5793 0.9778
-2.1839 2.9640 -1.9100 0.9835
-3.2938 3.7243 -2.5793 0.9778
-3.6122 3.4164 -2.5793 0.9778
-4.3864 2.3407 -2.5793 0.9778
-4.5774 1.9410 -2.5793 0.9778
-1.2613 0.0562 -0.6550 0.9943
-1.2222 -0.3941 -0.6662 0.9942
-4.5774 -1.9410 -2.5793 0.9778
-3.9019 -3.0813 -2.5793 0.9778
-3.2938 -3.7243 -2.5793 0.9778
-2.9492 -4.0027 -2.5793 0.9778
-2.1928 -4.4622 -2.5793 0.9778
-1.7869 -4.6397 -2.5793 0.9778
-0.5176 -5.1446 -2.6824 0.9770
0.8600 -5.0986 -2.6824 0.9770
1.3104 -5.0018 -2.6824 0.9770
1.7504 -4.8653 -2.6824 0.9770
2.1765 -4.6902 -2.6824 0.9770
2.5853 -4.4779 -2.6824 0.9770
2.9736 -4.2300 -2.6824 0.9770
3.6765 -3.6357 -2.6824 0.9770
3.9855 -3.2941 -2.6824 0.9770
4.5064 -2.5353 -2.6824 0.9770
4.7142 -2.1241 -2.6824 0.9770
4.8845 -1.6961 -2.6824 0.9770
5.0670 1.0299 -2.6824 0.9770
4.9552 1.4768 -2.6824 0.9770
4.8041 1.9120 -2.6824 0.9770
3.8348 3.4684 -2.6824 0.9770
3.5109 3.7959 -2.6824 0.9770
3.1591 4.0933 -2.6824 0.9770
2.7822 4.3582 -2.6824 0.9770
2.3833 4.5886 -2.6824 0.9770
1.0863 5.0552 -2.6824 0.9770
-0.2879 5.1626 -2.6824 0.9770
-0.7462 5.1165 -2.6824 0.9770
-1.5901 4.7494 -2.5983 0.9777
-2.3894 4.3601 -2.5793 0.9778
-3.1246 3.8674 -2.5793 0.9778
-4.0353 2.9045 -2.5793 0.9778
-4.4864 2.1429 -2.5793 0.9778
-1.2162 0.4529 -0.6733 0.9942
-1.2283 0.3365 -0.6607 0.9943
-1.2576 0.1124 -0.6550 0.9943
-1.1899 -0.1063 -0.6543 0.9946
-1.1756 -0.2118 -0.6543 0.9946
-1.1464 -0.4269 -0.6700 0.9944
-4.0519 -2.4000 -2.5793 0.9788
-2.9596 -3.6631 -2.5793 0.9788
-2.0470 -3.0543 -2.0138 0.9834
-2.2632 -4.1298 -2.5793 0.9788
-1.5549 -4.6442 -2.6824 0.9779
-1.1353 -4.7641 -2.6824 0.9779
-0.7068 -4.8463 -2.6824 0.9779
0.1637 -4.8948 -2.6824 0.9779
1.4510 -4.6777 -2.6824 0.9779
2.2574 -4.3463 -2.6824 0.9779
2.6353 -4.1281 -2.6824 0.9779
2.9922 -3.8772 -2.6824 0.9779
3.6323 -3.2852 -2.6824 0.9779
3.9103 -2.9489 -2.6824 0.9779
4.1572 -2.5891 -2.6824 0.9779
4.5504 -1.8110 -2.6824 0.9779
4.6935 -1.3988 -2.6824 0.9779
4.7994 -0.9755 -2.6824 0.9779
4.8866 0.3271 -2.6824 0.9779
4.2684 2.4014 -2.6824 0.9779
3.7750 3.1201 -2.6824 0.9779
3.1620 3.7400 -2.6824 0.9779
2.8166 4.0066 -2.6824 0.9779
2.0615 4.4425 -2.6824 0.9779
1.6580 4.6084 -2.6824 0.9779
0.3815 4.8827 -2.6824 0.9779
-0.0546 4.8972 -2.6824 0.9779
-0.4902 4.8729 -2.6824 0.9779
-1.3464 4.7088 -2.6824 0.9779
-2.0770 4.2266 -2.5793 0.9788
-2.4449 4.0249 -2.5793 0.9788
-3.4214 3.2360 -2.5793 0.9788
-3.6959 2.9186 -2.5793 0.9788
-4.1548 2.2171 -2.5793 0.9788
-1.1649 0.2639 -0.6542 0.9946
-1.1933 -0.0532 -0.6542 0.9946
-1.1840 -0.1592 -0.6543 0.9946
-1.1515 -0.3713 -0.6626 0.9945
-2.4449 -4.0249 -2.5793 0.9788
-1.6926 -4.3946 -2.5793 0.9788
-1.3465 -4.7088 -2.6824 0.9779
-0.4902 -4.8729 -2.6824 0.9779
0.3815 -4.8827 -2.6824 0.9779
0.8146 -4.8293 -2.6824 0.9779
1.6580 -4.6084 -2.6824 0.9779
2.8166 -4.0066 -2.6824 0.9779
3.4823 -3.4437 -2.6824 0.9779
4.0377 -2.7718 -2.6824 0.9779
4.6266 -1.6065 -2.6824 0.9779
4.7512 -1.1884 -2.6824 0.9779
4.8381 -0.7607 -2.6824 0.9779
4.8963 0.1091 -2.6824 0.9779
4.6935 1.3988 -2.6824 0.9779
4.3711 2.2088 -2.6824 0.9779
3.6323 3.2852 -2.6824 0.9779
2.9922 3.8772 -2.6824 0.9779
2.6353 4.1281 -2.6824 0.9779
1.8616 4.5299 -2.6824 0.9779
1.0289 4.7882 -2.6824 0.9779
0.5987 4.8608 -2.6824 0.9779
-0.2727 4.8900 -2.6824 0.9779
-0.7068 4.8463 -2.6824 0.9779
-1.1353 4.7641 -2.6824 0.9779
-1.5549 4.6442 -2.6824 0.9779
-2.2632 4.1298 -2.5793 0.9788
-2.0399 3.0438 -2.0068 0.9834
-2.9596 3.6631 -2.5793 0.9788
-3.2739 3.3852 -2.5793 0.9788
-3.8222 2.7511 -2.5793 0.9788
-1.1464 0.4269 -0.6700 0.9944
-1.1577 0.3171 -0.6575 0.9945
-1.1276 -0.1008 -0.6536 0.9948
-1.1141 -0.2007 -0.6536 0.9948
-1.0827 -0.4032 -0.6671 0.9947
-4.0312 -1.9255 -2.5793 0.9796
-3.6259 -2.6098 -2.5793 0.9796
-3.1058 -3.2113 -2.5793 0.9796
-2.1470 -3.9178 -2.5793 0.9796
-1.4750 -4.4057 -2.6824 0.9788
-0.6705 -4.5974 -2.6824 0.9788
-0.2587 -4.6388 -2.6824 0.9788
0.5679 -4.6112 -2.6824 0.9788
0.9761 -4.5424 -2.6824 0.9788
1.7660 -4.2973 -2.6824 0.9788
2.8386 -3.6781 -2.6824 0.9788
3.9437 -2.4562 -2.6824 0.9788
4.1467 -2.0954 -2.6824 0.9788
4.4525 -1.3270 -2.6824 0.9788
4.6173 -0.5165 -2.6824 0.9788
4.6449 -0.1035 -2.6824 0.9788
4.6357 0.3103 -2.6824 0.9788
4.5897 0.7217 -2.6824 0.9788
4.5072 1.1273 -2.6824 0.9788
4.3890 1.5240 -2.6824 0.9788
4.2359 1.9086 -2.6824 0.9788
2.9996 3.5480 -2.6824 0.9788
2.3230 4.0236 -2.6824 0.9788
1.5728 4.3717 -2.6824 0.9788
-0.4650 4.6227 -2.6824 0.9788
-0.8746 4.5630 -2.6824 0.9788
-1.6057 4.1690 -2.5793 0.9796
-1.9703 4.0095 -2.5793 0.9796
-2.3194 3.8182 -2.5793 0.9796
-3.5061 2.7687 -2.5793 0.9796
-3.9414 2.1032 -2.5793 0.9796
-1.0769 0.4566 -0.6753 0.9946
-1.0870 0.3505 -0.6594 0.9947
-1.1309 0.0504 -0.6536 0.9948
-1.1309 -0.0504 -0.6536 0.9948
-1.1220 -0.1509 -0.6536 0.9948
-1.0870 -0.3505 -0.6594 0.9947
-3.9414 -2.1032 -2.5793 0.9796
-3.2457 -3.0698 -2.5793 0.9796
-2.6500 -3.5966 -2.5793 0.9796
-2.3194 -3.8182 -2.5793 0.9796
-1.9703 -4.0095 -2.5793 0.9796
-1.6057 -4.1690 -2.5793 0.9796
-1.2773 -4.4670 -2.6824 0.9788
0.3619 -4.6320 -2.6824 0.9788
0.7728 -4.5813 -2.6824 0.9788
1.5728 -4.3717 -2.6824 0.9788
1.9557 -4.2144 -2.6824 0.9788
2.3230 -4.0236 -2.6824 0.9788
2.6719 -3.8009 -2.6824 0.9788
2.9996 -3.5480 -2.6824 0.9788
3.5812 -2.9599 -2.6824 0.9788
4.3890 -1.5240 -2.6824 0.9788
4.6173 0.5165 -2.6824 0.9788
4.1467 2.0954 -2.6824 0.9788
3.9437 2.4562 -2.6824 0.9788
3.1547 3.4108 -2.6824 0.9788
2.5000 3.9161 -2.6824 0.9788
2.1415 4.1231 -2.6824 0.9788
1.3765 4.4375 -2.6824 0.9788
0.9761 4.5424 -2.6824 0.9788
0.1553 4.6435 -2.6824 0.9788
-0.2587 4.6388 -2.6824 0.9788
-1.0770 4.5195 -2.6824 0.9788
-2.8076 3.4750 -2.5793 0.9796
-1.0827 0.4032 -0.6671 0.9947
-1.1141 0.2007 -0.6536 0.9948
