ply
format ascii 1.0
element vertex 1447
property float32 x
property float32 y
property float32 z
property float32 I
end_header
7.0660 -15.2269 2.5716 0.9343
12.0285 15.5858 3.0160 0.9234
7.0653 -15.2253 1.8024 0.9347
11.4502 16.2882 1.6854 0.9232
11.9964 15.5442 1.6622 0.9242
7.0644 -15.2234 1.0407 0.9350
12.0353 15.5945 1.2215 0.9241
17.9263 0.3995 0.7070 0.9307
-18.7723 6.0532 0.3332 0.9241
7.0629 -15.2202 0.2834 0.9351
17.6476 -1.1814 0.2988 0.9317
17.9263 0.3995 0.3029 0.9308
17.7860 -0.3963 -0.1002 0.9313
18.1395 1.2143 -0.1024 0.9299
-18.5784 5.9907 -0.1099 0.9249
7.0622 -15.2186 -0.0945 0.9351
17.6476 -1.1814 -0.0996 0.9317
17.9263 0.3995 -0.1010 0.9308
-18.4162 6.8582 -0.1107 0.9244
11.4575 16.2986 -0.5610 0.9234
-18.3594 5.9201 -0.5432 0.9257
7.0614 -15.2170 -0.4724 0.9351
17.9263 0.3995 -0.5049 0.9308
12.0353 15.5945 -0.5547 0.9242
-18.2254 6.7872 -0.5476 0.9251
11.4575 16.2986 -1.0104 0.9233
-18.1040 5.8378 -0.9647 0.9266
7.0607 -15.2154 -0.8507 0.9350
17.6476 -1.1814 -0.8970 0.9316
17.9263 0.3995 -0.9093 0.9307
12.0353 15.5945 -0.9990 0.9241
-18.0293 6.7142 -0.9757 0.9258
10.5511 -13.6714 -1.2662 0.9331
17.7860 -0.3964 -1.3044 0.9311
-9.2986 15.3076 -1.3132 0.9307
-14.4013 11.3725 -1.3455 0.9290
-15.2974 10.0071 -1.3403 0.9293
-17.9751 5.7962 -1.3848 0.9270
7.0599 -15.2137 -1.2298 0.9349
17.9263 0.3995 -1.3147 0.9306
12.0353 15.5945 -1.4443 0.9240
-9.1843 16.7593 -1.4012 0.9262
-13.3611 11.5538 -1.2951 0.9316
-16.0438 9.5028 -1.3672 0.9279
-17.6685 8.4395 -1.4357 0.9245
10.4619 -16.3884 -1.8666 0.9248
10.4675 -13.5632 -1.6448 0.9335
10.5304 -7.9414 -1.2662 0.9484
-8.9198 14.6840 -1.6494 0.9333
-9.7282 13.2033 -1.5745 0.9362
-11.9188 11.2728 -1.5750 0.9362
-13.5501 10.7004 -1.6576 0.9330
-14.5947 9.5474 -1.6743 0.9323
-16.7969 8.9631 -1.8278 0.9263
-18.0223 7.6421 -1.8794 0.9244
-17.8394 5.7524 -1.7995 0.9274
-5.8345 -15.1490 -1.5585 0.9368
7.0592 -15.2121 -1.6100 0.9348
10.6114 -12.5512 -1.5779 0.9361
17.6476 -1.1813 -1.6981 0.9314
17.9263 0.3995 -1.7214 0.9305
-9.0518 13.5062 -1.5609 0.9368
-12.8828 11.1402 -1.6351 0.9339
-17.6001 8.4068 -1.8726 0.9246
-17.4641 6.5037 -1.7891 0.9278
-5.6582 -10.3248 -1.3985 0.9537
-5.6157 -12.8436 -1.6651 0.9451
-5.6236 -16.7968 -2.1041 0.9311
10.4619 -16.3884 -2.3096 0.9247
10.5261 -7.9381 -1.5661 0.9483
10.5356 -3.1400 -1.3059 0.9567
17.7860 -0.3963 -2.1133 0.9308
-8.2452 16.7785 -2.2207 0.9275
-8.5692 14.1068 -1.9606 0.9357
-10.4732 11.8423 -1.8779 0.9383
-17.7700 7.5351 -2.2928 0.9252
-5.6192 -14.5899 -1.8572 0.9390
7.0204 -15.1287 -1.9811 0.9350
10.4649 -14.8865 -2.1615 0.9293
10.4739 -10.3579 -1.7498 0.9424
10.5366 -2.6354 -1.2902 0.9572
17.9291 0.3996 -2.1303 0.9303
-8.7137 13.0016 -1.8592 0.9389
-12.4304 10.7490 -1.9520 0.9359
-17.3417 6.4581 -2.1982 0.9282
-5.6106 -10.2380 -1.6542 0.9539
-5.6157 -12.8435 -1.9861 0.9449
-5.3752 -16.0547 -2.3989 0.9339
-3.9249 -16.4695 -2.3989 0.9339
0.5901 -17.6484 -2.5020 0.9311
10.4720 -11.3222 -2.1852 0.9396
10.4757 -9.4747 -2.0013 0.9445
10.4788 -7.9024 -1.8596 0.9484
10.4840 -5.2978 -1.6644 0.9537
10.6799 -4.2505 -1.6287 0.9546
16.9881 -1.9004 -2.4220 0.9333
16.8865 2.6553 -2.4220 0.9333
16.5832 4.1477 -2.4220 0.9333
16.1482 5.6073 -2.4220 0.9333
15.5850 7.0223 -2.4220 0.9333
14.8982 8.3816 -2.4220 0.9333
14.0930 9.6743 -2.4220 0.9333
13.1760 10.8903 -2.4220 0.9333
11.0364 13.0539 -2.4220 0.9333
9.7361 13.8498 -2.3987 0.9339
8.4648 14.6614 -2.3987 0.9339
7.1262 15.3566 -2.3987 0.9339
5.9778 16.6156 -2.5020 0.9311
4.4752 17.0818 -2.5020 0.9311
2.9371 17.4123 -2.5020 0.9311
1.3756 17.6046 -2.5020 0.9311
-1.6947 16.8456 -2.3989 0.9339
-7.8889 16.0534 -2.5344 0.9303
-8.2416 13.5676 -2.2493 0.9379
-10.1044 11.4253 -2.1611 0.9402
-11.1446 10.5404 -2.1734 0.9399
-4.6546 -16.2783 -2.3989 0.9339
-3.1873 -16.6279 -2.3989 0.9339
-0.1967 -17.6571 -2.5020 0.9311
1.3756 -17.6046 -2.5020 0.9311
2.9371 -17.4123 -2.5020 0.9311
4.4752 -17.0817 -2.5020 0.9311
8.4648 -14.6614 -2.3987 0.9339
9.7361 -13.8498 -2.3987 0.9339
10.4699 -12.3838 -2.2977 0.9366
10.4739 -10.3579 -2.0872 0.9422
10.4802 -7.1943 -1.8011 0.9499
10.4828 -5.8975 -1.7042 0.9526
13.3337 -2.0966 -1.9125 0.9469
17.0559 -1.1418 -2.4220 0.9333
17.0898 0.3808 -2.4220 0.9333
16.7515 3.4049 -2.4220 0.9333
15.2567 7.7096 -2.4220 0.9333
14.5100 9.0369 -2.4220 0.9333
13.6481 10.2925 -2.4220 0.9333
11.6069 12.5493 -2.4220 0.9333
9.1095 14.2697 -2.3987 0.9339
7.8032 15.0239 -2.3987 0.9339
6.4722 15.7493 -2.4126 0.9335
3.7098 17.2641 -2.5020 0.9311
-0.9831 17.6309 -2.5020 0.9311
-5.3752 16.0547 -2.3989 0.9339
-5.5228 12.6311 -1.9533 0.9458
-12.0064 10.3824 -2.2490 0.9379
-13.0934 9.4241 -2.2858 0.9369
-17.2432 6.4214 -2.6071 0.9284
-5.6493 -5.8413 -1.3387 0.9676
-5.6106 -10.2380 -1.9233 0.9538
-4.6231 -13.8084 -2.3989 0.9427
-3.3757 -14.1651 -2.3989 0.9427
-0.8455 -15.1640 -2.5020 0.9403
1.8565 -15.0736 -2.5020 0.9403
5.7729 -14.0476 -2.5020 0.9403
6.7114 -12.9218 -2.3987 0.9427
8.8962 -11.5271 -2.3987 0.9427
10.4757 -9.4747 -2.3269 0.9443
10.4788 -7.9024 -2.1621 0.9482
10.4815 -6.5280 -2.0342 0.9512
10.4840 -5.2978 -1.9351 0.9535
10.4862 -4.1734 -1.8593 0.9553
10.4883 -3.1259 -1.8029 0.9566
14.6111 -1.6345 -2.4220 0.9421
14.6986 -0.3276 -2.4220 0.9421
14.6694 0.9820 -2.4220 0.9421
14.2629 3.5674 -2.4220 0.9421
13.8888 4.8227 -2.4220 0.9421
12.8136 7.2088 -2.4220 0.9421
8.3739 11.9120 -2.3987 0.9427
6.3930 13.7765 -2.5020 0.9403
5.1414 14.2908 -2.5020 0.9403
3.8491 14.6917 -2.5020 0.9403
2.5261 14.9760 -2.5020 0.9403
1.1832 15.1414 -2.5020 0.9403
-4.0034 14.0007 -2.3989 0.9427
-5.2336 13.5888 -2.3989 0.9427
-7.5592 15.3825 -2.8235 0.9329
-8.8437 12.0028 -2.4561 0.9414
-9.7894 11.0690 -2.4343 0.9419
-10.7991 10.2137 -2.4487 0.9415
-12.2089 9.6413 -2.5628 0.9389
-13.1441 8.5985 -2.5875 0.9383
-14.7631 7.8778 -2.7566 0.9344
-17.1132 7.2566 -3.0622 0.9274
-5.6483 -5.3421 -1.2807 0.9690
-5.9200 -8.0347 -1.6441 0.9603
-5.6129 -11.4220 -2.0966 0.9497
-4.0034 -14.0006 -2.3989 0.9427
-2.7414 -14.3014 -2.3989 0.9427
3.8491 -14.6917 -2.5020 0.9403
6.3930 -13.7765 -2.5020 0.9403
8.3739 -11.9120 -2.3987 0.9427
9.4009 -11.1194 -2.3987 0.9427
10.3532 -10.2385 -2.3987 0.9427
10.4773 -8.6597 -2.2393 0.9464
10.4851 -4.7244 -1.8945 0.9544
10.4872 -3.6416 -1.8289 0.9560
10.4893 -2.6236 -1.7812 0.9571
14.6694 -0.9820 -2.4220 0.9421
14.6986 0.3276 -2.4220 0.9421
14.6111 1.6345 -2.4220 0.9421
14.4077 2.9285 -2.4220 0.9421
14.0898 4.1992 -2.4220 0.9421
13.1221 6.6309 -2.4220 0.9421
11.7385 8.8524 -2.4220 0.9421
10.9040 9.8621 -2.4220 0.9421
7.8349 12.2732 -2.3987 0.9427
5.7729 14.0476 -2.5020 0.9403
1.8565 15.0736 -2.5020 0.9403
-0.8455 15.1640 -2.5020 0.9403
-2.1015 14.4093 -2.3989 0.9427
-3.3757 14.1651 -2.3989 0.9427
-4.6231 13.8084 -2.3989 0.9427
-7.3340 16.7734 -3.0158 0.9285
-7.7503 14.1425 -2.6567 0.9367
-8.2189 12.2635 -2.4320 0.9419
-9.4902 11.7462 -2.4877 0.9406
-10.0902 10.4332 -2.3911 0.9429
-12.4913 8.9907 -2.5354 0.9395
-17.0054 6.3329 -2.9894 0.9291
-5.8650 -5.0716 -1.4574 0.9689
-5.6069 -8.3660 -1.8930 0.9598
-5.6106 -10.2380 -2.1944 0.9536
-4.0519 -12.1025 -2.3989 0.9494
-2.9587 -12.4151 -2.3989 0.9494
-1.8419 -12.6291 -2.3989 0.9494
0.4448 -13.3038 -2.5020 0.9473
1.6271 -13.2114 -2.5020 0.9473
3.9438 -12.7136 -2.5020 0.9473
6.1355 -11.8129 -2.5020 0.9473
6.8670 -10.7569 -2.3987 0.9494
10.4815 -6.5280 -2.3210 0.9510
10.4840 -5.2978 -2.2079 0.9533
10.4902 -2.1322 -2.0121 0.9574
12.8060 -1.4326 -2.4220 0.9489
12.8827 -0.2871 -2.4220 0.9489
12.8571 0.8607 -2.4220 0.9489
12.7295 2.0016 -2.4220 0.9489
12.1729 4.2269 -2.4220 0.9489
11.7484 5.2936 -2.4220 0.9489
11.2306 6.3182 -2.4220 0.9489
9.8368 8.1304 -2.3987 0.9494
9.0741 8.9736 -2.3987 0.9494
7.3393 10.4403 -2.3987 0.9494
6.4675 11.2020 -2.4313 0.9487
5.6031 12.0745 -2.5020 0.9473
4.5062 12.5253 -2.5020 0.9473
3.3735 12.8766 -2.5020 0.9473
2.2140 13.1258 -2.5020 0.9473
-0.1483 13.3104 -2.5020 0.9473
-2.4027 12.5345 -2.3989 0.9494
-3.5088 12.2709 -2.3989 0.9494
-4.5870 11.9100 -2.3989 0.9494
-8.5947 11.6648 -2.7234 0.9427
-12.4344 8.1342 -2.7928 0.9413
-14.1851 7.5694 -3.0221 0.9367
-15.3338 6.5021 -3.1306 0.9345
-17.1789 5.5395 -3.3927 0.9292
-5.6483 -5.3421 -1.4613 0.9689
-5.6312 -6.3673 -1.5977 0.9660
-5.6054 -7.6077 -1.7762 0.9623
-5.6086 -9.2330 -2.0305 0.9570
-2.4027 -12.5345 -2.3989 0.9494
-1.3324 -13.2444 -2.5020 0.9473
-0.1483 -13.3104 -2.5020 0.9473
2.2140 -13.1258 -2.5020 0.9473
3.3735 -12.8766 -2.5020 0.9473
4.5062 -12.5252 -2.5020 0.9473
8.2394 -9.7456 -2.3987 0.9494
9.0741 -8.9736 -2.3987 0.9494
10.4802 -7.1943 -2.3893 0.9496
10.4828 -5.8975 -2.2608 0.9522
10.4851 -4.7244 -2.1616 0.9543
10.4893 -2.6236 -2.0323 0.9569
12.7295 -2.0016 -2.4220 0.9489
12.8060 1.4326 -2.4220 0.9489
12.6277 2.5667 -2.4220 0.9489
12.3491 3.6804 -2.4220 0.9489
11.5009 5.8116 -2.4220 0.9489
10.9380 6.8122 -2.4220 0.9489
10.1892 7.6841 -2.3987 0.9494
7.7971 10.1030 -2.3987 0.9494
6.8670 10.7569 -2.3987 0.9494
6.1355 11.8129 -2.5020 0.9473
5.0597 12.3121 -2.5020 0.9473
2.7966 13.0141 -2.5020 0.9473
-0.7411 13.2905 -2.5020 0.9473
-1.8419 12.6291 -2.3989 0.9494
-2.9587 12.4151 -2.3989 0.9494
-4.0519 12.1025 -2.3989 0.9494
-5.1130 11.6938 -2.3989 0.9494
-8.9947 11.1328 -2.6902 0.9434
-9.7882 10.1209 -2.6464 0.9443
-11.2379 9.7177 -2.7925 0.9413
-13.2817 7.8668 -2.9015 0.9391
-15.9679 5.9465 -3.2027 0.9330
-5.6707 -4.9037 -1.5847 0.9698
-5.6017 -5.7922 -1.7033 0.9676
-5.6040 -6.9362 -1.8849 0.9642
-5.6069 -8.3660 -2.1288 0.9597
-5.4540 -9.9523 -2.3989 0.9547
-3.6030 -10.7616 -2.3989 0.9547
-1.6378 -11.2299 -2.3989 0.9547
-0.6590 -11.8181 -2.5020 0.9528
1.4469 -11.7477 -2.5020 0.9528
3.5069 -11.3050 -2.5020 0.9528
5.4557 -10.5041 -2.5020 0.9528
6.3690 -9.9768 -2.5020 0.9528
7.7053 -8.3309 -2.3987 0.9547
9.6325 -5.9992 -2.3987 0.9547
10.4862 -4.1734 -2.3857 0.9549
10.4902 -2.1322 -2.2628 0.9572
11.4326 0.7653 -2.4220 0.9542
11.3192 1.7799 -2.4220 0.9542
10.8242 3.7586 -2.4220 0.9542
10.3462 4.6618 -2.3987 0.9547
9.8902 5.5641 -2.3987 0.9547
9.3557 6.4223 -2.3987 0.9547
8.7470 7.2296 -2.3987 0.9547
8.0688 7.9794 -2.3987 0.9547
6.5262 9.2836 -2.3987 0.9547
-0.1319 11.8357 -2.5020 0.9528
-3.1200 10.9114 -2.3989 0.9547
-4.0788 10.5904 -2.3989 0.9547
-5.0052 10.1854 -2.3989 0.9547
-5.5077 6.2276 -1.7574 0.9666
-10.9875 8.6767 -2.9594 0.9444
-11.7923 7.7142 -2.9786 0.9440
-12.8648 6.8649 -3.0823 0.9421
-5.6083 -5.3043 -1.6317 0.9689
-5.6054 -7.6076 -1.9975 0.9621
-5.0052 -10.1854 -2.3989 0.9547
-4.0788 -10.5904 -2.3989 0.9547
-0.1319 -11.8357 -2.5020 0.9528
2.9998 -11.4500 -2.5020 0.9528
4.9824 -10.7367 -2.5020 0.9528
5.9182 -10.2506 -2.5020 0.9528
6.5262 -9.2836 -2.3987 0.9547
8.0688 -7.9794 -2.3987 0.9547
9.8902 -5.5642 -2.3987 0.9547
10.4893 -2.6236 -2.2855 0.9568
11.2286 2.2823 -2.4220 0.9542
10.9809 3.2727 -2.4220 0.9542
10.6461 4.2370 -2.4220 0.9542
10.1283 5.1180 -2.3987 0.9547
9.6326 5.9992 -2.3987 0.9547
8.4163 7.6121 -2.3987 0.9547
7.7053 8.3309 -2.3987 0.9547
6.9333 8.9837 -2.3987 0.9547
6.3690 9.9768 -2.5020 0.9528
4.4991 10.9480 -2.5020 0.9528
3.5069 11.3050 -2.5020 0.9528
1.4469 11.7477 -2.5020 0.9528
0.3955 11.8298 -2.5020 0.9528
-4.5465 10.3982 -2.3989 0.9547
-5.4540 9.9523 -2.3989 0.9547
-11.4278 8.2253 -2.9762 0.9441
-13.3017 6.3537 -3.1160 0.9415
-14.3850 5.3570 -3.2447 0.9392
-17.5756 4.8145 -3.8520 0.9282
-5.5999 -4.8424 -1.7399 0.9700
-5.6017 -5.7922 -1.8938 0.9674
-5.6040 -6.9362 -2.0957 0.9640
-5.6069 -8.3660 -2.3669 0.9595
-2.3662 -9.9290 -2.3989 0.9589
-1.5364 -10.5343 -2.5020 0.9572
-0.5927 -10.6292 -2.5020 0.9572
0.3557 -10.6398 -2.5020 0.9572
3.1541 -10.1677 -2.5020 0.9572
4.0465 -9.8467 -2.5020 0.9572
6.9302 -7.4928 -2.3987 0.9589
7.5696 -6.8463 -2.3987 0.9589
8.1489 -6.1454 -2.3987 0.9589
8.6635 -5.3957 -2.3987 0.9589
9.1094 -4.6032 -2.3987 0.9589
9.4829 -3.7741 -2.3987 0.9589
10.2038 -0.2274 -2.3987 0.9589
10.0825 1.5854 -2.3987 0.9589
7.2571 7.1767 -2.3987 0.9589
6.5895 7.7941 -2.3987 0.9589
6.1223 8.7091 -2.5020 0.9572
5.3228 9.2194 -2.5020 0.9572
4.4811 9.6566 -2.5020 0.9572
1.7707 10.4974 -2.5020 0.9572
0.8293 10.6133 -2.5020 0.9572
-0.1186 10.6450 -2.5020 0.9572
-1.0656 10.5922 -2.5020 0.9572
-1.9215 10.0246 -2.3989 0.9589
-2.8062 9.8137 -2.3989 0.9589
-8.5260 9.6405 -3.0247 0.9485
-10.1201 7.9918 -3.0306 0.9484
-11.7471 6.2684 -3.1293 0.9468
-5.8542 -3.8296 -1.6441 0.9717
-5.5990 -4.4215 -1.6767 0.9711
-5.6008 -5.2972 -1.8118 0.9688
-5.6028 -6.3352 -1.9877 0.9658
-5.6054 -7.6076 -2.2209 0.9619
-1.0656 -10.5922 -2.5020 0.9572
-0.1186 -10.6450 -2.5020 0.9572
1.7707 -10.4974 -2.5020 0.9572
6.1223 -8.7091 -2.5020 0.9572
6.5895 -7.7941 -2.3987 0.9589
8.4146 -5.7763 -2.3987 0.9589
8.8953 -5.0044 -2.3987 0.9589
6.7949 -3.0616 -1.7516 0.9698
9.6416 -3.3479 -2.3987 0.9589
9.9014 -2.4765 -2.3987 0.9589
10.0825 -1.5854 -2.3987 0.9589
10.0019 2.0330 -2.3987 0.9589
9.1094 4.6032 -2.3987 0.9589
8.6635 5.3957 -2.3987 0.9589
8.1489 6.1454 -2.3987 0.9589
6.9302 7.4929 -2.3987 0.9589
5.7283 8.9732 -2.5020 0.9572
4.0465 9.8466 -2.5020 0.9572
3.1541 10.1677 -2.5020 0.9572
2.2366 10.4081 -2.5020 0.9572
-3.2405 9.6790 -2.3989 0.9589
-4.9053 8.9511 -2.3989 0.9589
-7.1916 10.7306 -3.0359 0.9483
-7.9644 9.8576 -2.9784 0.9493
-9.7472 8.4287 -3.0285 0.9484
-11.3607 6.7289 -3.1032 0.9472
-12.1296 5.7938 -3.1592 0.9463
-5.9507 -2.2161 -1.6441 0.9741
-5.7299 -2.7369 -1.6441 0.9741
-5.5982 -4.0294 -1.7859 0.9719
-5.5999 -4.8424 -1.9168 0.9699
-5.6017 -5.7922 -2.0863 0.9673
-5.6040 -6.9362 -2.3088 0.9638
-4.4526 -8.1250 -2.3989 0.9624
-2.1478 -9.0127 -2.3989 0.9624
2.8630 -9.2294 -2.5020 0.9609
7.3969 -5.5782 -2.3987 0.9624
8.2687 -4.1784 -2.3987 0.9624
9.0788 -1.8454 -2.3987 0.9624
9.2622 -0.2064 -2.3987 0.9624
9.2438 0.6188 -2.3987 0.9624
8.4466 3.8059 -2.3987 0.9624
7.6380 5.2432 -2.3987 0.9624
7.1410 5.9022 -2.3987 0.9624
6.5873 6.5144 -2.3987 0.9624
4.8316 8.3686 -2.5020 0.9609
4.0676 8.7654 -2.5020 0.9609
3.2713 9.0927 -2.5020 0.9609
2.4490 9.3478 -2.5020 0.9609
1.6073 9.5286 -2.5020 0.9609
0.7528 9.6339 -2.5020 0.9609
-0.1076 9.6626 -2.5020 0.9609
-0.9672 9.6147 -2.5020 0.9609
-1.7442 9.0994 -2.3989 0.9624
-2.5472 8.9081 -2.3989 0.9624
-5.4959 7.4590 -2.3989 0.9624
-7.8243 8.8470 -3.0579 0.9524
-12.8640 4.1481 -3.4996 0.9457
-15.2319 3.4511 -4.0438 0.9375
-5.8461 -2.4790 -1.6441 0.9741
-5.4959 -7.4590 -2.3989 0.9624
-4.8102 -7.9186 -2.3989 0.9624
-4.0863 -8.3153 -2.3989 0.9624
-3.3299 -8.6460 -2.3989 0.9624
-1.7442 -9.0994 -2.3989 0.9624
-0.9672 -9.6147 -2.5020 0.9609
-0.1076 -9.6626 -2.5020 0.9609
1.6073 -9.5286 -2.5020 0.9609
2.4490 -9.3478 -2.5020 0.9609
3.2713 -9.0927 -2.5020 0.9609
4.0676 -8.7654 -2.5020 0.9609
4.8316 -8.3686 -2.5020 0.9609
7.1410 -5.9022 -2.3987 0.9624
7.6380 -5.2432 -2.3987 0.9624
8.7518 -3.0390 -2.3987 0.9624
8.9876 -2.2480 -2.3987 0.9624
9.1520 -1.4391 -2.3987 0.9624
9.2070 1.0300 -2.3987 0.9624
8.6078 3.4258 -2.3987 0.9624
7.8640 4.8977 -2.3987 0.9624
6.8710 6.2145 -2.3987 0.9624
6.4630 6.9877 -2.4645 0.9614
5.1996 8.1451 -2.5020 0.9609
2.0302 9.4476 -2.5020 0.9609
-0.5380 9.6483 -2.5020 0.9609
-1.3946 9.5621 -2.5020 0.9609
-3.7118 8.4891 -2.3989 0.9624
-4.4526 8.1250 -2.3989 0.9624
-5.5011 2.6276 -1.5785 0.9751
-5.5016 -0.0000 -1.5575 0.9774
-5.5018 -0.9912 -1.5826 0.9770
-5.5956 -2.6728 -1.7555 0.9746
-5.5982 -4.0294 -1.9526 0.9717
-5.5999 -4.8424 -2.0958 0.9697
-5.3254 -6.5914 -2.3989 0.9654
-4.7176 -7.0392 -2.3989 0.9654
-4.0724 -7.4312 -2.3989 0.9654
-2.6903 -8.0355 -2.3989 0.9654
0.2953 -8.8331 -2.5020 0.9639
1.0803 -8.7718 -2.5020 0.9639
1.8568 -8.6408 -2.5020 0.9639
2.6185 -8.4412 -2.5020 0.9639
3.3594 -8.1747 -2.5020 0.9639
5.3998 -6.9967 -2.5020 0.9639
6.0011 -6.4883 -2.5020 0.9639
6.7652 -5.1019 -2.3987 0.9654
7.5626 -3.8215 -2.3987 0.9654
7.8727 -3.1333 -2.3987 0.9654
8.3035 -1.6878 -2.3987 0.9654
8.4208 -0.9420 -2.3987 0.9654
8.4712 -0.1888 -2.3987 0.9654
8.4544 0.5659 -2.3987 0.9654
8.3705 1.3162 -2.3987 0.9654
7.7253 3.4809 -2.3987 0.9654
7.3848 4.1546 -2.3987 0.9654
6.2841 6.2145 -2.5020 0.9639
5.0827 7.2303 -2.5020 0.9639
4.4190 7.6539 -2.5020 0.9639
3.7202 8.0169 -2.5020 0.9639
2.9919 8.3162 -2.5020 0.9639
2.2399 8.5495 -2.5020 0.9639
0.6885 8.8112 -2.5020 0.9639
-0.0985 8.8375 -2.5020 0.9639
-0.8846 8.7937 -2.5020 0.9639
-2.3297 8.1473 -2.3989 0.9654
-3.0456 7.9077 -2.3989 0.9654
-3.7373 7.6052 -2.3989 0.9654
-4.3994 7.2424 -2.3989 0.9654
-5.0265 6.8221 -2.3989 0.9654
-7.9457 7.5150 -3.0961 0.9556
-11.9402 3.8502 -3.5516 0.9492
-5.5014 1.2464 -1.5969 0.9768
-5.5015 0.7398 -1.5715 0.9772
-5.5016 -0.2454 -1.5590 0.9774
-5.5017 -0.7399 -1.5715 0.9772
-5.6915 -1.8353 -1.6929 0.9754
-5.5975 -3.6617 -1.8936 0.9726
-5.5990 -4.4215 -2.0197 0.9708
-5.6008 -5.2972 -2.1824 0.9685
-5.0265 -6.8221 -2.3989 0.9654
-4.3994 -7.2424 -2.3989 0.9654
-3.7373 -7.6052 -2.3989 0.9654
-3.0456 -7.9077 -2.3989 0.9654
-2.3297 -8.1473 -2.3989 0.9654
-1.5953 -8.3224 -2.3989 0.9654
0.6885 -8.8112 -2.5020 0.9639
1.4700 -8.7149 -2.5020 0.9639
2.2399 -8.5495 -2.5020 0.9639
2.9919 -8.3162 -2.5020 0.9639
3.7202 -8.0169 -2.5020 0.9639
5.0827 -7.2303 -2.5020 0.9639
6.5312 -5.3982 -2.3987 0.9654
6.9857 -4.7954 -2.3987 0.9654
7.3848 -4.1546 -2.3987 0.9654
6.7821 -3.0559 -2.1059 0.9695
8.0045 -2.7795 -2.3987 0.9654
8.2201 -2.0560 -2.3987 0.9654
8.4544 -0.5660 -2.3987 0.9654
8.4208 0.9420 -2.3987 0.9654
8.3035 1.6878 -2.3987 0.9654
8.1203 2.4201 -2.3987 0.9654
7.8727 3.1333 -2.3987 0.9654
7.5626 3.8215 -2.3987 0.9654
6.4630 5.8454 -2.4670 0.9644
5.3998 6.9967 -2.5020 0.9639
4.7556 7.4495 -2.5020 0.9639
3.3594 8.1746 -2.5020 0.9639
2.6185 8.4412 -2.5020 0.9639
0.2953 8.8331 -2.5020 0.9639
-1.2755 8.7455 -2.5020 0.9639
-1.9644 8.2430 -2.3989 0.9654
-9.1376 6.5769 -3.1872 0.9543
-5.5082 3.2625 -1.8123 0.9737
-11.4461 4.2626 -3.4577 0.9505
-5.5014 0.9911 -1.5825 0.9770
-5.5015 0.4916 -1.5636 0.9773
-5.5088 -0.0000 -1.6944 0.9772
-5.5944 -2.0834 -1.8362 0.9753
-5.5956 -2.6728 -1.9073 0.9744
-5.5968 -3.3150 -2.0008 0.9731
-5.5999 -4.8424 -2.2771 0.9695
-5.4220 -5.6063 -2.3989 0.9679
-4.3421 -6.4788 -2.3989 0.9679
-3.7482 -6.8396 -2.3989 0.9679
-3.1246 -7.1461 -2.3989 0.9679
-2.4761 -7.3958 -2.3989 0.9679
-1.8080 -7.5868 -2.3989 0.9679
-0.4529 -8.1218 -2.5020 0.9665
0.2718 -8.1299 -2.5020 0.9665
0.9943 -8.0735 -2.5020 0.9665
1.7090 -7.9529 -2.5020 0.9665
2.4100 -7.7692 -2.5020 0.9665
4.3770 -6.8565 -2.5020 0.9665
4.9699 -6.4397 -2.5020 0.9665
6.4630 -4.8740 -2.4898 0.9667
6.6199 -4.1229 -2.3987 0.9679
7.2460 -2.8838 -2.3987 0.9679
7.7968 -0.1737 -2.3987 0.9679
7.5657 1.8923 -2.3987 0.9679
7.1103 3.2037 -2.3987 0.9679
2.7537 7.6542 -2.5020 0.9665
2.0616 7.8689 -2.5020 0.9665
1.3530 8.0212 -2.5020 0.9665
0.6337 8.1097 -2.5020 0.9665
-2.1442 7.4987 -2.3989 0.9679
-4.6264 6.2790 -2.3989 0.9679
-5.1669 5.8423 -2.3989 0.9679
-8.2477 6.5131 -3.2324 0.9570
-9.6140 5.1302 -3.3517 0.9554
-5.5014 1.2464 -1.7350 0.9767
-18.8687 0.8414 -5.8094 0.9240
-5.5962 -2.9862 -1.9510 0.9738
-5.5975 -3.6617 -2.0573 0.9724
-5.5990 -4.4215 -2.1944 0.9706
-5.6008 -5.2972 -2.3711 0.9683
-5.1669 -5.8423 -2.3989 0.9679
-4.6264 -6.2790 -2.3989 0.9679
-3.4398 -6.9998 -2.3989 0.9679
-2.1442 -7.4987 -2.3989 0.9679
-1.5314 -7.9890 -2.5020 0.9665
-0.8142 -8.0936 -2.5020 0.9665
0.6337 -8.1097 -2.5020 0.9665
2.0616 -7.8689 -2.5020 0.9665
2.7537 -7.6542 -2.5020 0.9665
4.0672 -7.0446 -2.5020 0.9665
4.6781 -6.6547 -2.5020 0.9665
5.2518 -6.2119 -2.5020 0.9665
5.7839 -5.7198 -2.5020 0.9665
6.2700 -5.1823 -2.5020 0.9665
6.4718 -4.4426 -2.4145 0.9677
6.7969 -3.8239 -2.3987 0.9679
7.3673 -2.5582 -2.3987 0.9679
7.5657 -1.8923 -2.3987 0.9679
7.7041 -1.2114 -2.3987 0.9679
7.7504 0.8670 -2.3987 0.9679
7.6425 1.5534 -2.3987 0.9679
7.4739 2.2275 -2.3987 0.9679
7.2460 2.8838 -2.3987 0.9679
6.9605 3.5173 -2.3987 0.9679
6.6199 4.1229 -2.3987 0.9679
6.4630 4.8740 -2.4898 0.9667
5.5233 5.9718 -2.5020 0.9665
4.9699 6.4397 -2.5020 0.9665
4.3770 6.8565 -2.5020 0.9665
3.7494 7.2188 -2.5020 0.9665
2.4100 7.7692 -2.5020 0.9665
-0.4529 8.1219 -2.5020 0.9665
-1.1740 8.0493 -2.5020 0.9665
-4.3421 6.4788 -2.3989 0.9679
-4.9015 6.0667 -2.3989 0.9679
-5.4220 5.6063 -2.3989 0.9679
-9.2318 5.4680 -3.3002 0.9561
-10.7742 4.0123 -3.5362 0.9530
-14.1361 2.5467 -4.4179 0.9417
-18.5691 0.0000 -6.1725 0.9247
-18.5292 -1.6558 -6.1838 0.9246
-5.5956 -2.6728 -2.0613 0.9742
-5.5968 -3.3150 -2.1623 0.9730
-5.4589 -4.7204 -2.3989 0.9700
-5.0170 -5.1876 -2.3989 0.9700
-4.0178 -5.9949 -2.3989 0.9700
-3.4682 -6.3287 -2.3989 0.9700
-2.2912 -6.8434 -2.3989 0.9700
-1.6730 -7.0202 -2.3989 0.9700
-1.0863 -7.4481 -2.5020 0.9688
1.5813 -7.3589 -2.5020 0.9688
3.4693 -6.6797 -2.5020 0.9688
4.0501 -6.3444 -2.5020 0.9688
5.5823 -5.0489 -2.5020 0.9688
6.3891 -3.9792 -2.5020 0.9688
6.4727 -3.2708 -2.4107 0.9699
6.7048 -2.6684 -2.3987 0.9700
7.1715 -0.8023 -2.3987 0.9700
7.2002 0.4820 -2.3987 0.9700
7.0006 1.7510 -2.3987 0.9700
6.8170 2.3671 -2.3987 0.9700
6.4630 3.6360 -2.4650 0.9692
5.8017 4.7952 -2.5020 0.9688
5.3519 5.2926 -2.5020 0.9688
4.8596 5.7479 -2.5020 0.9688
4.3287 6.1577 -2.5020 0.9688
3.7635 6.5185 -2.5020 0.9688
3.1683 6.8276 -2.5020 0.9688
2.5481 7.0825 -2.5020 0.9688
1.2519 7.4221 -2.5020 0.9688
0.5864 7.5040 -2.5020 0.9688
-0.7534 7.4891 -2.5020 0.9688
-1.9841 6.9387 -2.3989 0.9700
-2.5938 6.7346 -2.3989 0.9700
-3.1829 6.4770 -2.3989 0.9700
-4.7810 5.4059 -2.3989 0.9700
-5.2432 4.9589 -2.3989 0.9700
-7.7650 6.1319 -3.2889 0.9592
-8.3938 5.4910 -3.3341 0.9586
-9.8128 4.1610 -3.5430 0.9561
-15.8660 2.1338 -5.3214 0.9347
-18.7974 -2.5281 -6.3046 0.9232
-5.6915 -1.8353 -1.9878 0.9751
-5.5950 -2.3725 -2.0201 0.9747
-5.5962 -2.9862 -2.1085 0.9736
-5.5990 -4.4215 -2.3715 0.9704
-4.2808 -5.8100 -2.3989 0.9700
-3.7467 -6.1680 -2.3989 0.9700
-3.1829 -6.4770 -2.3989 0.9700
-1.4170 -7.3923 -2.5020 0.9688
-0.0838 -7.5264 -2.5020 0.9688
1.2519 -7.4220 -2.5020 0.9688
3.1683 -6.8276 -2.5020 0.9688
3.7635 -6.5185 -2.5020 0.9688
4.3287 -6.1577 -2.5020 0.9688
4.8596 -5.7479 -2.5020 0.9688
5.3519 -5.2926 -2.5020 0.9688
5.8017 -4.7952 -2.5020 0.9688
6.8170 -2.3671 -2.3987 0.9700
7.0006 -1.7510 -2.3987 0.9700
7.1287 -1.1209 -2.3987 0.9700
7.2002 -0.4820 -2.3987 0.9700
7.2145 0.1608 -2.3987 0.9700
7.0717 1.4374 -2.3987 0.9700
6.9157 2.0611 -2.3987 0.9700
6.7048 2.6684 -2.3987 0.9700
4.5987 5.9587 -2.5020 0.9688
3.4693 6.6797 -2.5020 0.9688
2.2300 7.1890 -2.5020 0.9688
1.5813 7.3589 -2.5020 0.9688
0.9201 7.4704 -2.5020 0.9688
-1.0863 7.4481 -2.5020 0.9688
-2.2912 6.8434 -2.3989 0.9700
-2.8912 6.6123 -2.3989 0.9700
-4.5354 5.6135 -2.3989 0.9700
-5.0170 5.1876 -2.3989 0.9700
-8.7522 5.1839 -3.3813 0.9580
-11.1104 3.0435 -3.8292 0.9526
-12.7621 2.2992 -4.3105 0.9468
-18.5251 1.6554 -6.1824 0.9246
-18.4523 0.0000 -6.5987 0.9246
-18.4630 -1.6499 -6.6288 0.9243
-5.5944 -2.0834 -2.1348 0.9750
-5.5956 -2.6728 -2.2176 0.9740
-5.0742 -4.3878 -2.3989 0.9719
-4.6635 -4.8220 -2.3989 0.9719
-2.6874 -6.1463 -2.3989 0.9719
-1.5841 -6.6473 -2.4437 0.9714
-0.3895 -6.9856 -2.5020 0.9707
0.2338 -6.9926 -2.5020 0.9707
1.4699 -6.8403 -2.5020 0.9707
2.0729 -6.6823 -2.5020 0.9707
2.6594 -6.4713 -2.5020 0.9707
3.2248 -6.2089 -2.5020 0.9707
3.7647 -5.8973 -2.5020 0.9707
4.2746 -5.5388 -2.5020 0.9707
4.7506 -5.1363 -2.5020 0.9707
5.1889 -4.6931 -2.5020 0.9707
6.2445 -3.1555 -2.5020 0.9707
6.4630 -2.5722 -2.4875 0.9709
6.4716 -1.9287 -2.4149 0.9717
6.5733 -1.3361 -2.3987 0.9719
6.6928 0.4480 -2.3987 0.9719
6.4635 2.2444 -2.4468 0.9714
6.0977 3.4305 -2.5020 0.9707
5.7682 3.9596 -2.5020 0.9707
5.3929 4.4573 -2.5020 0.9707
4.9747 4.9196 -2.5020 0.9707
4.5171 5.3429 -2.5020 0.9707
4.0236 5.7237 -2.5020 0.9707
1.7731 6.7680 -2.5020 0.9707
1.1637 6.8990 -2.5020 0.9707
0.5451 6.9752 -2.5020 0.9707
-0.0779 6.9960 -2.5020 0.9707
-0.7003 6.9613 -2.5020 0.9707
-1.3171 6.8714 -2.5020 0.9707
-2.4110 6.2600 -2.3989 0.9719
-2.9586 6.0205 -2.3989 0.9719
-3.9792 5.4006 -2.3989 0.9719
-4.8737 4.6095 -2.3989 0.9719
-7.9789 5.2196 -3.4096 0.9603
-8.6461 4.6137 -3.5046 0.9592
-9.3022 3.9445 -3.6132 0.9580
-10.0560 3.2426 -3.7784 0.9561
-5.5962 -2.9862 -2.2683 0.9734
-5.5975 -3.6617 -2.3920 0.9720
-5.2646 -4.1574 -2.3989 0.9719
-3.9792 -5.4006 -2.3989 0.9719
-2.9586 -6.0205 -2.3989 0.9719
-2.4110 -6.2599 -2.3989 0.9719
-1.8442 -6.4497 -2.3989 0.9719
-1.3171 -6.8714 -2.5020 0.9707
-0.7003 -6.9613 -2.5020 0.9707
1.7731 -6.7680 -2.5020 0.9707
2.3685 -6.5834 -2.5020 0.9707
2.9451 -6.3464 -2.5020 0.9707
3.4982 -6.0591 -2.5020 0.9707
4.0236 -5.7237 -2.5020 0.9707
4.9747 -4.9196 -2.5020 0.9707
5.3929 -4.4573 -2.5020 0.9707
6.0977 -3.4305 -2.5020 0.9707
6.3788 -2.8742 -2.5020 0.9707
6.5073 -1.6276 -2.3987 0.9719
6.7061 0.1495 -2.3987 0.9719
6.4716 1.9287 -2.4149 0.9717
6.2445 3.1555 -2.5020 0.9707
5.9388 3.6987 -2.5020 0.9707
5.5861 4.2126 -2.5020 0.9707
5.1889 4.6931 -2.5020 0.9707
4.7506 5.1363 -2.5020 0.9707
4.2746 5.5388 -2.5020 0.9707
2.6594 6.4713 -2.5020 0.9707
1.4699 6.8403 -2.5020 0.9707
0.2338 6.9925 -2.5020 0.9707
-0.3895 6.9856 -2.5020 0.9707
-2.6874 6.1463 -2.3989 0.9719
-3.2238 5.8827 -2.3989 0.9719
-3.7346 5.5725 -2.3989 0.9719
-4.2158 5.2179 -2.3989 0.9719
-4.6635 4.8220 -2.3989 0.9719
-5.0742 4.3878 -2.3989 0.9719
-5.5078 3.2623 -2.2892 0.9732
-9.6276 3.5854 -3.6739 0.9573
-10.5282 2.8840 -3.9037 0.9547
-5.5087 0.4922 -1.9778 0.9768
-18.1204 0.0000 -6.9441 0.9253
-5.5944 -2.0834 -2.2877 0.9748
-5.5956 -2.6728 -2.3764 0.9738
-5.3860 -3.1901 -2.3989 0.9735
-5.0807 -3.6568 -2.3989 0.9735
-4.7350 -4.0946 -2.3989 0.9735
-4.3518 -4.4997 -2.3989 0.9735
-3.9340 -4.8692 -2.3989 0.9735
-3.0084 -5.4896 -2.3989 0.9735
-2.5078 -5.7356 -2.3989 0.9735
-1.9874 -5.9360 -2.3989 0.9735
-1.5135 -6.3510 -2.5020 0.9724
0.2182 -6.5252 -2.5020 0.9724
0.7981 -6.4799 -2.5020 0.9724
1.3717 -6.3832 -2.5020 0.9724
1.9343 -6.2358 -2.5020 0.9724
2.4817 -6.0388 -2.5020 0.9724
3.0093 -5.7940 -2.5020 0.9724
5.2127 -3.9311 -2.5020 0.9724
5.8271 -2.9446 -2.5020 0.9724
6.0661 -2.4143 -2.5020 0.9724
6.3981 -1.3005 -2.5020 0.9724
6.4630 0.4326 -2.4823 0.9726
6.4496 1.0142 -2.5020 0.9724
6.3338 1.5842 -2.5020 0.9724
5.9525 2.6821 -2.5020 0.9724
5.6902 3.2012 -2.5020 0.9724
5.3827 3.6950 -2.5020 0.9724
5.0324 4.1594 -2.5020 0.9724
3.7547 5.3412 -2.5020 0.9724
3.2644 5.6542 -2.5020 0.9724
2.7482 5.9223 -2.5020 0.9724
2.2102 6.1434 -2.5020 0.9724
1.6546 6.3157 -2.5020 0.9724
-0.0727 6.5285 -2.5020 0.9724
-1.2291 6.4121 -2.5020 0.9724
-1.7210 6.0187 -2.3989 0.9735
-2.2498 5.8416 -2.3989 0.9735
-2.7608 5.6182 -2.3989 0.9735
-3.7132 5.0396 -2.3989 0.9735
-4.5479 4.3014 -2.3989 0.9735
-5.5228 2.9471 -2.3989 0.9735
-5.5080 2.3356 -2.2927 0.9747
-5.5014 1.2464 -2.1617 0.9761
-11.8467 1.5932 -4.5807 0.9501
-18.4029 0.8206 -7.0593 0.9241
-5.6915 -1.8353 -2.2917 0.9747
-5.5950 -2.3725 -2.3289 0.9743
-5.5228 -2.9471 -2.3989 0.9735
-4.9127 -3.8796 -2.3989 0.9735
-4.5479 -4.3014 -2.3989 0.9735
-4.1470 -4.6891 -2.3989 0.9735
-3.7132 -5.0396 -2.3989 0.9735
-3.2499 -5.3501 -2.3989 0.9735
-2.7608 -5.6182 -2.3989 0.9735
-1.7210 -6.0187 -2.3989 0.9735
-0.6535 -6.4961 -2.5020 0.9724
-0.0727 -6.5285 -2.5020 0.9724
2.7482 -5.9223 -2.5020 0.9724
4.2152 -4.9858 -2.5020 0.9724
4.6423 -4.5908 -2.5020 0.9724
5.0324 -4.1594 -2.5020 0.9724
5.6902 -3.2012 -2.5020 0.9724
5.9525 -2.6821 -2.5020 0.9724
6.4630 -0.4327 -2.4823 0.9726
6.4630 0.1440 -2.4773 0.9727
6.4630 0.7230 -2.4922 0.9725
6.3981 1.3005 -2.5020 0.9724
6.2569 1.8647 -2.5020 0.9724
6.0661 2.4143 -2.5020 0.9724
5.8272 2.9446 -2.5020 0.9724
4.8422 4.3795 -2.5020 0.9724
3.9889 5.1686 -2.5020 0.9724
3.5131 5.5031 -2.5020 0.9724
3.0093 5.7940 -2.5020 0.9724
2.4817 6.0388 -2.5020 0.9724
1.9344 6.2358 -2.5020 0.9724
1.3717 6.3832 -2.5020 0.9724
0.7981 6.4799 -2.5020 0.9724
0.2182 6.5252 -2.5020 0.9724
-0.3635 6.5187 -2.5020 0.9724
-0.9422 6.4605 -2.5020 0.9724
-1.5135 6.3510 -2.5020 0.9724
-3.0084 5.4896 -2.3989 0.9735
-4.3518 4.4997 -2.3989 0.9735
-4.7350 4.0946 -2.3989 0.9735
-5.3860 3.1901 -2.3989 0.9735
-8.5287 4.0738 -3.6221 0.9603
-1.6200 -0.2919 -0.6737 0.9929
-1.6035 -0.4392 -0.6804 0.9928
-5.4928 -2.0455 -2.3989 0.9750
-5.2889 -2.5263 -2.3989 0.9750
-4.7572 -3.4240 -2.3989 0.9750
-4.4336 -3.8339 -2.3989 0.9750
-3.6836 -4.5592 -2.3989 0.9750
-2.8168 -5.1401 -2.3989 0.9750
-1.4172 -5.9467 -2.5020 0.9739
-0.3403 -6.1037 -2.5020 0.9739
0.2043 -6.1098 -2.5020 0.9739
0.7473 -6.0674 -2.5020 0.9739
1.8112 -5.8387 -2.5020 0.9739
2.3237 -5.6544 -2.5020 0.9739
2.8177 -5.4251 -2.5020 0.9739
4.1509 -4.4879 -2.5020 0.9739
4.8809 -3.6808 -2.5020 0.9739
5.1891 -3.2318 -2.5020 0.9739
5.6799 -2.2605 -2.5020 0.9739
6.0753 -0.6796 -2.5020 0.9739
6.0996 0.4083 -2.5020 0.9739
5.9305 1.4833 -2.5020 0.9739
5.7750 2.0053 -2.5020 0.9739
5.5736 2.5113 -2.5020 0.9739
4.7120 3.8946 -2.5020 0.9739
4.3467 4.2986 -2.5020 0.9739
3.9469 4.6684 -2.5020 0.9739
3.5157 5.0011 -2.5020 0.9739
3.0566 5.2942 -2.5020 0.9739
2.0695 5.7523 -2.5020 0.9739
0.4762 6.0946 -2.5020 0.9739
-0.0681 6.1128 -2.5020 0.9739
-0.6119 6.0825 -2.5020 0.9739
-2.1066 5.4697 -2.3989 0.9750
-2.5851 5.2605 -2.3989 0.9750
-3.0430 5.0095 -2.3989 0.9750
-4.2584 4.0276 -2.3989 0.9750
-4.6000 3.6326 -2.3989 0.9750
-5.1711 2.7594 -2.3989 0.9750
-5.3962 2.2882 -2.3989 0.9750
-1.6301 0.2192 -0.6732 0.9929
-1.6301 -0.2192 -0.6732 0.9929
-1.5889 -0.5124 -0.6833 0.9928
-5.1712 -2.7594 -2.3989 0.9750
-4.6000 -3.6325 -2.3989 0.9750
-4.2584 -4.0276 -2.3989 0.9750
-3.0430 -5.0095 -2.3989 0.9750
-0.0681 -6.1128 -2.5020 0.9739
0.4762 -6.0946 -2.5020 0.9739
1.0168 -6.0280 -2.5020 0.9739
3.5157 -5.0011 -2.5020 0.9739
4.7120 -3.8946 -2.5020 0.9739
5.9305 -1.4833 -2.5020 0.9739
6.0390 -0.9496 -2.5020 0.9739
6.0753 0.6796 -2.5020 0.9739
5.9907 1.2177 -2.5020 0.9739
5.4562 2.7571 -2.5020 0.9739
5.1891 3.2318 -2.5020 0.9739
4.8809 3.6808 -2.5020 0.9739
4.5339 4.1006 -2.5020 0.9739
3.7350 4.8396 -2.5020 0.9739
2.8177 5.4251 -2.5020 0.9739
1.8112 5.8387 -2.5020 0.9739
0.7473 6.0674 -2.5020 0.9739
0.2043 6.1098 -2.5020 0.9739
-0.3403 6.1037 -2.5020 0.9739
-0.8823 6.0492 -2.5020 0.9739
-1.4172 5.9467 -2.5020 0.9739
-1.8609 5.5581 -2.3989 0.9750
-2.8168 5.1401 -2.3989 0.9750
-3.6836 4.5592 -2.3989 0.9750
-4.4336 3.8339 -2.3989 0.9750
-5.4928 2.0455 -2.3989 0.9750
-1.6035 0.4392 -0.6804 0.9928
-1.6200 0.2919 -0.6737 0.9929
-1.5215 -0.1360 -0.6657 0.9934
-1.5001 -0.4109 -0.6779 0.9932
-4.4675 -3.2155 -2.3989 0.9763
-4.1636 -3.6004 -2.3989 0.9763
-3.4592 -4.2816 -2.3989 0.9763
-3.0644 -4.5725 -2.3989 0.9763
-2.2052 -5.0433 -2.3989 0.9763
-1.7475 -5.2196 -2.3989 0.9763
-1.3309 -5.5845 -2.5020 0.9753
-0.8285 -5.6808 -2.5020 0.9753
-0.3196 -5.7320 -2.5020 0.9753
1.2061 -5.6128 -2.5020 0.9753
1.7009 -5.4832 -2.5020 0.9753
2.1822 -5.3100 -2.5020 0.9753
3.8981 -4.2146 -2.5020 0.9753
4.5836 -3.4567 -2.5020 0.9753
5.1239 -2.5892 -2.5020 0.9753
5.3340 -2.1229 -2.5020 0.9753
5.5018 -1.6397 -2.5020 0.9753
5.6259 -1.1435 -2.5020 0.9753
5.7053 -0.6382 -2.5020 0.9753
5.7395 -0.1279 -2.5020 0.9753
5.6712 0.8918 -2.5020 0.9753
5.2341 2.3584 -2.5020 0.9753
5.0034 2.8149 -2.5020 0.9753
4.4251 3.6574 -2.5020 0.9753
3.3016 4.6966 -2.5020 0.9753
1.4549 5.5535 -2.5020 0.9753
0.4472 5.7235 -2.5020 0.9753
-1.0808 5.6382 -2.5020 0.9753
-2.4276 4.9401 -2.3989 0.9763
-2.8577 4.7044 -2.3989 0.9763
-3.2651 4.4314 -2.3989 0.9763
-3.9990 3.7823 -2.3989 0.9763
-4.3198 3.4113 -2.3989 0.9763
-4.6063 3.0133 -2.3989 0.9763
-4.8562 2.5914 -2.3989 0.9763
-5.0676 2.1488 -2.3989 0.9763
-1.5133 0.2035 -0.6654 0.9934
-1.5259 0.0680 -0.6657 0.9934
-1.5029 -0.3405 -0.6716 0.9933
-5.0676 -2.1488 -2.3989 0.9763
-4.8562 -2.5914 -2.3989 0.9763
-4.6063 -3.0133 -2.3989 0.9763
-4.3198 -3.4113 -2.3989 0.9763
-3.9991 -3.7823 -2.3989 0.9763
-3.2651 -4.4314 -2.3989 0.9763
-2.8577 -4.7044 -2.3989 0.9763
-2.4276 -4.9401 -2.3989 0.9763
-0.5746 -5.7121 -2.5020 0.9753
0.4472 -5.7235 -2.5020 0.9753
0.9549 -5.6609 -2.5020 0.9753
1.4549 -5.5535 -2.5020 0.9753
2.8705 -4.9718 -2.5020 0.9753
3.3016 -4.6966 -2.5020 0.9753
3.7065 -4.3841 -2.5020 0.9753
4.0820 -4.0368 -2.5020 0.9753
4.4251 -3.6574 -2.5020 0.9753
5.0034 -2.8149 -2.5020 0.9753
5.2341 -2.3584 -2.5020 0.9753
5.4233 -1.8832 -2.5020 0.9753
5.7281 -0.3835 -2.5020 0.9753
5.7395 0.1279 -2.5020 0.9753
5.7053 0.6382 -2.5020 0.9753
5.6259 1.1435 -2.5020 0.9753
5.5018 1.6397 -2.5020 0.9753
5.1239 2.5892 -2.5020 0.9753
4.5836 3.4567 -2.5020 0.9753
4.2578 3.8509 -2.5020 0.9753
3.0891 4.8390 -2.5020 0.9753
2.1822 5.3100 -2.5020 0.9753
1.7009 5.4831 -2.5020 0.9753
1.2061 5.6128 -2.5020 0.9753
-0.3196 5.7320 -2.5020 0.9753
-0.8285 5.6808 -2.5020 0.9753
-1.3309 5.5845 -2.5020 0.9753
-3.0644 4.5724 -2.3989 0.9763
-3.4592 4.2815 -2.3989 0.9763
-4.4675 3.2155 -2.3989 0.9763
-4.7360 2.8051 -2.3989 0.9763
-4.9668 2.3724 -2.3989 0.9763
-1.5015 0.2705 -0.6649 0.9934
-1.5215 0.1360 -0.6657 0.9934
-1.4219 0.0000 -0.6582 0.9938
-4.8566 -1.8086 -2.3989 0.9774
-4.6764 -2.2337 -2.3989 0.9774
-3.9201 -3.3898 -2.3989 0.9774
-2.8852 -4.3051 -2.3989 0.9774
-1.6453 -4.9144 -2.3989 0.9774
-1.2530 -5.2579 -2.5020 0.9765
-0.7801 -5.3486 -2.5020 0.9765
-0.3009 -5.3968 -2.5020 0.9765
1.1356 -5.2846 -2.5020 0.9765
2.4914 -4.7968 -2.5020 0.9765
2.9084 -4.5560 -2.5020 0.9765
3.3024 -4.2790 -2.5020 0.9765
3.6702 -3.9681 -2.5020 0.9765
5.0221 -1.9987 -2.5020 0.9765
5.1800 -1.5438 -2.5020 0.9765
5.2969 -1.0766 -2.5020 0.9765
5.3717 -0.6009 -2.5020 0.9765
5.3396 0.8396 -2.5020 0.9765
5.2437 1.3115 -2.5020 0.9765
5.1061 1.7730 -2.5020 0.9765
4.9280 2.2205 -2.5020 0.9765
4.1663 3.4436 -2.5020 0.9765
3.4897 4.1277 -2.5020 0.9765
2.7026 4.6810 -2.5020 0.9765
2.2752 4.9030 -2.5020 0.9765
0.8990 5.3299 -2.5020 0.9765
-0.5410 5.3780 -2.5020 0.9765
-1.0176 5.3086 -2.5020 0.9765
-1.4860 5.1969 -2.5020 0.9765
-2.6906 4.4293 -2.3989 0.9774
-4.0672 3.2118 -2.3989 0.9774
-4.3369 2.8371 -2.3989 0.9774
-4.7713 2.0232 -2.3989 0.9774
-1.4099 0.1896 -0.6585 0.9937
-1.3967 -0.3165 -0.6629 0.9937
-4.3369 -2.8371 -2.3989 0.9774
-4.0672 -3.2118 -2.3989 0.9774
-3.7652 -3.5611 -2.3989 0.9774
-2.6906 -4.4293 -2.3989 0.9774
-2.2857 -4.6512 -2.3989 0.9774
-1.4860 -5.1969 -2.5020 0.9765
-0.0602 -5.4049 -2.5020 0.9765
0.4211 -5.3888 -2.5020 0.9765
0.8990 -5.3299 -2.5020 0.9765
1.8298 -5.0861 -2.5020 0.9765
2.7026 -4.6810 -2.5020 0.9765
3.4897 -4.1277 -2.5020 0.9765
4.4563 -3.0591 -2.5020 0.9765
4.7109 -2.6503 -2.5020 0.9765
4.9281 -2.2205 -2.5020 0.9765
5.1061 -1.7730 -2.5020 0.9765
5.3396 -0.8396 -2.5020 0.9765
5.3931 -0.3610 -2.5020 0.9765
5.4039 0.1204 -2.5020 0.9765
5.3717 0.6009 -2.5020 0.9765
5.1800 1.5438 -2.5020 0.9765
4.8242 2.4378 -2.5020 0.9765
4.5881 2.8575 -2.5020 0.9765
4.3156 3.2545 -2.5020 0.9765
3.3024 4.2790 -2.5020 0.9765
2.4914 4.7968 -2.5020 0.9765
1.6014 5.1625 -2.5020 0.9765
1.1356 5.2846 -2.5020 0.9765
0.6607 5.3646 -2.5020 0.9765
-0.3009 5.3968 -2.5020 0.9765
-1.6453 4.9144 -2.3989 0.9774
-2.4906 4.5448 -2.3989 0.9774
-3.2570 4.0312 -2.3989 0.9774
-3.6028 3.7253 -2.3989 0.9774
-3.9201 3.3898 -2.3989 0.9774
-4.2063 3.0275 -2.3989 0.9774
-4.4590 2.6411 -2.3989 0.9774
-4.6764 2.2337 -2.3989 0.9774
-4.8566 1.8086 -2.3989 0.9774
-1.3946 0.3820 -0.6693 0.9936
-1.3993 0.2521 -0.6581 0.9938
-1.3159 -0.2371 -0.6559 0.9941
-3.9693 -2.8569 -2.3989 0.9784
-3.6992 -3.1988 -2.3989 0.9784
-3.3998 -3.5154 -2.3989 0.9784
-3.0734 -3.8040 -2.3989 0.9784
-2.0470 -3.0543 -1.8036 0.9838
-2.3503 -4.2887 -2.3989 0.9784
-1.9592 -4.4809 -2.3989 0.9784
-1.1824 -4.9617 -2.5020 0.9775
-0.7361 -5.0472 -2.5020 0.9775
-0.2840 -5.0927 -2.5020 0.9775
0.1704 -5.0978 -2.5020 0.9775
1.0716 -4.9868 -2.5020 0.9775
1.9388 -4.7178 -2.5020 0.9775
2.3510 -4.5265 -2.5020 0.9775
2.7446 -4.2993 -2.5020 0.9775
3.1163 -4.0379 -2.5020 0.9775
3.4634 -3.7446 -2.5020 0.9775
4.0724 -3.0712 -2.5020 0.9775
4.3296 -2.6965 -2.5020 0.9775
4.5524 -2.3004 -2.5020 0.9775
4.8882 -1.4568 -2.5020 0.9775
5.0994 -0.1136 -2.5020 0.9775
4.9482 1.2376 -2.5020 0.9775
4.8184 1.6731 -2.5020 0.9775
4.6504 2.0954 -2.5020 0.9775
4.2052 2.8867 -2.5020 0.9775
3.6267 3.5865 -2.5020 0.9775
2.9334 4.1728 -2.5020 0.9775
2.5503 4.4173 -2.5020 0.9775
1.7267 4.7995 -2.5020 0.9775
1.2927 4.9341 -2.5020 0.9775
0.3974 5.0851 -2.5020 0.9775
-0.5105 5.0750 -2.5020 0.9775
-0.9602 5.0095 -2.5020 0.9775
-2.1569 4.3891 -2.3989 0.9784
-3.2398 3.6633 -2.3989 0.9784
-3.5530 3.3604 -2.3989 0.9784
-4.0926 2.6772 -2.3989 0.9784
-4.5024 1.9092 -2.3989 0.9784
-1.3089 0.2966 -0.6583 0.9940
-1.3251 0.1782 -0.6559 0.9941
-4.5024 -1.9092 -2.3989 0.9784
-4.3146 -2.3024 -2.3989 0.9784
-4.0926 -2.6772 -2.3989 0.9784
-1.7714 -4.5994 -2.4176 0.9783
-0.9602 -5.0094 -2.5020 0.9775
-0.0568 -5.1003 -2.5020 0.9775
0.3974 -5.0851 -2.5020 0.9775
1.7267 -4.7995 -2.5020 0.9775
3.6267 -3.5866 -2.5020 0.9775
4.6504 -2.0954 -2.5020 0.9775
4.8184 -1.6731 -2.5020 0.9775
5.0387 -0.7923 -2.5020 0.9775
5.0690 0.5671 -2.5020 0.9775
4.0724 3.0712 -2.5020 0.9775
3.7829 3.4214 -2.5020 0.9775
3.4634 3.7446 -2.5020 0.9775
2.7446 4.2993 -2.5020 0.9775
2.3510 4.5265 -2.5020 0.9775
1.9388 4.7178 -2.5020 0.9775
1.5112 4.8716 -2.5020 0.9775
1.0716 4.9868 -2.5020 0.9775
-1.1824 4.9617 -2.5020 0.9775
-1.9592 4.4809 -2.3989 0.9784
-2.3503 4.2887 -2.3989 0.9784
-2.0411 3.0455 -1.7984 0.9838
-3.0734 3.8040 -2.3989 0.9784
-3.3998 3.5154 -2.3989 0.9784
-3.6992 3.1988 -2.3989 0.9784
-4.2078 2.4923 -2.3989 0.9784
-1.3061 0.3578 -0.6642 0.9940
-1.3159 0.2371 -0.6559 0.9941
-1.3317 0.1190 -0.6558 0.9941
-1.2576 -0.1124 -0.6550 0.9943
-1.2426 -0.2239 -0.6550 0.9943
-3.9786 -2.3565 -2.3989 0.9794
-3.7531 -2.7013 -2.3989 0.9794
-2.9060 -3.5969 -2.3989 0.9794
-2.0470 -3.0543 -1.9075 0.9836
-1.5312 -4.5733 -2.5020 0.9785
-0.6960 -4.7723 -2.5020 0.9785
-0.2685 -4.8154 -2.5020 0.9785
1.0132 -4.7152 -2.5020 0.9785
1.4289 -4.6063 -2.5020 0.9785
1.8332 -4.4608 -2.5020 0.9785
2.5951 -4.0651 -2.5020 0.9785
2.9466 -3.8180 -2.5020 0.9785
3.2747 -3.5406 -2.5020 0.9785
4.3045 -2.1752 -2.5020 0.9785
4.4810 -1.7834 -2.5020 0.9785
4.6219 -1.3775 -2.5020 0.9785
4.7262 -0.9606 -2.5020 0.9785
4.6787 1.1702 -2.5020 0.9785
3.9761 2.7295 -2.5020 0.9785
3.1138 3.6830 -2.5020 0.9785
2.7736 3.9455 -2.5020 0.9785
2.4114 4.1767 -2.5020 0.9785
1.2223 4.6654 -2.5020 0.9785
0.8022 4.7556 -2.5020 0.9785
0.3757 4.8082 -2.5020 0.9785
-0.0537 4.8225 -2.5020 0.9785
-0.9079 4.7366 -2.5020 0.9785
-2.1784 2.9566 -1.9052 0.9836
-3.0634 3.4638 -2.3989 0.9794
-3.3595 3.1774 -2.3989 0.9794
-3.6290 2.8658 -2.3989 0.9794
-3.8697 2.5314 -2.3989 0.9794
-4.2572 1.8052 -2.3989 0.9794
-1.2316 0.2790 -0.6551 0.9943
-1.2514 0.1683 -0.6551 0.9943
-1.2613 -0.0562 -0.6550 0.9943
-1.2316 -0.2790 -0.6551 0.9943
-4.2572 -1.8052 -2.3989 0.9794
-4.0796 -2.1770 -2.3989 0.9794
-3.6290 -2.8658 -2.3989 0.9794
-3.0634 -3.4638 -2.3989 0.9794
-2.4007 -3.9521 -2.3989 0.9794
-2.0394 -4.1501 -2.3989 0.9794
0.8022 -4.7556 -2.5020 0.9785
1.6327 -4.5381 -2.5020 0.9785
2.7736 -3.9455 -2.5020 0.9785
3.1138 -3.6830 -2.5020 0.9785
3.4292 -3.3912 -2.5020 0.9785
4.3971 -1.9812 -2.5020 0.9785
4.6787 -1.1702 -2.5020 0.9785
4.8121 -0.3221 -2.5020 0.9785
4.8216 0.1074 -2.5020 0.9785
4.7929 0.5362 -2.5020 0.9785
4.7262 0.9606 -2.5020 0.9785
4.6219 1.3775 -2.5020 0.9785
4.4810 1.7834 -2.5020 0.9785
4.3045 2.1751 -2.5020 0.9785
4.0938 2.5496 -2.5020 0.9785
3.8506 2.9039 -2.5020 0.9785
3.5769 3.2351 -2.5020 0.9785
2.9466 3.8180 -2.5020 0.9785
2.5951 4.0651 -2.5020 0.9785
2.2230 4.2800 -2.5020 0.9785
1.4289 4.6063 -2.5020 0.9785
0.5895 4.7867 -2.5020 0.9785
-1.1180 4.6914 -2.5020 0.9785
-1.5312 4.5733 -2.5020 0.9785
-2.9060 3.5969 -2.3989 0.9794
-3.7531 2.7013 -2.3989 0.9794
-3.9786 2.3565 -2.3989 0.9794
-4.1725 1.9930 -2.3989 0.9794
-1.2283 0.3365 -0.6607 0.9943
-1.2426 0.2239 -0.6550 0.9943
-1.2576 0.1124 -0.6550 0.9943
-1.1944 0.0000 -0.6542 0.9946
-1.1899 -0.1063 -0.6543 0.9946
-1.1756 -0.2118 -0.6543 0.9946
-1.1464 -0.4269 -0.6700 0.9944
-3.9522 -1.8878 -2.3989 0.9802
-3.7685 -2.2321 -2.3989 0.9802
-3.5549 -2.5586 -2.3989 0.9802
-3.3130 -2.8649 -2.3989 0.9802
-3.0449 -3.1484 -2.3989 0.9802
-2.7526 -3.4069 -2.3989 0.9802
-1.7707 -4.0496 -2.4208 0.9800
-1.4503 -4.3318 -2.5020 0.9794
-1.0590 -4.4437 -2.5020 0.9794
0.1526 -4.5656 -2.5020 0.9794
0.9597 -4.4662 -2.5020 0.9794
1.7364 -4.2253 -2.5020 0.9794
2.1056 -4.0539 -2.5020 0.9794
2.4580 -3.8504 -2.5020 0.9794
3.1018 -3.3536 -2.5020 0.9794
3.3880 -3.0642 -2.5020 0.9794
3.6473 -2.7505 -2.5020 0.9794
3.8776 -2.4150 -2.5020 0.9794
4.0771 -2.0603 -2.5020 0.9794
4.5670 -0.1018 -2.5020 0.9794
4.1649 1.8766 -2.5020 0.9794
3.9813 2.2399 -2.5020 0.9794
3.7662 2.5853 -2.5020 0.9794
3.2481 3.2121 -2.5020 0.9794
2.9493 3.4885 -2.5020 0.9794
2.2841 3.9561 -2.5020 0.9794
1.9229 4.1437 -2.5020 0.9794
0.7598 4.5045 -2.5020 0.9794
-0.4572 4.5452 -2.5020 0.9794
-0.8600 4.4864 -2.5020 0.9794
-1.5892 4.1263 -2.4218 0.9800
-1.9317 3.9309 -2.3989 0.9802
-2.2739 3.7434 -2.3989 0.9802
-2.9016 3.2809 -2.3989 0.9802
-3.1821 3.0096 -2.3989 0.9802
-3.6653 2.3977 -2.3989 0.9802
-1.1515 0.3713 -0.6626 0.9945
-1.1933 0.0532 -0.6542 0.9946
-1.1933 -0.0532 -0.6542 0.9946
-1.1649 -0.2639 -0.6542 0.9946
-1.1515 -0.3713 -0.6626 0.9945
-1.1411 -0.4838 -0.6788 0.9944
-3.8642 -2.0620 -2.3989 0.9802
-3.1821 -3.0096 -2.3989 0.9802
-2.2739 -3.7434 -2.3989 0.9802
-1.9317 -3.9309 -2.3989 0.9802
-1.2559 -4.3921 -2.5020 0.9794
-0.4573 -4.5452 -2.5020 0.9794
1.1577 -4.4190 -2.5020 0.9794
1.5464 -4.2984 -2.5020 0.9794
1.9229 -4.1437 -2.5020 0.9794
2.2841 -3.9561 -2.5020 0.9794
2.6271 -3.7371 -2.5020 0.9794
2.9493 -3.4885 -2.5020 0.9794
3.9813 -2.2399 -2.5020 0.9794
4.3154 -1.4985 -2.5020 0.9794
4.4316 -1.1084 -2.5020 0.9794
4.5127 -0.7096 -2.5020 0.9794
4.5670 0.1018 -2.5020 0.9794
4.5398 0.5079 -2.5020 0.9794
4.3778 1.3047 -2.5020 0.9794
4.2443 1.6892 -2.5020 0.9794
4.0771 2.0603 -2.5020 0.9794
3.8776 2.4150 -2.5020 0.9794
3.6473 2.7505 -2.5020 0.9794
3.1018 3.3536 -2.5020 0.9794
2.4580 3.8504 -2.5020 0.9794
0.5584 4.5339 -2.5020 0.9794
0.1526 4.5656 -2.5020 0.9794
-0.2543 4.5611 -2.5020 0.9794
-0.6593 4.5203 -2.5020 0.9794
-1.4503 4.3318 -2.5020 0.9794
-2.0326 3.0328 -1.9996 0.9835
-3.9522 1.8878 -2.3989 0.9802
-1.1756 0.2118 -0.6543 0.9946
-1.1899 0.1063 -0.6543 0.9946
-1.1319 0.0000 -0.6535 0.9948
-1.0934 -0.2995 -0.6545 0.9948
-1.0827 -0.4032 -0.6671 0.9947
-3.5750 -2.1175 -2.3989 0.9810
-3.3723 -2.4272 -2.3989 0.9810
-3.1429 -2.7178 -2.3989 0.9810
-2.6112 -3.2320 -2.3989 0.9810
-1.3758 -4.1094 -2.5020 0.9802
-1.0046 -4.2155 -2.5020 0.9802
-0.6254 -4.2882 -2.5020 0.9802
-0.2413 -4.3268 -2.5020 0.9802
0.1448 -4.3311 -2.5020 0.9802
0.5297 -4.3011 -2.5020 0.9802
0.9104 -4.2369 -2.5020 0.9802
2.3318 -3.6527 -2.5020 0.9802
2.9425 -3.1814 -2.5020 0.9802
3.4600 -2.6093 -2.5020 0.9802
3.6785 -2.2910 -2.5020 0.9802
4.0264 -1.6025 -2.5020 0.9802
4.2467 -0.8632 -2.5020 0.9802
4.3325 -0.0966 -2.5020 0.9802
4.3239 0.2895 -2.5020 0.9802
4.2810 0.6732 -2.5020 0.9802
4.2041 1.0515 -2.5020 0.9802
4.0938 1.4215 -2.5020 0.9802
3.7769 2.1248 -2.5020 0.9802
3.5728 2.4526 -2.5020 0.9802
3.3403 2.7608 -2.5020 0.9802
3.0813 3.0472 -2.5020 0.9802
2.7979 3.3093 -2.5020 0.9802
0.3376 4.3204 -2.5020 0.9802
-0.0483 4.3333 -2.5020 0.9802
-0.4338 4.3118 -2.5020 0.9802
-1.5575 4.0440 -2.5020 0.9802
-2.1572 3.5512 -2.3989 0.9810
-2.1719 2.9477 -2.1139 0.9832
-2.7526 3.1124 -2.3989 0.9810
-3.2608 2.5751 -2.3989 0.9810
-3.4771 2.2746 -2.3989 0.9810
-1.0769 0.4566 -0.6753 0.9946
-1.0870 0.3505 -0.6594 0.9947
-1.1039 0.2501 -0.6535 0.9948
-1.1309 0.0504 -0.6536 0.9948
-1.1309 -0.0504 -0.6536 0.9948
-1.1220 -0.1509 -0.6536 0.9948
-1.1039 -0.2501 -0.6535 0.9948
-3.6658 -1.9561 -2.3989 0.9810
-3.4771 -2.2746 -2.3989 0.9810
-3.0187 -2.8551 -2.3989 0.9810
-2.7526 -3.1124 -2.3989 0.9810
-2.4647 -3.3451 -2.3989 0.9810
-2.1572 -3.5512 -2.3989 0.9810
-1.5575 -4.0440 -2.5020 0.9802
-1.1914 -4.1666 -2.5020 0.9802
-0.8158 -4.2561 -2.5020 0.9802
-0.4338 -4.3118 -2.5020 0.9802
1.8241 -3.9309 -2.5020 0.9802
2.4922 -3.5452 -2.5020 0.9802
4.0938 -1.4215 -2.5020 0.9802
4.2041 -1.0515 -2.5020 0.9802
4.2810 -0.6732 -2.5020 0.9802
4.3239 -0.2895 -2.5020 0.9802
4.3067 0.4818 -2.5020 0.9802
4.0264 1.6025 -2.5020 0.9802
3.2140 2.9069 -2.5020 0.9802
2.6477 3.4307 -2.5020 0.9802
2.3318 3.6527 -2.5020 0.9802
1.9975 3.8458 -2.5020 0.9802
0.9104 4.2369 -2.5020 0.9802
0.5297 4.3011 -2.5020 0.9802
-1.3758 4.1094 -2.5020 0.9802
-1.9968 3.6437 -2.3989 0.9810
-2.0282 3.0262 -2.1033 0.9833
-2.6112 3.2320 -2.3989 0.9810
-3.1429 2.7178 -2.3989 0.9810
-3.7493 1.7909 -2.3989 0.9810
-1.0827 0.4032 -0.6671 0.9947
-1.0934 0.2995 -0.6545 0.9948
