ply
format ascii 1.0
element vertex 1391
property float32 x
property float32 y
property float32 z
property float32 I
end_header
7.0660 -15.2268 2.5716 0.9343
12.0285 15.5858 3.0160 0.9234
7.0656 -15.2260 2.1858 0.9345
12.0285 15.5858 2.5637 0.9237
7.0652 -15.2252 1.8024 0.9347
12.0285 15.5858 2.1141 0.9239
11.4502 16.2882 1.6854 0.9232
11.4575 16.2986 0.7856 0.9233
7.0635 -15.2215 0.6617 0.9350
17.7860 -0.3963 0.3005 0.9313
11.4575 16.2986 0.3365 0.9234
-18.7431 6.0438 0.3326 0.9242
17.6476 -1.1814 0.2988 0.9317
17.9263 0.3995 0.3029 0.9308
-18.5975 6.9258 0.3352 0.9237
11.4575 16.2986 -0.1122 0.9234
17.6476 -1.1814 -0.0996 0.9317
17.9263 0.3995 -0.1010 0.9308
-18.3884 6.8479 -0.1105 0.9245
17.7860 -0.3964 -0.5009 0.9313
12.8979 15.2557 -0.5625 0.9232
-18.3165 5.9063 -0.5419 0.9259
17.6476 -1.1814 -0.4980 0.9317
12.0353 15.5945 -0.5547 0.9242
-18.2112 6.7819 -0.5472 0.9252
-18.0820 5.8307 -0.9635 0.9267
17.6476 -1.1814 -0.8970 0.9316
17.9263 0.3995 -0.9093 0.9307
12.0353 15.5945 -0.9990 0.9241
10.5148 -13.6245 -1.2619 0.9333
11.4575 16.2986 -1.4608 0.9232
-9.2365 15.2053 -1.3045 0.9311
-10.0314 13.6147 -1.2400 0.9344
-11.3057 12.7836 -1.2513 0.9338
-15.1784 9.9293 -1.3299 0.9298
-17.4821 9.3287 -1.4529 0.9236
-17.8086 7.5514 -1.4183 0.9254
-17.9657 5.7932 -1.3841 0.9271
10.7015 -12.6578 -1.2153 0.9357
12.0353 15.5945 -1.4443 0.9240
-9.1224 16.6463 -1.3918 0.9267
-9.3680 13.9780 -1.2338 0.9347
-11.7264 12.1250 -1.2368 0.9346
-13.2849 11.4879 -1.2878 0.9320
-15.9356 9.4387 -1.3580 0.9284
-5.6236 -16.7968 -1.7006 0.9313
17.7860 -0.3963 -1.7080 0.9310
-8.5748 17.4493 -1.8666 0.9248
-8.8602 14.5859 -1.6384 0.9337
-10.8341 12.2504 -1.5701 0.9364
-11.8474 11.2052 -1.5655 0.9366
-14.5170 9.4966 -1.6654 0.9327
-16.6836 8.9027 -1.8155 0.9268
10.4649 -14.8866 -1.7470 0.9295
10.4829 -12.3992 -1.5588 0.9368
10.5246 -8.6988 -1.3109 0.9466
17.6476 -1.1813 -1.6981 0.9314
-10.5039 13.0009 -1.6046 0.9350
-14.3011 10.2933 -1.6916 0.9316
-17.5830 8.3986 -1.8707 0.9247
-5.6582 -10.3248 -1.3985 0.9537
-5.6236 -16.7968 -2.1041 0.9311
-4.5569 -19.1217 -2.3350 0.9239
7.4713 -18.1804 -2.3348 0.9239
10.4720 -11.3222 -1.8320 0.9398
10.4906 -7.9114 -1.5608 0.9484
10.5356 -3.1400 -1.3059 0.9567
19.7290 -2.2070 -2.3581 0.9231
19.8077 1.3260 -2.3581 0.9231
19.6111 3.0837 -2.3581 0.9231
19.2587 4.8169 -2.3581 0.9231
18.0996 8.1553 -2.3581 0.9231
17.3019 9.7339 -2.3581 0.9231
15.3019 12.6473 -2.3581 0.9231
14.1155 13.9591 -2.3581 0.9231
12.8170 15.1600 -2.3581 0.9231
11.4168 16.2406 -2.3581 0.9231
8.2738 17.8296 -2.3348 0.9239
6.6747 18.5525 -2.3421 0.9237
-1.9676 19.5584 -2.3350 0.9239
-5.4042 18.8997 -2.3350 0.9239
-5.5062 14.2966 -1.8198 0.9402
-9.3314 12.6647 -1.8686 0.9386
-11.4461 10.8256 -1.8714 0.9385
-17.7272 7.5170 -2.2872 0.9254
-17.5600 5.6624 -2.1917 0.9284
-5.8672 -11.9393 -1.5802 0.9478
6.6747 -18.5525 -2.3421 0.9237
7.0192 -15.1260 -1.9808 0.9350
10.4699 -12.3838 -1.9263 0.9368
10.4739 -10.3579 -1.7498 0.9424
17.9331 0.3996 -2.1307 0.9303
19.7290 2.2070 -2.3581 0.9231
18.4449 7.3409 -2.3581 0.9231
17.7183 8.9534 -2.3581 0.9231
15.8501 11.9531 -2.3581 0.9231
13.4796 14.5740 -2.3581 0.9231
12.0353 15.5945 -2.3399 0.9237
9.0599 17.4433 -2.3348 0.9239
-2.8369 19.4514 -2.3350 0.9239
-4.5569 19.1217 -2.3350 0.9239
-8.3550 15.2460 -2.0651 0.9324
-14.6321 8.6666 -2.0201 0.9338
-5.8992 -6.0997 -1.2023 0.9663
-5.6157 -12.8435 -1.9861 0.9449
-3.8203 -16.0307 -2.3350 0.9356
-0.9580 -17.1805 -2.4381 0.9328
0.5750 -17.1976 -2.4381 0.9328
2.1034 -17.0782 -2.4381 0.9328
5.0981 -16.4347 -2.4381 0.9328
6.4630 -15.7268 -2.4091 0.9336
7.5954 -14.6237 -2.3348 0.9356
8.8668 -13.8896 -2.3348 0.9356
10.0679 -13.0453 -2.3348 0.9356
10.4757 -9.4747 -2.0013 0.9445
10.4788 -7.9024 -1.8596 0.9484
16.6389 -0.3708 -2.3581 0.9350
16.4410 2.5852 -2.3581 0.9350
15.7221 5.4593 -2.3581 0.9350
14.5051 8.1604 -2.3581 0.9350
12.8284 10.6029 -2.3581 0.9350
11.8338 11.7027 -2.3581 0.9350
9.4767 13.4808 -2.3348 0.9356
6.9364 14.9475 -2.3348 0.9356
-7.1152 18.4742 -2.8050 0.9231
-7.8357 15.9452 -2.5173 0.9307
-5.4999 9.0541 -1.5010 0.9581
-10.0453 11.3584 -2.1485 0.9406
-12.5402 9.9029 -2.2640 0.9375
-13.6141 8.9059 -2.3051 0.9364
-17.4220 7.3876 -2.6813 0.9264
-5.7600 -9.4822 -1.5720 0.9562
-5.6129 -11.4220 -1.8032 0.9499
-1.6495 -16.3969 -2.3350 0.9356
-0.1917 -17.2062 -2.4381 0.9328
1.3405 -17.1549 -2.4381 0.9328
2.8621 -16.9675 -2.4381 0.9328
6.9364 -14.9475 -2.3348 0.9356
8.2393 -14.2708 -2.3348 0.9356
10.4739 -10.3579 -2.0872 0.9422
10.4802 -7.1943 -1.8011 0.9499
10.4828 -5.8975 -1.7042 0.9526
10.4851 -4.7244 -1.6295 0.9546
10.4913 -3.6430 -1.5736 0.9561
16.6389 0.3708 -2.3581 0.9350
15.4634 6.1543 -2.3581 0.9350
14.1272 8.7985 -2.3581 0.9350
13.2880 10.0209 -2.3581 0.9350
12.3433 11.1639 -2.3581 0.9350
10.0679 13.0453 -2.3348 0.9356
8.8668 13.8896 -2.3348 0.9356
6.4630 15.7267 -2.4091 0.9336
0.5750 17.1976 -2.4381 0.9328
-2.3783 16.3071 -2.3350 0.9356
-11.9345 10.3201 -2.2355 0.9382
-12.9850 9.3460 -2.2668 0.9374
-5.8650 -5.0716 -1.2773 0.9691
-5.6069 -8.3660 -1.6591 0.9600
-5.6106 -10.2380 -1.9233 0.9538
-5.6157 -12.8436 -2.3092 0.9448
-3.2858 -13.7878 -2.3350 0.9442
-0.8239 -14.7767 -2.4381 0.9418
3.1093 -14.4694 -2.4381 0.9418
5.6255 -13.6888 -2.4381 0.9418
6.5326 -12.5776 -2.3348 0.9442
8.6592 -11.2200 -2.3348 0.9442
9.6235 -10.4048 -2.3348 0.9442
10.4815 -6.5280 -2.0342 0.9512
10.4840 -5.2978 -1.9351 0.9535
10.4883 -3.1259 -1.8029 0.9566
14.2256 -1.5914 -2.3581 0.9436
14.3108 -0.3189 -2.3581 0.9436
14.2824 0.9561 -2.3581 0.9436
14.1406 2.2235 -2.3581 0.9436
13.8866 3.4733 -2.3581 0.9436
13.5224 4.6955 -2.3581 0.9436
13.0508 5.8804 -2.3581 0.9436
11.8014 8.1012 -2.3581 0.9436
10.0774 9.9658 -2.3348 0.9442
9.1504 10.8232 -2.3348 0.9442
6.2297 13.4246 -2.4381 0.9418
-2.6683 13.9204 -2.3350 0.9442
-7.8733 12.9612 -2.4983 0.9404
-5.5002 7.4650 -1.5275 0.9631
-12.1352 9.5831 -2.5473 0.9392
-13.0126 8.5125 -2.5616 0.9389
-17.4296 5.6203 -3.0169 0.9284
-5.6483 -5.3421 -1.2807 0.9690
-5.6899 -7.7224 -1.5802 0.9619
-5.6086 -9.2330 -1.7797 0.9572
-5.0942 -13.2268 -2.3350 0.9442
-2.6683 -13.9204 -2.3350 0.9442
-0.1649 -14.7987 -2.4381 0.9418
1.1529 -14.7547 -2.4381 0.9418
2.4616 -14.5935 -2.4381 0.9418
3.7507 -14.3165 -2.4381 0.9418
5.0101 -13.9258 -2.4381 0.9418
6.2297 -13.4246 -2.4381 0.9418
7.0864 -12.2741 -2.3348 0.9442
8.1508 -11.5946 -2.3348 0.9442
10.0774 -9.9658 -2.3348 0.9442
10.4773 -8.6597 -2.2393 0.9464
10.4828 -5.8975 -1.9815 0.9524
10.4872 -3.6416 -1.8289 0.9560
10.4893 -2.6236 -1.7812 0.9571
13.3310 -2.0962 -2.2231 0.9468
14.2824 -0.9561 -2.3581 0.9436
13.7181 4.0884 -2.3581 0.9436
12.7759 6.4559 -2.3581 0.9436
10.6163 9.6019 -2.3581 0.9436
9.6235 10.4048 -2.3348 0.9442
8.6592 11.2200 -2.3348 0.9442
5.6255 13.6888 -2.4381 0.9418
4.3848 14.1352 -2.4381 0.9418
1.8091 14.6887 -2.4381 0.9418
0.4945 14.7914 -2.4381 0.9418
-2.0456 14.0255 -2.3350 0.9442
-7.6977 14.0466 -2.6387 0.9371
-9.4225 11.6624 -2.4700 0.9410
-10.0312 10.3721 -2.3771 0.9432
-15.9517 7.6195 -2.9123 0.9308
-16.9822 6.3242 -2.9853 0.9292
-19.0292 5.2126 -3.2503 0.9231
-5.6069 -8.3660 -1.8930 0.9598
-3.9440 -11.7801 -2.3350 0.9507
-1.7928 -12.2927 -2.3350 0.9507
1.5856 -12.8739 -2.4381 0.9486
2.7251 -12.6817 -2.4381 0.9486
3.8431 -12.3888 -2.4381 0.9486
4.9305 -11.9976 -2.4381 0.9486
5.9788 -11.5112 -2.4381 0.9486
6.6840 -10.4703 -2.3348 0.9507
7.5894 -9.8339 -2.3348 0.9507
8.4345 -9.1193 -2.3348 0.9507
10.4815 -6.5280 -2.3210 0.9510
10.4840 -5.2978 -2.2079 0.9533
10.4862 -4.1734 -2.1214 0.9551
10.4883 -3.1259 -2.0571 0.9564
12.5179 0.8380 -2.3581 0.9502
12.3936 1.9488 -2.3581 0.9502
12.1710 3.0442 -2.3581 0.9502
11.8517 4.1154 -2.3581 0.9502
10.9343 6.1515 -2.3581 0.9502
9.5748 7.9137 -2.3348 0.9507
8.0199 9.4860 -2.3348 0.9507
7.1438 10.1622 -2.3348 0.9507
5.4600 11.7661 -2.4381 0.9486
4.3911 12.2054 -2.4381 0.9486
1.0105 12.9318 -2.4381 0.9486
-1.2984 12.9061 -2.4381 0.9486
-2.3387 12.2006 -2.3350 0.9507
-7.5826 12.4827 -2.7452 0.9423
-8.5220 11.5662 -2.7004 0.9432
-9.4357 10.6691 -2.6771 0.9437
-11.5911 9.1534 -2.7761 0.9417
-12.3101 8.0529 -2.7649 0.9419
-13.9584 7.4485 -2.9738 0.9376
-15.0399 6.3775 -3.0705 0.9357
-16.8980 5.4489 -3.3372 0.9303
-5.6483 -5.3421 -1.4613 0.9689
-5.6028 -6.3352 -1.5896 0.9662
-5.6054 -7.6077 -1.7762 0.9623
-4.4648 -11.5927 -2.3350 0.9507
-3.4153 -11.9441 -2.3350 0.9507
-1.2984 -12.9061 -2.4381 0.9486
-0.1445 -12.9704 -2.4381 0.9486
1.0105 -12.9318 -2.4381 0.9486
2.1575 -12.7905 -2.4381 0.9486
3.2874 -12.5477 -2.4381 0.9486
4.3911 -12.2054 -2.4381 0.9486
6.4630 -11.1942 -2.4296 0.9488
7.1438 -10.1622 -2.3348 0.9507
8.0199 -9.4860 -2.3348 0.9507
8.8324 -8.7345 -2.3348 0.9507
9.5748 -7.9137 -2.3348 0.9507
10.2411 -7.0301 -2.3348 0.9507
10.4851 -4.7244 -2.1616 0.9543
12.5428 0.2795 -2.3581 0.9502
12.4681 1.3948 -2.3581 0.9502
12.2945 2.4990 -2.3581 0.9502
12.0233 3.5833 -2.3581 0.9502
11.1975 5.6583 -2.3581 0.9502
9.2127 8.3324 -2.3348 0.9507
7.5894 9.8338 -2.3348 0.9507
6.6840 10.4703 -2.3348 0.9507
4.9305 11.9976 -2.4381 0.9486
3.8431 12.3888 -2.4381 0.9486
2.7251 12.6817 -2.4381 0.9486
1.5856 12.8739 -2.4381 0.9486
0.4334 12.9640 -2.4381 0.9486
-1.7928 12.2927 -2.3350 0.9507
-3.9440 11.7801 -2.3350 0.9507
-4.9768 11.3823 -2.3350 0.9507
-7.4050 13.5123 -2.8962 0.9392
-11.8393 8.5214 -2.7418 0.9424
-13.1489 7.7881 -2.8725 0.9397
-14.4490 6.9017 -3.0098 0.9369
-15.6585 5.8313 -3.1406 0.9343
-18.7107 5.1254 -3.6464 0.9241
-5.6079 -4.8493 -1.5671 0.9701
-5.6017 -5.7922 -1.7033 0.9676
-5.3087 -9.6872 -2.3350 0.9558
-2.5608 -10.7455 -2.3350 0.9558
-1.5942 -10.9308 -2.3350 0.9558
-0.6421 -11.5162 -2.4381 0.9539
0.3854 -11.5277 -2.4381 0.9539
1.4099 -11.4476 -2.4381 0.9539
3.4173 -11.0163 -2.4381 0.9539
4.3842 -10.6684 -2.4381 0.9539
6.7486 -8.7443 -2.3348 0.9558
7.5001 -8.1090 -2.3348 0.9558
8.1920 -7.4093 -2.3348 0.9558
10.2627 -4.0845 -2.3348 0.9558
10.4902 -2.1322 -2.2628 0.9572
11.1310 0.7451 -2.3581 0.9554
11.0205 1.7329 -2.3581 0.9554
10.8225 2.7069 -2.3581 0.9554
10.4345 3.6233 -2.3348 0.9558
9.1065 6.2513 -2.3348 0.9558
7.8538 7.7668 -2.3348 0.9558
6.4652 9.1968 -2.3763 0.9551
5.7671 9.9888 -2.4381 0.9539
3.9046 10.8531 -2.4381 0.9539
-0.1285 11.5334 -2.4381 0.9539
-2.0796 10.8489 -2.3350 0.9558
-3.0369 10.6208 -2.3350 0.9558
-3.9702 10.3083 -2.3350 0.9558
-7.9464 10.7850 -2.8317 0.9467
-8.9440 10.1132 -2.8538 0.9463
-10.0307 9.4870 -2.9184 0.9451
-12.6369 6.7432 -3.0277 0.9431
-13.4821 5.7169 -3.0955 0.9419
-15.2104 4.9047 -3.3782 0.9367
-5.6008 -5.2972 -1.6295 0.9690
-5.6028 -6.3352 -1.7877 0.9660
-5.6054 -7.6076 -1.9975 0.9621
-5.6086 -9.2330 -2.2835 0.9568
-4.8719 -9.9140 -2.3350 0.9558
-2.0796 -10.8489 -2.3350 0.9558
0.8986 -11.4991 -2.4381 0.9539
2.9232 -11.1576 -2.4381 0.9539
7.8538 -7.7668 -2.3348 0.9558
8.5140 -7.0370 -2.3348 0.9558
9.1065 -6.2513 -2.3348 0.9558
10.0706 -4.5376 -2.3348 0.9558
10.4345 -3.6232 -2.3348 0.9558
11.0205 -1.7329 -2.3581 0.9554
11.0868 1.2402 -2.3581 0.9554
10.6912 3.1863 -2.3581 0.9554
9.3759 5.8394 -2.3348 0.9558
8.8190 6.6507 -2.3348 0.9558
8.1920 7.4093 -2.3348 0.9558
6.7486 8.7444 -2.3348 0.9558
6.2063 9.7220 -2.4381 0.9539
5.3164 10.2358 -2.4381 0.9539
4.3842 10.6684 -2.4381 0.9539
3.4173 11.0163 -2.4381 0.9539
2.4232 11.2767 -2.4381 0.9539
1.4099 11.4476 -2.4381 0.9539
-0.6421 11.5162 -2.4381 0.9539
-1.5942 10.9308 -2.3350 0.9558
-4.4254 10.1212 -2.3350 0.9558
-5.3087 9.6872 -2.3350 0.9558
-8.3469 10.3311 -2.8075 0.9471
-10.3870 8.9820 -2.9027 0.9454
-12.2072 7.2304 -2.9990 0.9436
-13.0660 6.2411 -3.0608 0.9425
-17.1592 4.7004 -3.7607 0.9298
-5.7850 -3.4265 -1.5802 0.9728
-5.5999 -4.8424 -1.7399 0.9700
-5.6017 -5.7922 -1.8938 0.9674
-5.6040 -6.9362 -2.0957 0.9640
-5.5312 -8.2531 -2.3350 0.9600
-4.7747 -8.7126 -2.3350 0.9600
-3.1542 -9.4212 -2.3350 0.9600
-2.3032 -9.6645 -2.3350 0.9600
3.9432 -9.5952 -2.4381 0.9583
4.7815 -9.2061 -2.4381 0.9583
5.5820 -8.7440 -2.4381 0.9583
6.3381 -8.2125 -2.4381 0.9583
6.7456 -7.2932 -2.3348 0.9600
7.3679 -6.6639 -2.3348 0.9600
8.8667 -4.4805 -2.3348 0.9600
9.2303 -3.6736 -2.3348 0.9600
9.5206 -2.8375 -2.3348 0.9600
9.8729 -1.1045 -2.3348 0.9600
9.9320 -0.2213 -2.3348 0.9600
9.9123 0.6636 -2.3348 0.9600
9.0575 4.0811 -2.3348 0.9600
7.6575 6.3291 -2.3348 0.9600
3.5118 9.7613 -2.4381 0.9583
-0.1156 10.3732 -2.4381 0.9583
-2.7314 9.5523 -2.3350 0.9600
-5.5079 5.2093 -1.7817 0.9693
-10.8254 7.0816 -3.0402 0.9482
-13.7263 4.4262 -3.3896 0.9425
-5.9319 -3.1654 -1.5802 0.9728
-5.6267 -3.6808 -1.5802 0.9728
-5.5990 -4.4215 -1.6767 0.9711
-5.6054 -7.6076 -2.2209 0.9619
-5.1580 -8.4913 -2.3350 0.9600
-3.5708 -9.2713 -2.3350 0.9600
-2.7314 -9.5523 -2.3350 0.9600
2.6291 -10.0351 -2.4381 0.9583
3.5118 -9.7613 -2.4381 0.9583
5.9659 -8.4867 -2.4381 0.9583
7.0638 -6.9855 -2.3348 0.9600
8.6583 -4.8711 -2.3348 0.9600
6.7903 -3.0596 -1.7504 0.9699
9.6376 -2.4105 -2.3348 0.9600
9.8139 -1.5432 -2.3348 0.9600
9.9123 -0.6636 -2.3348 0.9600
9.8729 1.1045 -2.3348 0.9600
9.2303 3.6736 -2.3348 0.9600
7.9318 5.9817 -2.3348 0.9600
7.3679 6.6639 -2.3348 0.9600
6.7456 7.2932 -2.3348 0.9600
6.3381 8.2125 -2.4381 0.9583
5.5820 8.7440 -2.4381 0.9583
4.7815 9.2061 -2.4381 0.9583
3.0735 9.9080 -2.4381 0.9583
1.2681 10.2960 -2.4381 0.9583
-0.5775 10.3577 -2.4381 0.9583
-1.4971 10.2652 -2.4381 0.9583
-3.1542 9.4212 -2.3350 0.9600
-3.9802 9.1030 -2.3350 0.9600
-4.7747 8.7127 -2.3350 0.9600
-5.5312 8.2531 -2.3350 0.9600
-7.8666 9.7366 -2.9419 0.9499
-8.8230 9.1229 -2.9828 0.9492
-11.9147 5.6912 -3.1033 0.9472
-13.0251 4.8506 -3.2666 0.9445
-5.5956 -2.6728 -1.6056 0.9747
-5.6017 -5.7922 -2.0863 0.9673
-5.6040 -6.9362 -2.3088 0.9638
-5.0207 -7.4914 -2.3350 0.9634
-3.6129 -8.2629 -2.3350 0.9634
-2.8631 -8.5517 -2.3350 0.9634
-1.3590 -9.3179 -2.4381 0.9618
-0.5242 -9.4018 -2.4381 0.9618
1.9783 -9.2063 -2.4381 0.9618
4.3403 -8.3565 -2.4381 0.9618
5.0668 -7.9370 -2.4381 0.9618
6.3938 -6.9129 -2.4381 0.9618
7.1998 -5.4296 -2.3348 0.9634
7.6545 -4.7673 -2.3348 0.9634
8.0484 -4.0671 -2.3348 0.9634
8.3785 -3.3346 -2.3348 0.9634
8.6420 -2.5756 -2.3348 0.9634
9.0154 -0.2009 -2.3348 0.9634
8.9082 1.4007 -2.3348 0.9634
8.2216 3.7045 -2.3348 0.9634
7.8593 4.4216 -2.3348 0.9634
6.4703 6.3987 -2.3561 0.9631
6.0795 7.1909 -2.4381 0.9618
4.7082 8.1549 -2.4381 0.9618
0.7336 9.3878 -2.4381 0.9618
-0.9425 9.3691 -2.4381 0.9618
-1.6977 8.8570 -2.3350 0.9634
-3.9774 8.0938 -2.3350 0.9634
-5.3495 7.2604 -2.3350 0.9634
-7.6739 8.6770 -2.9992 0.9533
-8.4515 7.9933 -3.0119 0.9531
-10.0332 6.5634 -3.1042 0.9517
-11.5658 4.9043 -3.2527 0.9494
-14.9448 3.3861 -3.9675 0.9386
-5.5019 -1.7742 -1.4968 0.9764
-5.6189 -2.3826 -1.5802 0.9751
-5.5975 -3.6617 -1.7319 0.9727
-5.3495 -7.2604 -2.3350 0.9634
-4.6820 -7.7077 -2.3350 0.9634
-3.9774 -8.0938 -2.3350 0.9634
-3.2412 -8.4157 -2.3350 0.9634
-1.6978 -8.8570 -2.3350 0.9634
-0.9425 -9.3691 -2.4381 0.9618
1.5662 -9.2853 -2.4381 0.9618
2.3865 -9.1090 -2.4381 0.9618
5.4154 -7.7035 -2.4381 0.9618
6.4703 -6.3987 -2.3561 0.9631
7.4345 -5.1035 -2.3348 0.9634
8.5187 -2.9580 -2.3348 0.9634
8.9082 -1.4007 -2.3348 0.9634
8.9975 -0.6023 -2.3348 0.9634
9.0154 0.2009 -2.3348 0.9634
8.6420 2.5756 -2.3348 0.9634
8.3785 3.3346 -2.3348 0.9634
8.0484 4.0671 -2.3348 0.9634
7.1998 5.4296 -2.3348 0.9634
6.3938 6.9129 -2.4381 0.9618
5.7532 7.4546 -2.4381 0.9618
3.5793 8.7096 -2.4381 0.9618
2.7899 8.9937 -2.4381 0.9618
1.9783 9.2063 -2.4381 0.9618
-0.5242 9.4018 -2.4381 0.9618
-2.0906 8.7726 -2.3350 0.9634
-3.6129 8.2629 -2.3350 0.9634
-5.0207 7.4915 -2.3350 0.9634
-7.2632 8.9897 -2.9924 0.9534
-8.8159 7.6234 -3.0176 0.9530
-9.6339 6.9341 -3.0733 0.9521
-10.3868 6.1521 -3.1257 0.9513
-5.5083 2.6311 -1.5806 0.9751
-5.5012 2.0487 -1.5199 0.9760
-19.1942 0.0000 -5.4337 0.9233
-5.5944 -2.0834 -1.6900 0.9755
-5.5982 -4.0294 -1.9526 0.9717
-5.1836 -6.4158 -2.3350 0.9663
-4.5920 -6.8517 -2.3350 0.9663
-3.9639 -7.2332 -2.3350 0.9663
-1.9121 -8.0235 -2.3350 0.9663
-1.2429 -8.5221 -2.4381 0.9648
2.5516 -8.2256 -2.4381 0.9648
6.5850 -4.9660 -2.3348 0.9663
7.0008 -4.3602 -2.3348 0.9663
7.3611 -3.7197 -2.3348 0.9663
8.2292 0.5509 -2.3348 0.9663
8.1475 1.2811 -2.3348 0.9663
8.0011 2.0012 -2.3348 0.9663
7.7912 2.7054 -2.3348 0.9663
7.1881 4.0440 -2.3348 0.9663
6.4656 5.3439 -2.3746 0.9657
5.5603 6.5768 -2.4381 0.9648
4.9529 7.0456 -2.4381 0.9648
3.6252 7.8121 -2.4381 0.9648
2.9155 8.1038 -2.4381 0.9648
2.1827 8.3311 -2.4381 0.9648
0.6709 8.5861 -2.4381 0.9648
-0.0959 8.6118 -2.4381 0.9648
-2.2676 7.9303 -2.3350 0.9663
-3.6377 7.4026 -2.3350 0.9663
-4.2822 7.0495 -2.3350 0.9663
-4.8926 6.6404 -2.3350 0.9663
-7.8247 7.4006 -3.0489 0.9562
-5.5082 3.6033 -1.8633 0.9730
-5.5084 2.3357 -1.6938 0.9754
-5.6915 -1.8353 -1.6929 0.9754
-5.5950 -2.3725 -1.7204 0.9751
-5.5962 -2.9862 -1.7957 0.9740
-5.6008 -5.2972 -2.1824 0.9685
-5.4642 -6.1785 -2.3350 0.9663
-4.8926 -6.6403 -2.3350 0.9663
-3.6378 -7.4026 -2.3350 0.9663
-2.9644 -7.6970 -2.3350 0.9663
-2.2676 -7.9303 -2.3350 0.9663
-0.0959 -8.6118 -2.4381 0.9648
0.6709 -8.5861 -2.4381 0.9648
1.4325 -8.4923 -2.4381 0.9648
2.1827 -8.3311 -2.4381 0.9648
2.9155 -8.1038 -2.4381 0.9648
3.6252 -7.8121 -2.4381 0.9648
4.3062 -7.4585 -2.4381 0.9648
4.9529 -7.0456 -2.4381 0.9648
6.1236 -6.0558 -2.4381 0.9648
6.4656 -5.3440 -2.3746 0.9657
7.1881 -4.0440 -2.3348 0.9663
7.7912 -2.7054 -2.3348 0.9663
8.0011 -2.0012 -2.3348 0.9663
7.6630 3.0498 -2.3348 0.9663
7.3611 3.7197 -2.3348 0.9663
7.0008 4.3602 -2.3348 0.9663
3.2736 7.9659 -2.4381 0.9648
2.5516 8.2256 -2.4381 0.9648
1.0528 8.5477 -2.4381 0.9648
-0.4795 8.5989 -2.4381 0.9648
-1.9121 8.0235 -2.3350 0.9663
-2.6186 7.8214 -2.3350 0.9663
-4.5920 6.8517 -2.3350 0.9663
-7.4329 7.6856 -3.0268 0.9565
-8.2399 7.1253 -3.0838 0.9557
-10.4421 4.9878 -3.2760 0.9530
-5.5214 1.5124 -1.6206 0.9765
-18.8147 -1.6813 -5.8101 0.9240
-5.5944 -2.0834 -1.8362 0.9753
-5.5982 -4.0294 -2.1215 0.9715
-3.6484 -6.6574 -2.3350 0.9687
-1.1440 -7.8437 -2.4381 0.9674
0.2649 -7.9223 -2.4381 0.9674
1.6653 -7.7498 -2.4381 0.9674
2.3485 -7.5708 -2.4381 0.9674
3.0130 -7.3317 -2.4381 0.9674
3.6536 -7.0345 -2.4381 0.9674
4.2652 -6.6813 -2.4381 0.9674
5.3823 -5.8193 -2.4381 0.9674
6.3288 -4.7728 -2.4381 0.9674
6.4730 -4.0314 -2.3455 0.9686
6.7751 -3.4236 -2.3348 0.9687
7.0529 -2.8070 -2.3348 0.9687
7.2748 -2.1681 -2.3348 0.9687
7.4389 -1.5120 -2.3348 0.9687
7.5440 -0.8439 -2.3348 0.9687
7.5741 0.5070 -2.3348 0.9687
7.4989 1.1791 -2.3348 0.9687
7.3642 1.8419 -2.3348 0.9687
7.1710 2.4900 -2.3348 0.9687
6.9209 3.1184 -2.3348 0.9687
6.6159 3.7221 -2.3348 0.9687
6.1099 5.0500 -2.4381 0.9674
3.9633 6.8647 -2.4381 0.9674
3.3366 7.1902 -2.4381 0.9674
2.6834 7.4587 -2.4381 0.9674
1.3184 7.8163 -2.4381 0.9674
0.6175 7.9026 -2.4381 0.9674
-0.7934 7.8869 -2.4381 0.9674
-1.4923 7.7850 -2.4381 0.9674
-2.0871 7.2990 -2.3350 0.9687
-2.7284 7.0843 -2.3350 0.9687
-9.4885 5.0632 -3.3080 0.9560
-5.5014 1.2464 -1.7350 0.9767
-5.5089 -0.7409 -1.7097 0.9770
-5.6915 -1.8353 -1.8393 0.9753
-5.5950 -2.3725 -1.8692 0.9749
-5.5975 -3.6617 -2.0573 0.9724
-5.5990 -4.4215 -2.1944 0.9706
-3.9413 -6.4882 -2.3350 0.9687
-2.7285 -7.0843 -2.3350 0.9687
-2.0871 -7.2990 -2.3350 0.9687
-0.0883 -7.9262 -2.4381 0.9674
0.6175 -7.9026 -2.4381 0.9674
2.0089 -7.6679 -2.4381 0.9674
2.6834 -7.4587 -2.4381 0.9674
3.3366 -7.1903 -2.4381 0.9674
3.9633 -6.8647 -2.4381 0.9674
4.5586 -6.4847 -2.4381 0.9674
5.1177 -6.0532 -2.4381 0.9674
5.6362 -5.5737 -2.4381 0.9674
6.1099 -5.0499 -2.4381 0.9674
6.4630 -4.4366 -2.4112 0.9677
7.5891 0.1691 -2.3348 0.9687
7.4389 1.5120 -2.3348 0.9687
7.0530 2.8070 -2.3348 0.9687
6.3288 4.7728 -2.4381 0.9674
5.8789 5.3171 -2.4381 0.9674
5.3823 5.8193 -2.4381 0.9674
4.8430 6.2752 -2.4381 0.9674
0.9689 7.8672 -2.4381 0.9674
0.2649 7.9223 -2.4381 0.9674
-1.1440 7.8437 -2.4381 0.9674
-2.4102 7.1988 -2.3350 0.9687
-3.0413 6.9557 -2.3350 0.9687
-3.6483 6.6574 -2.3350 0.9687
-4.7709 5.9051 -2.3350 0.9687
-5.2776 5.4570 -2.3350 0.9687
-10.6316 3.9593 -3.4894 0.9536
-11.6376 3.1879 -3.7113 0.9508
-18.7421 1.6748 -5.7876 0.9243
-18.5388 0.0000 -6.1624 0.9248
-5.5944 -2.0834 -1.9844 0.9752
-5.5956 -2.6728 -2.0613 0.9742
-5.5968 -3.3150 -2.1623 0.9730
-5.5982 -4.0294 -2.2928 0.9713
-4.8834 -5.0494 -2.3350 0.9708
-4.4146 -5.4640 -2.3350 0.9708
-3.3759 -6.1602 -2.3350 0.9708
-0.4083 -7.3233 -2.4381 0.9696
0.2451 -7.3306 -2.4381 0.9696
0.8966 -7.2797 -2.4381 0.9696
1.5409 -7.1710 -2.4381 0.9696
2.1731 -7.0054 -2.4381 0.9696
3.9467 -6.1823 -2.4381 0.9696
4.4812 -5.8065 -2.4381 0.9696
4.9803 -5.3846 -2.4381 0.9696
5.4398 -4.9200 -2.4381 0.9696
6.2259 -3.8775 -2.4381 0.9696
6.4630 -3.2659 -2.4070 0.9699
6.5262 -2.5973 -2.3348 0.9708
6.7314 -2.0062 -2.3348 0.9708
7.0084 0.4692 -2.3348 0.9708
6.8141 1.7043 -2.3348 0.9708
5.6535 4.6728 -2.4381 0.9696
4.2181 6.0004 -2.4381 0.9696
2.4830 6.9016 -2.4381 0.9696
1.2200 7.2325 -2.4381 0.9696
0.5714 7.3124 -2.4381 0.9696
-1.3808 7.2035 -2.4381 0.9696
-1.9312 6.7538 -2.3350 0.9708
-2.5247 6.5552 -2.3350 0.9708
-3.0981 6.3044 -2.3350 0.9708
-5.1035 4.8268 -2.3350 0.9708
-8.2834 5.4188 -3.2903 0.9591
-8.9892 4.7968 -3.3869 0.9580
-5.5014 1.2464 -1.8750 0.9765
-15.4767 2.0814 -5.1909 0.9363
-18.7947 -0.8381 -6.2537 0.9238
-5.5950 -2.3725 -2.0201 0.9747
-5.5962 -2.9862 -2.1085 0.9736
-5.5975 -3.6617 -2.2234 0.9722
-5.5128 -4.3535 -2.3350 0.9708
-5.1035 -4.8268 -2.3350 0.9708
-4.6536 -5.2619 -2.3350 0.9708
-3.6469 -6.0037 -2.3350 0.9708
-3.0981 -6.3044 -2.3350 0.9708
-2.5247 -6.5552 -2.3350 0.9708
-1.9312 -6.7538 -2.3350 0.9708
-0.7342 -7.2978 -2.4381 0.9696
-0.0817 -7.3342 -2.4381 0.9696
0.5714 -7.3124 -2.4381 0.9696
1.8589 -7.0952 -2.4381 0.9696
2.4830 -6.9016 -2.4381 0.9696
3.6673 -6.3520 -2.4381 0.9696
4.7355 -5.6011 -2.4381 0.9696
5.2152 -5.1574 -2.4381 0.9696
6.0470 -4.1510 -2.4381 0.9696
6.6354 -2.3041 -2.3348 0.9708
6.8141 -1.7043 -2.3348 0.9708
6.9805 0.7809 -2.3348 0.9708
6.8833 1.3991 -2.3348 0.9708
6.5262 2.5973 -2.3348 0.9708
6.4630 3.2659 -2.4070 0.9699
6.2259 3.8775 -2.4381 0.9696
5.8561 4.4163 -2.4381 0.9696
3.3807 6.5091 -2.4381 0.9696
2.7880 6.7841 -2.4381 0.9696
2.1731 7.0054 -2.4381 0.9696
1.5409 7.1710 -2.4381 0.9696
0.8966 7.2796 -2.4381 0.9696
0.2451 7.3306 -2.4381 0.9696
-0.4083 7.3233 -2.4381 0.9696
-1.0585 7.2579 -2.4381 0.9696
-1.6284 6.8332 -2.3350 0.9708
-2.8142 6.4362 -2.3350 0.9708
-3.9107 5.8352 -2.3350 0.9708
-4.8834 5.0494 -2.3350 0.9708
-8.6372 5.1158 -3.3369 0.9586
-9.3393 4.4610 -3.4404 0.9573
-10.0383 3.7383 -3.5607 0.9559
-10.9668 3.0041 -3.7797 0.9532
-18.5096 1.6540 -6.1772 0.9247
-5.5944 -2.0834 -2.1348 0.9750
-5.2995 -3.8144 -2.3350 0.9726
-3.6351 -5.4240 -2.3350 0.9726
-2.0730 -6.1917 -2.3350 0.9726
-1.5805 -6.6320 -2.4381 0.9715
-0.9839 -6.7464 -2.4381 0.9715
0.8334 -6.7666 -2.4381 0.9715
1.4324 -6.6656 -2.4381 0.9715
2.0199 -6.5117 -2.4381 0.9715
3.6685 -5.7466 -2.4381 0.9715
5.0564 -4.5733 -2.4381 0.9715
5.4434 -4.1051 -2.4381 0.9715
6.3345 -2.5211 -2.4381 0.9715
6.4630 -1.9262 -2.4117 0.9718
6.4692 -1.3149 -2.3607 0.9723
6.4886 -0.7259 -2.3348 0.9726
6.5145 0.4361 -2.3348 0.9726
6.4405 2.2364 -2.4381 0.9715
6.2159 2.8008 -2.4381 0.9715
5.6208 3.8585 -2.4381 0.9715
5.2551 4.3435 -2.4381 0.9715
4.8477 4.7940 -2.4381 0.9715
4.4017 5.2064 -2.4381 0.9715
3.4089 5.9044 -2.4381 0.9715
2.8698 6.1843 -2.4381 0.9715
1.7279 6.5952 -2.4381 0.9715
1.1340 6.7228 -2.4381 0.9715
-0.0760 6.8173 -2.4381 0.9715
-0.6824 6.7835 -2.4381 0.9715
-1.2835 6.6959 -2.4381 0.9715
-3.3899 5.5806 -2.3350 0.9726
-4.3257 4.8911 -2.3350 0.9726
-5.5078 2.9391 -2.2325 0.9738
-9.1799 3.8926 -3.5657 0.9585
-5.5088 0.2456 -1.9719 0.9768
-5.5950 -2.3725 -2.1732 0.9745
-5.5962 -2.9862 -2.2683 0.9734
-4.7438 -4.4867 -2.3350 0.9726
-3.8732 -5.2567 -2.3350 0.9726
-3.3899 -5.5805 -2.3350 0.9726
-2.8798 -5.8601 -2.3350 0.9726
-1.7951 -6.2779 -2.3350 0.9726
-1.2835 -6.6959 -2.4381 0.9715
-0.6824 -6.7835 -2.4381 0.9715
-0.0760 -6.8173 -2.4381 0.9715
1.7279 -6.5952 -2.4381 0.9715
2.3080 -6.4152 -2.4381 0.9715
2.8698 -6.1843 -2.4381 0.9715
3.4089 -5.9044 -2.4381 0.9715
3.9209 -5.5775 -2.4381 0.9715
4.4017 -5.2064 -2.4381 0.9715
5.2551 -4.3435 -2.4381 0.9715
6.4405 -2.2364 -2.4381 0.9715
6.4635 -1.6166 -2.3826 0.9721
6.4736 -1.0179 -2.3434 0.9725
6.5274 0.1455 -2.3348 0.9726
6.4886 0.7259 -2.3348 0.9726
6.3345 2.5211 -2.4381 0.9715
6.0850 3.0749 -2.4381 0.9715
5.7872 3.6043 -2.4381 0.9715
5.4434 4.1051 -2.4381 0.9715
4.6293 5.0052 -2.4381 0.9715
3.6685 5.7466 -2.4381 0.9715
3.1425 6.0504 -2.4381 0.9715
2.5915 6.3060 -2.4381 0.9715
2.0199 6.5117 -2.4381 0.9715
0.2278 6.8139 -2.4381 0.9715
-0.9839 6.7464 -2.4381 0.9715
-3.1380 5.7260 -2.3350 0.9726
-3.6351 5.4240 -2.3350 0.9726
-4.9390 4.2709 -2.3350 0.9726
-8.8577 4.2310 -3.5104 0.9592
-9.5002 3.5379 -3.6253 0.9578
-10.4050 2.8502 -3.8580 0.9552
-18.5173 1.6547 -6.6483 0.9241
-18.0539 0.0000 -6.9186 0.9256
-5.5089 -0.4923 -2.1195 0.9766
-5.5944 -2.0834 -2.2877 0.9748
-5.4981 -2.6262 -2.3350 0.9742
-5.2425 -3.1052 -2.3350 0.9742
-3.3922 -5.0615 -2.3350 0.9742
-0.3542 -6.3523 -2.4381 0.9731
0.2126 -6.3586 -2.4381 0.9731
1.3366 -6.2201 -2.4381 0.9731
2.4183 -5.8846 -2.4381 0.9731
4.3199 -4.6707 -2.4381 0.9731
4.7185 -4.2676 -2.4381 0.9731
5.4004 -3.3634 -2.4381 0.9731
5.6783 -2.8694 -2.4381 0.9731
5.9112 -2.3526 -2.4381 0.9731
6.2346 -1.2672 -2.4381 0.9731
6.3606 -0.1417 -2.4381 0.9731
5.8005 2.6136 -2.4381 0.9731
5.5449 3.1195 -2.4381 0.9731
4.9039 4.0532 -2.4381 0.9731
4.5237 4.4736 -2.4381 0.9731
4.1076 4.8585 -2.4381 0.9731
2.1538 5.9865 -2.4381 0.9731
1.0582 6.2735 -2.4381 0.9731
0.4956 6.3428 -2.4381 0.9731
-0.0709 6.3617 -2.4381 0.9731
-0.6368 6.3302 -2.4381 0.9731
-2.1899 5.6860 -2.3350 0.9742
-2.6873 5.4685 -2.3350 0.9742
-3.1634 5.2076 -2.3350 0.9742
-4.0366 4.5642 -2.3350 0.9742
-5.0990 3.3356 -2.3350 0.9742
-5.3756 2.8685 -2.3350 0.9742
-8.7160 3.6959 -3.6280 0.9603
-5.5081 1.7761 -2.2178 0.9755
-5.5014 1.2464 -2.1617 0.9761
-11.6127 1.5618 -4.4903 0.9510
-18.3960 0.8203 -7.0567 0.9242
-5.5087 -1.7764 -2.2181 0.9755
-5.3756 -2.8685 -2.3350 0.9742
-4.0366 -4.5642 -2.3350 0.9742
-3.6143 -4.9054 -2.3350 0.9742
-1.1977 -6.2484 -2.4381 0.9731
-0.6368 -6.3302 -2.4381 0.9731
-0.0709 -6.3617 -2.4381 0.9731
1.6124 -6.1544 -2.4381 0.9731
2.6780 -5.7710 -2.4381 0.9731
5.2452 -3.6006 -2.4381 0.9731
5.5449 -3.1195 -2.4381 0.9731
6.0101 -2.0869 -2.4381 0.9731
6.1720 -1.5437 -2.4381 0.9731
6.2849 -0.9882 -2.4381 0.9731
6.3606 0.1418 -2.4381 0.9731
5.9112 2.3526 -2.4381 0.9731
5.6783 2.8694 -2.4381 0.9731
5.4004 3.3634 -2.4381 0.9731
5.0796 3.8307 -2.4381 0.9731
4.7185 4.2676 -2.4381 0.9731
4.3199 4.6706 -2.4381 0.9731
2.9325 5.6460 -2.4381 0.9731
2.4183 5.8846 -2.4381 0.9731
1.8849 6.0765 -2.4381 0.9731
1.3366 6.2201 -2.4381 0.9731
0.2126 6.3586 -2.4381 0.9731
-0.3542 6.3523 -2.4381 0.9731
-0.9182 6.2955 -2.4381 0.9731
-1.4749 6.1888 -2.4381 0.9731
-1.9344 5.7779 -2.3350 0.9742
-3.3922 5.0615 -2.3350 0.9742
-3.8292 4.7395 -2.3350 0.9742
-4.2359 4.3799 -2.3350 0.9742
-5.2425 3.1052 -2.3350 0.9742
-5.4981 2.6262 -2.3350 0.9742
-9.0395 3.3663 -3.6965 0.9595
-9.8983 2.7114 -3.9329 0.9570
-1.6390 -0.1465 -0.6735 0.9929
-1.6200 -0.2919 -0.6737 0.9929
-1.6035 -0.4392 -0.6804 0.9928
-4.9088 -2.9075 -2.3350 0.9756
-3.5855 -4.4378 -2.3350 0.9756
-2.7418 -5.0032 -2.3350 0.9756
-1.8113 -5.4100 -2.3350 0.9756
-1.3810 -5.7948 -2.4381 0.9746
0.7282 -5.9124 -2.4381 0.9746
1.2515 -5.8241 -2.4381 0.9746
2.7458 -5.2865 -2.4381 0.9746
3.2054 -5.0212 -2.4381 0.9746
4.0449 -4.3733 -2.4381 0.9746
4.4181 -3.9959 -2.4381 0.9746
5.0566 -3.1493 -2.4381 0.9746
5.5348 -2.2028 -2.4381 0.9746
5.7791 1.4454 -2.4381 0.9746
5.6275 1.9541 -2.4381 0.9746
5.4312 2.4472 -2.4381 0.9746
4.2357 4.1887 -2.4381 0.9746
3.4259 4.8734 -2.4381 0.9746
2.9785 5.1590 -2.4381 0.9746
0.4641 5.9390 -2.4381 0.9746
-0.5963 5.9271 -2.4381 0.9746
-1.1215 5.8506 -2.4381 0.9746
-2.0505 5.3240 -2.3350 0.9756
-3.3842 4.5931 -2.3350 0.9756
-3.7796 4.2736 -2.3350 0.9756
-4.1450 3.9203 -2.3350 0.9756
-5.0334 2.6859 -2.3350 0.9756
-5.2525 2.2272 -2.3350 0.9756
-1.5889 0.5124 -0.6833 0.9928
-1.6146 0.3658 -0.6776 0.9929
-17.6819 0.7884 -7.2440 0.9264
-1.6146 -0.3658 -0.6776 0.9929
-4.7744 -3.1233 -2.3350 0.9756
-4.4774 -3.5358 -2.3350 0.9756
-3.7796 -4.2736 -2.3350 0.9756
-2.9620 -4.8761 -2.3350 0.9756
-2.0505 -5.3240 -2.3350 0.9756
-1.5878 -5.5530 -2.3638 0.9753
-1.1215 -5.8506 -2.4381 0.9746
-0.0664 -5.9567 -2.4381 0.9746
0.4641 -5.9390 -2.4381 0.9746
2.0166 -5.6054 -2.4381 0.9746
2.5075 -5.4036 -2.4381 0.9746
2.9785 -5.1590 -2.4381 0.9746
3.8461 -4.5491 -2.4381 0.9746
4.5917 -3.7952 -2.4381 0.9746
4.9113 -3.3714 -2.4381 0.9746
5.7791 -1.4454 -2.4381 0.9746
5.8848 -0.9254 -2.4381 0.9746
5.9201 0.6623 -2.4381 0.9746
4.4181 3.9959 -2.4381 0.9746
4.0449 4.3733 -2.4381 0.9746
3.6396 4.7159 -2.4381 0.9746
3.2054 5.0212 -2.4381 0.9746
2.7458 5.2866 -2.4381 0.9746
1.2515 5.8241 -2.4381 0.9746
0.7282 5.9124 -2.4381 0.9746
-1.3810 5.7948 -2.4381 0.9746
-2.7418 5.0032 -2.3350 0.9756
-3.1762 4.7393 -2.3350 0.9756
-3.9662 4.1010 -2.3350 0.9756
-4.6305 3.3328 -2.3350 0.9756
-4.9088 2.9075 -2.3350 0.9756
-5.3465 1.9911 -2.3350 0.9756
-1.6200 0.2919 -0.6737 0.9929
-1.6390 0.1465 -0.6735 0.9929
-1.5001 -0.4109 -0.6779 0.9932
-5.0209 -1.8698 -2.3350 0.9769
-4.3485 -3.1298 -2.3350 0.9769
-4.0527 -3.5045 -2.3350 0.9769
-3.3671 -4.1675 -2.3350 0.9769
-1.2969 -5.4419 -2.4381 0.9759
0.6838 -5.5523 -2.4381 0.9759
1.1753 -5.4694 -2.4381 0.9759
2.5785 -4.9646 -2.4381 0.9759
3.7985 -4.1070 -2.4381 0.9759
4.7486 -2.9575 -2.4381 0.9759
5.3612 -1.5978 -2.4381 0.9759
5.4822 -1.1143 -2.4381 0.9759
5.5596 -0.6219 -2.4381 0.9759
5.5929 -0.1246 -2.4381 0.9759
5.4271 1.3574 -2.4381 0.9759
5.2847 1.8350 -2.4381 0.9759
5.1004 2.2982 -2.4381 0.9759
4.6122 3.1661 -2.4381 0.9759
3.2173 4.5766 -2.4381 0.9759
2.7971 4.8448 -2.4381 0.9759
1.4178 5.4117 -2.4381 0.9759
0.4358 5.5773 -2.4381 0.9759
-0.0623 5.5939 -2.4381 0.9759
-0.5600 5.5662 -2.4381 0.9759
-1.5380 5.3787 -2.4381 0.9759
-2.7816 4.5791 -2.3350 0.9769
-4.9326 2.0916 -2.3350 0.9769
-1.5029 0.3405 -0.6716 0.9933
-1.5133 0.2035 -0.6654 0.9934
-1.5259 0.0680 -0.6657 0.9934
-1.5259 -0.0680 -0.6657 0.9934
-1.5133 -0.2035 -0.6654 0.9934
-1.5029 -0.3405 -0.6716 0.9933
-4.9326 -2.0916 -2.3350 0.9769
-4.7269 -2.5223 -2.3350 0.9769
-4.2048 -3.3204 -2.3350 0.9769
-3.8925 -3.6815 -2.3350 0.9769
-3.5494 -4.0134 -2.3350 0.9769
-1.5380 -5.3787 -2.4381 0.9759
-0.0623 -5.5939 -2.4381 0.9759
0.4358 -5.5773 -2.4381 0.9759
0.9305 -5.5164 -2.4381 0.9759
1.8938 -5.2640 -2.4381 0.9759
2.3548 -5.0745 -2.4381 0.9759
3.2173 -4.5766 -2.4381 0.9759
3.9777 -3.9337 -2.4381 0.9759
4.3121 -3.5640 -2.4381 0.9759
5.1004 -2.2981 -2.4381 0.9759
5.2847 -1.8351 -2.4381 0.9759
5.5264 -0.8690 -2.4381 0.9759
4.7486 2.9575 -2.4381 0.9759
4.1490 3.7526 -2.4381 0.9759
3.4179 4.4287 -2.4381 0.9759
3.0102 4.7154 -2.4381 0.9759
2.5785 4.9646 -2.4381 0.9759
1.6575 5.3431 -2.4381 0.9759
1.1753 5.4694 -2.4381 0.9759
-0.3114 5.5856 -2.4381 0.9759
-1.2969 5.4419 -2.4381 0.9759
-1.7010 5.0805 -2.3350 0.9769
-3.7247 3.8512 -2.3350 0.9769
-4.0527 3.5045 -2.3350 0.9769
-4.8345 2.3093 -2.3350 0.9769
-1.5001 0.4109 -0.6779 0.9932
-1.5215 0.1360 -0.6657 0.9934
-1.4219 0.0000 -0.6582 0.9938
-1.4172 -0.1266 -0.6586 0.9937
-4.7273 -1.7604 -2.3350 0.9780
-3.8157 -3.2995 -2.3350 0.9780
-3.5069 -3.6261 -2.3350 0.9780
-3.1702 -3.9238 -2.3350 0.9780
-2.4243 -4.4237 -2.3350 0.9780
-2.0209 -4.6219 -2.3350 0.9780
0.1760 -5.2642 -2.4381 0.9771
0.6438 -5.2277 -2.4381 0.9771
4.4709 -2.7845 -2.4381 0.9771
4.7010 -2.3755 -2.4381 0.9771
4.8938 -1.9477 -2.4381 0.9771
5.2554 0.3518 -2.4381 0.9771
5.2032 0.8182 -2.4381 0.9771
5.1097 1.2780 -2.4381 0.9771
4.9757 1.7278 -2.4381 0.9771
4.5905 2.5826 -2.4381 0.9771
3.4006 4.0223 -2.4381 0.9771
3.0291 4.3090 -2.4381 0.9771
2.2171 4.7778 -2.4381 0.9771
1.3349 5.0952 -2.4381 0.9771
0.4103 5.2511 -2.4381 0.9771
-0.9916 5.1730 -2.4381 0.9771
-2.2248 4.5273 -2.3350 0.9780
-2.1827 2.9624 -1.7033 0.9839
-3.6649 3.4662 -2.3350 0.9780
-4.6442 1.9693 -2.3350 0.9780
-1.4099 0.1896 -0.6585 0.9937
-1.4212 -0.0634 -0.6585 0.9937
-1.4099 -0.1896 -0.6585 0.9937
-1.3967 -0.3165 -0.6629 0.9937
-1.3890 -0.4479 -0.6755 0.9936
-4.6442 -1.9693 -2.3350 0.9780
-4.2214 -2.7615 -2.3350 0.9780
-3.9589 -3.1263 -2.3350 0.9780
-3.3418 -3.7787 -2.3350 0.9780
-2.9923 -4.0611 -2.3350 0.9780
-2.6189 -4.3113 -2.3350 0.9780
-2.2248 -4.5273 -2.3350 0.9780
-1.4481 -5.0642 -2.4381 0.9771
-0.9916 -5.1730 -2.4381 0.9771
0.4103 -5.2511 -2.4381 0.9771
0.8761 -5.1938 -2.4381 0.9771
1.7831 -4.9562 -2.4381 0.9771
3.0291 -4.3090 -2.4381 0.9771
3.4006 -4.0223 -2.4381 0.9771
4.0599 -3.3556 -2.4381 0.9771
4.3425 -2.9809 -2.4381 0.9771
4.8022 -2.1637 -2.4381 0.9771
5.1097 -1.2780 -2.4381 0.9771
5.2032 -0.8182 -2.4381 0.9771
5.2658 0.1173 -2.4381 0.9771
5.2345 0.5855 -2.4381 0.9771
5.1616 1.0491 -2.4381 0.9771
5.0477 1.5044 -2.4381 0.9771
4.8938 1.9477 -2.4381 0.9771
4.4709 2.7845 -2.4381 0.9771
4.2054 3.1714 -2.4381 0.9771
3.5764 3.8668 -2.4381 0.9771
3.2181 4.1698 -2.4381 0.9771
2.4278 4.6743 -2.4381 0.9771
1.5605 5.0307 -2.4381 0.9771
1.1066 5.1496 -2.4381 0.9771
-0.2932 5.2590 -2.4381 0.9771
-0.7602 5.2120 -2.4381 0.9771
-2.0209 4.6219 -2.3350 0.9780
-2.4243 4.4237 -2.3350 0.9780
-3.5069 3.6261 -2.3350 0.9780
-4.3402 2.5707 -2.3350 0.9780
-4.5518 2.1742 -2.3350 0.9780
-4.7273 1.7605 -2.3350 0.9780
-1.3993 0.2521 -0.6581 0.9938
-1.3367 0.0000 -0.6557 0.9941
-1.3317 -0.1190 -0.6558 0.9941
-1.3159 -0.2371 -0.6559 0.9941
-1.3061 -0.3578 -0.6642 0.9940
-3.8635 -2.7808 -2.3350 0.9790
-3.3093 -3.4218 -2.3350 0.9790
-1.5780 -4.7132 -2.4381 0.9781
-1.1522 -4.8350 -2.4381 0.9781
0.1661 -4.9676 -2.4381 0.9781
1.0442 -4.8595 -2.4381 0.9781
1.8893 -4.5973 -2.4381 0.9781
2.2910 -4.4109 -2.4381 0.9781
2.6745 -4.1895 -2.4381 0.9781
3.0367 -3.9348 -2.4381 0.9781
3.6863 -3.3341 -2.4381 0.9781
3.9684 -2.9927 -2.4381 0.9781
4.2190 -2.6276 -2.4381 0.9781
4.7633 -1.4196 -2.4381 0.9781
4.8708 -0.9900 -2.4381 0.9781
4.9396 -0.5526 -2.4381 0.9781
4.9100 0.7721 -2.4381 0.9781
4.8218 1.2060 -2.4381 0.9781
4.6954 1.6304 -2.4381 0.9781
4.5316 2.0418 -2.4381 0.9781
4.3319 2.4371 -2.4381 0.9781
3.5341 3.4950 -2.4381 0.9781
2.8584 4.0662 -2.4381 0.9781
1.6826 4.6769 -2.4381 0.9781
1.2597 4.8081 -2.4381 0.9781
0.8267 4.9011 -2.4381 0.9781
-0.0554 4.9701 -2.4381 0.9781
-0.9357 4.8815 -2.4381 0.9781
-1.7109 4.4421 -2.3350 0.9790
-3.1535 3.5658 -2.3350 0.9790
-4.3825 1.8583 -2.3350 0.9790
-1.3089 0.2966 -0.6583 0.9940
-1.3355 0.0596 -0.6558 0.9941
-1.3355 -0.0596 -0.6558 0.9941
-1.3251 -0.1782 -0.6559 0.9941
-1.3089 -0.2966 -0.6583 0.9940
-1.3003 -0.4193 -0.6702 0.9939
-4.3825 -1.8583 -2.3350 0.9790
-4.1997 -2.2410 -2.3350 0.9790
-3.9836 -2.6059 -2.3350 0.9790
-3.7358 -2.9501 -2.3350 0.9790
-3.4584 -3.2709 -2.3350 0.9790
-3.1535 -3.5658 -2.3350 0.9790
-2.8237 -3.8323 -2.3350 0.9790
-2.0994 -4.2722 -2.3350 0.9790
-1.7109 -4.4421 -2.3350 0.9790
-1.3665 -4.7788 -2.4381 0.9781
-0.9357 -4.8815 -2.4381 0.9781
2.0922 -4.5086 -2.4381 0.9781
2.4852 -4.3045 -2.4381 0.9781
3.5341 -3.4950 -2.4381 0.9781
3.8311 -3.1665 -2.4381 0.9781
4.3319 -2.4371 -2.4381 0.9781
4.5316 -2.0418 -2.4381 0.9781
4.6954 -1.6304 -2.4381 0.9781
4.9100 -0.7721 -2.4381 0.9781
4.9691 0.1107 -2.4381 0.9781
4.9396 0.5526 -2.4381 0.9781
4.7633 1.4196 -2.4381 0.9781
4.6181 1.8379 -2.4381 0.9781
4.4361 2.2417 -2.4381 0.9781
3.9684 2.9927 -2.4381 0.9781
3.6863 3.3340 -2.4381 0.9781
3.3749 3.6489 -2.4381 0.9781
2.6745 4.1895 -2.4381 0.9781
1.8893 4.5973 -2.4381 0.9781
0.1661 4.9676 -2.4381 0.9781
-0.2767 4.9627 -2.4381 0.9781
-0.7173 4.9183 -2.4381 0.9781
-1.1522 4.8350 -2.4381 0.9781
-1.5780 4.7132 -2.4381 0.9781
-1.9070 4.3615 -2.3350 0.9790
-2.2877 4.1745 -2.3350 0.9790
-2.0385 3.0416 -1.7961 0.9838
-3.6007 3.1136 -2.3350 0.9790
-3.8635 2.7808 -2.3350 0.9790
-4.0957 2.4259 -2.3350 0.9790
-1.3061 0.3578 -0.6642 0.9940
-1.3317 0.1190 -0.6558 0.9941
-1.2576 -0.1124 -0.6550 0.9943
-1.2162 -0.4529 -0.6733 0.9942
-4.0614 -1.9400 -2.3350 0.9799
-3.6531 -2.6293 -2.3350 0.9799
-2.0404 -3.0445 -1.9013 0.9836
-1.4920 -4.4565 -2.4381 0.9790
-0.6783 -4.6504 -2.4381 0.9790
0.1570 -4.6970 -2.4381 0.9790
1.3924 -4.4887 -2.4381 0.9790
2.1662 -4.1706 -2.4381 0.9790
2.5288 -3.9613 -2.4381 0.9790
2.8713 -3.7205 -2.4381 0.9790
3.1911 -3.4502 -2.4381 0.9790
3.7523 -2.8297 -2.4381 0.9790
4.1945 -2.1196 -2.4381 0.9790
4.3665 -1.7379 -2.4381 0.9790
4.5039 -1.3423 -2.4381 0.9790
4.6892 0.3139 -2.4381 0.9790
4.6426 0.7300 -2.4381 0.9790
4.5592 1.1403 -2.4381 0.9790
4.2848 1.9306 -2.4381 0.9790
4.0959 2.3043 -2.4381 0.9790
3.0342 3.5889 -2.4381 0.9790
2.3498 4.0700 -2.4381 0.9790
1.9782 4.2630 -2.4381 0.9790
1.5910 4.4221 -2.4381 0.9790
-0.0524 4.6994 -2.4381 0.9790
-0.4704 4.6761 -2.4381 0.9790
-0.8847 4.6156 -2.4381 0.9790
-2.1765 2.9539 -1.9035 0.9836
-3.2700 3.0928 -2.3350 0.9799
-4.1438 1.7571 -2.3350 0.9799
-1.2222 0.3941 -0.6662 0.9942
-1.2514 0.1683 -0.6551 0.9943
-1.2514 -0.1683 -0.6551 0.9943
-1.2316 -0.2790 -0.6551 0.9943
-1.2222 -0.3941 -0.6662 0.9942
-3.9709 -2.1189 -2.3350 0.9799
-3.5323 -2.7895 -2.3350 0.9799
-3.2700 -3.0928 -2.3350 0.9799
-2.9818 -3.3716 -2.3350 0.9799
-2.6699 -3.6236 -2.3350 0.9799
-2.3368 -3.8468 -2.3350 0.9799
-1.9851 -4.0396 -2.3350 0.9799
-1.2920 -4.5186 -2.4381 0.9790
-0.4704 -4.6761 -2.4381 0.9790
-0.0524 -4.6994 -2.4381 0.9790
0.3661 -4.6854 -2.4381 0.9790
1.9782 -4.2630 -2.4381 0.9790
2.3498 -4.0700 -2.4381 0.9790
2.7028 -3.8447 -2.4381 0.9790
3.0342 -3.5889 -2.4381 0.9790
3.3416 -3.3046 -2.4381 0.9790
4.0959 -2.3044 -2.4381 0.9790
4.2848 -1.9306 -2.4381 0.9790
4.4396 -1.5416 -2.4381 0.9790
4.5592 -1.1403 -2.4381 0.9790
4.6426 -0.7300 -2.4381 0.9790
4.6892 -0.3139 -2.4381 0.9790
4.6705 0.5225 -2.4381 0.9790
4.1945 2.1196 -2.4381 0.9790
3.1911 3.4502 -2.4381 0.9790
2.5288 3.9613 -2.4381 0.9790
2.1662 4.1707 -2.4381 0.9790
1.7864 4.3469 -2.4381 0.9790
1.3924 4.4887 -2.4381 0.9790
0.9874 4.5947 -2.4381 0.9790
-0.2616 4.6924 -2.4381 0.9790
-0.6782 4.6504 -2.4381 0.9790
-1.0895 4.5716 -2.4381 0.9790
-3.8726 2.2938 -2.3350 0.9799
-4.0614 1.9400 -2.3350 0.9799
-1.2162 0.4529 -0.6733 0.9942
-1.2283 0.3365 -0.6607 0.9943
-1.1756 -0.2118 -0.6543 0.9946
-3.4602 -2.4905 -2.3350 0.9807
-1.7079 -3.9062 -2.3350 0.9807
-1.4133 -4.2212 -2.4381 0.9799
-1.0319 -4.3302 -2.4381 0.9799
-0.2478 -4.4446 -2.4381 0.9799
1.6920 -4.1173 -2.4381 0.9799
2.7197 -3.5240 -2.4381 0.9799
3.3014 -2.9860 -2.4381 0.9799
4.1359 -1.6461 -2.4381 0.9799
4.4504 -0.0992 -2.4381 0.9799
4.3974 0.6915 -2.4381 0.9799
4.3184 1.0801 -2.4381 0.9799
4.2052 1.4602 -2.4381 0.9799
3.8796 2.1827 -2.4381 0.9799
3.4312 2.8359 -2.4381 0.9799
3.1651 3.1301 -2.4381 0.9799
2.5600 3.6417 -2.4381 0.9799
1.5069 4.1886 -2.4381 0.9799
-0.4456 4.4291 -2.4381 0.9799
-1.5829 4.1100 -2.4123 0.9801
-1.8803 3.8262 -2.3350 0.9807
-2.2133 3.6437 -2.3350 0.9807
-3.0973 2.9295 -2.3350 0.9807
-3.5677 2.3339 -2.3350 0.9807
-1.1411 0.4838 -0.6788 0.9944
-1.1933 -0.0532 -0.6542 0.9946
-1.1515 -0.3713 -0.6626 0.9945
-3.5677 -2.3339 -2.3350 0.9807
-3.3458 -2.6421 -2.3350 0.9807
-2.5289 -3.4322 -2.3350 0.9807
-1.5829 -4.1100 -2.4123 0.9801
-0.8380 -4.3719 -2.4381 0.9799
-0.4456 -4.4291 -2.4381 0.9799
-0.0496 -4.4512 -2.4381 0.9799
0.3468 -4.4379 -2.4381 0.9799
0.7404 -4.3895 -2.4381 0.9799
1.1282 -4.3061 -2.4381 0.9799
2.2257 -3.8551 -2.4381 0.9799
2.5600 -3.6417 -2.4381 0.9799
2.8740 -3.3994 -2.4381 0.9799
3.1651 -3.1301 -2.4381 0.9799
3.6700 -2.5193 -2.4381 0.9799
4.4415 -0.2973 -2.4381 0.9799
4.4239 0.4949 -2.4381 0.9799
4.3623 0.8867 -2.4381 0.9799
4.2660 1.2714 -2.4381 0.9799
3.7786 2.3533 -2.4381 0.9799
3.5541 2.6803 -2.4381 0.9799
3.3014 2.9860 -2.4381 0.9799
3.0226 3.2680 -2.4381 0.9799
2.7197 3.5240 -2.4381 0.9799
2.3953 3.7521 -2.4381 0.9799
2.0518 3.9504 -2.4381 0.9799
1.6920 4.1174 -2.4381 0.9799
0.9352 4.3521 -2.4381 0.9799
0.1487 4.4490 -2.4381 0.9799
-0.6424 4.4049 -2.4381 0.9799
-1.0319 4.3302 -2.4381 0.9799
-3.2248 2.7886 -2.3350 0.9807
-3.4602 2.4905 -2.3350 0.9807
-3.6681 2.1726 -2.3350 0.9807
-3.8469 1.8375 -2.3350 0.9807
-1.1464 0.4269 -0.6700 0.9944
-1.1577 0.3171 -0.6575 0.9945
-1.1899 0.1063 -0.6543 0.9946
-1.1141 -0.2007 -0.6536 0.9948
-3.4797 -2.0611 -2.3350 0.9815
-3.2825 -2.3626 -2.3350 0.9815
-3.0592 -2.6454 -2.3350 0.9815
-2.8116 -2.9072 -2.3350 0.9815
-2.5417 -3.1459 -2.3350 0.9815
-2.0404 -3.0445 -2.1160 0.9832
-1.9436 -3.5467 -2.3350 0.9815
-1.6202 -3.7056 -2.3350 0.9815
-0.9790 -4.1079 -2.4381 0.9807
0.5162 -4.1912 -2.4381 0.9807
0.8872 -4.1286 -2.4381 0.9807
1.2511 -4.0333 -2.4381 0.9807
1.9464 -3.7476 -2.4381 0.9807
2.2723 -3.5594 -2.4381 0.9807
2.5800 -3.3431 -2.4381 0.9807
2.8674 -3.1002 -2.4381 0.9807
3.1319 -2.8327 -2.4381 0.9807
3.5845 -2.2325 -2.4381 0.9807
4.0470 -1.2061 -2.4381 0.9807
4.1383 -0.8411 -2.4381 0.9807
4.2218 -0.0941 -2.4381 0.9807
4.2135 0.2821 -2.4381 0.9807
4.0967 1.0246 -2.4381 0.9807
3.9892 1.3852 -2.4381 0.9807
3.8501 1.7348 -2.4381 0.9807
3.6804 2.0706 -2.4381 0.9807
2.7264 3.2248 -2.4381 0.9807
2.4286 3.4547 -2.4381 0.9807
2.1114 3.6571 -2.4381 0.9807
1.7776 3.8305 -2.4381 0.9807
0.7024 4.1641 -2.4381 0.9807
-0.0470 4.2226 -2.4381 0.9807
-0.4227 4.2017 -2.4381 0.9807
-0.7950 4.1474 -2.4381 0.9807
-1.1610 4.0602 -2.4381 0.9807
-1.5177 3.9407 -2.4381 0.9807
-2.6793 3.0295 -2.3350 0.9815
-2.9383 2.7790 -2.3350 0.9815
-3.1740 2.5065 -2.3350 0.9815
-3.5681 1.9040 -2.3350 0.9815
-1.0769 0.4566 -0.6753 0.9946
-1.1039 0.2501 -0.6535 0.9948
-1.1309 0.0504 -0.6536 0.9948
-1.1309 -0.0504 -0.6536 0.9948
-1.1039 -0.2501 -0.6535 0.9948
-3.5681 -1.9040 -2.3350 0.9815
-3.1740 -2.5065 -2.3350 0.9815
-2.6793 -3.0295 -2.3350 0.9815
-2.3990 -3.2560 -2.3350 0.9815
-2.0997 -3.4566 -2.3350 0.9815
-1.5177 -3.9407 -2.4381 0.9807
-0.7950 -4.1474 -2.4381 0.9807
-0.4227 -4.2017 -2.4381 0.9807
1.0702 -4.0850 -2.4381 0.9807
2.4286 -3.4547 -2.4381 0.9807
2.7264 -3.2248 -2.4381 0.9807
3.2550 -2.6903 -2.4381 0.9807
3.4815 -2.3899 -2.4381 0.9807
4.2218 0.0941 -2.4381 0.9807
4.1967 0.4695 -2.4381 0.9807
4.1383 0.8411 -2.4381 0.9807
3.3716 2.5426 -2.4381 0.9807
3.1319 2.8327 -2.4381 0.9807
2.8674 3.1002 -2.4381 0.9807
2.5801 3.3431 -2.4381 0.9807
2.2723 3.5594 -2.4381 0.9807
1.6052 3.9059 -2.4381 0.9807
1.2511 4.0333 -2.4381 0.9807
0.5162 4.1912 -2.4381 0.9807
0.1411 4.2205 -2.4381 0.9807
-0.2351 4.2163 -2.4381 0.9807
-1.3407 4.0044 -2.4381 0.9807
-1.9436 3.5467 -2.3350 0.9815
-2.5417 3.1459 -2.3350 0.9815
-3.0592 2.6454 -2.3350 0.9815
-3.2825 2.3626 -2.3350 0.9815
-3.4797 2.0611 -2.3350 0.9815
-3.6494 1.7432 -2.3350 0.9815
-1.0827 0.4032 -0.6671 0.9947
-1.0934 0.2995 -0.6545 0.9948
-1.1141 0.2007 -0.6536 0.9948
-1.1276 0.1008 -0.6536 0.9948
