ply
format ascii 1.0
element vertex 1423
property float32 x
property float32 y
property float32 z
property float32 I
end_header
7.0664 -15.2277 2.9601 0.9341
12.0285 15.5858 3.0160 0.9234
12.0285 15.5858 2.5637 0.9237
7.0653 -15.2253 1.8024 0.9347
7.0649 -15.2245 1.4208 0.9348
11.9964 15.5442 1.6622 0.9242
7.0644 -15.2234 1.0407 0.9350
11.4575 16.2986 0.7856 0.9233
7.0637 -15.2218 0.6617 0.9350
17.9263 0.3995 0.7070 0.9307
12.0353 15.5945 0.7767 0.9242
17.7860 -0.3963 0.3005 0.9313
-18.7749 6.0541 0.3332 0.9241
7.0629 -15.2202 0.2834 0.9351
17.9263 0.3995 0.3029 0.9308
12.0353 15.5945 0.3327 0.9242
17.7860 -0.3963 -0.1002 0.9313
17.6476 -1.1814 -0.0996 0.9317
17.9263 0.3995 -0.1010 0.9308
12.0353 15.5945 -0.1109 0.9242
12.8979 15.2557 -0.5625 0.9232
-18.3635 5.9214 -0.5433 0.9257
7.0614 -15.2170 -0.4724 0.9351
17.9263 0.3995 -0.5049 0.9308
12.0353 15.5945 -0.5547 0.9242
-18.1060 5.8384 -0.9648 0.9266
7.0607 -15.2154 -0.8507 0.9350
17.6476 -1.1814 -0.8970 0.9316
17.9263 0.3995 -0.9093 0.9307
12.0353 15.5945 -0.9990 0.9241
10.5999 -13.7347 -1.2721 0.9328
17.7860 -0.3964 -1.3044 0.9311
11.4575 16.2986 -1.4608 0.9232
-9.3043 15.3169 -1.3140 0.9306
-10.2813 13.9539 -1.2709 0.9328
-12.6458 11.9603 -1.2762 0.9326
-15.3083 10.0142 -1.3413 0.9293
-17.8355 7.5629 -1.4205 0.9252
7.0599 -15.2138 -1.2298 0.9349
17.6476 -1.1814 -1.2969 0.9315
17.9263 0.3995 -1.3147 0.9306
-9.1900 16.7696 -1.4021 0.9262
-10.9842 13.5954 -1.2815 0.9323
-12.1492 12.5621 -1.2814 0.9323
-16.0537 9.5086 -1.3681 0.9279
-17.6671 8.4388 -1.4356 0.9245
-17.8075 6.6315 -1.3933 0.9266
-5.6236 -16.7968 -1.7006 0.9313
10.4619 -16.3884 -1.8666 0.9248
10.5791 -7.9781 -1.2721 0.9481
-8.6383 17.5785 -1.8804 0.9243
-8.9252 14.6929 -1.6505 0.9333
-10.9191 12.3464 -1.5824 0.9359
-11.9254 11.2789 -1.5759 0.9362
-16.8073 8.9686 -1.8289 0.9263
-18.0176 7.6401 -1.8789 0.9244
-17.8417 5.7532 -1.7998 0.9274
-5.8345 -15.1490 -1.5585 0.9368
10.4649 -14.8866 -1.7470 0.9295
10.6325 -12.5762 -1.5811 0.9360
10.5246 -8.6988 -1.3109 0.9466
17.6476 -1.1813 -1.6981 0.9314
17.9263 0.3995 -1.7214 0.9305
-9.0575 13.5148 -1.5619 0.9367
-10.5758 13.0898 -1.6156 0.9346
-11.1103 11.4879 -1.5343 0.9378
-12.8899 11.1463 -1.6360 0.9338
-14.4235 10.3814 -1.7061 0.9311
-15.3683 9.1027 -1.7148 0.9307
-17.6017 8.4075 -1.8727 0.9246
-5.6582 -10.3248 -1.3985 0.9537
-5.6157 -12.8436 -1.6651 0.9451
10.4619 -16.3884 -2.3096 0.9247
10.4720 -11.3222 -1.8320 0.9398
10.4757 -9.4747 -1.6778 0.9447
10.5356 -3.1400 -1.3059 0.9567
17.7860 -0.3963 -2.1133 0.9308
-9.3918 12.7466 -1.8807 0.9382
-10.4801 11.8500 -1.8791 0.9383
-16.0717 8.5761 -2.1639 0.9292
-17.7752 7.5373 -2.2934 0.9252
7.0206 -15.1289 -1.9812 0.9350
10.4649 -14.8865 -2.1615 0.9293
10.4699 -12.3838 -1.9263 0.9368
10.4739 -10.3579 -1.7498 0.9424
10.4969 -8.6759 -1.6177 0.9466
17.6476 -1.1814 -2.1010 0.9312
17.9287 0.3996 -2.1302 0.9303
-8.4173 15.3597 -2.0805 0.9319
-8.7179 13.0080 -1.8601 0.9389
-10.1950 12.6186 -1.9270 0.9367
-10.7521 11.1176 -1.8372 0.9396
-13.7465 9.8941 -2.0119 0.9341
-14.7398 8.7304 -2.0350 0.9333
-17.6041 8.4087 -2.3174 0.9244
-5.6157 -12.8435 -1.9861 0.9449
-5.3883 -16.0939 -2.4047 0.9337
-2.4494 -16.7943 -2.4047 0.9337
-0.9854 -17.6721 -2.5078 0.9310
0.5914 -17.6897 -2.5078 0.9310
3.7185 -17.3045 -2.5078 0.9310
9.1317 -14.3046 -2.4046 0.9337
10.3686 -13.4351 -2.4046 0.9337
10.4757 -9.4747 -2.0013 0.9445
10.4788 -7.9024 -1.8596 0.9484
10.4815 -6.5280 -1.7496 0.9513
10.4840 -5.2978 -1.6644 0.9537
10.7335 -4.2718 -1.6368 0.9544
17.0971 1.1445 -2.4279 0.9331
15.6227 7.0393 -2.4279 0.9331
13.2079 10.9166 -2.4279 0.9331
5.9918 16.6545 -2.5078 0.9310
4.4857 17.1217 -2.5078 0.9310
2.9440 17.4530 -2.5078 0.9310
1.3789 17.6458 -2.5078 0.9310
-1.6988 16.8868 -2.4047 0.9337
-3.1951 16.6685 -2.4047 0.9337
-4.6660 16.3180 -2.4047 0.9337
-7.8938 16.0633 -2.5360 0.9302
-8.2468 13.5761 -2.2507 0.9378
-12.6186 9.9648 -2.2782 0.9371
-17.4711 7.4084 -2.6888 0.9262
-17.4541 5.6282 -2.5985 0.9286
-5.9140 -9.7358 -1.6140 0.9550
-5.6129 -11.4220 -1.8032 0.9499
-5.6192 -14.5899 -2.2153 0.9388
-3.1951 -16.6685 -2.4047 0.9337
-1.6988 -16.8867 -2.4047 0.9337
2.9440 -17.4530 -2.5078 0.9310
7.1436 -15.3941 -2.4046 0.9337
8.4854 -14.6972 -2.4046 0.9337
9.7599 -13.8836 -2.4046 0.9337
10.4699 -12.3838 -2.2977 0.9366
10.4739 -10.3579 -2.0872 0.9422
10.4773 -8.6597 -1.9260 0.9466
10.6170 -4.7838 -1.6500 0.9540
10.5366 -2.6354 -1.5389 0.9571
13.3337 -2.0966 -1.9125 0.9469
17.0971 -1.1445 -2.4279 0.9331
17.0291 1.9050 -2.4279 0.9331
16.7920 3.4131 -2.4279 0.9331
15.9208 6.3363 -2.4279 0.9331
15.2936 7.7282 -2.4279 0.9331
14.5451 9.0588 -2.4279 0.9331
12.7085 11.4941 -2.4279 0.9331
11.6350 12.5796 -2.4279 0.9331
7.8223 15.0606 -2.4046 0.9337
6.4736 15.7526 -2.4131 0.9335
5.2440 16.9049 -2.5078 0.9310
3.7185 17.3045 -2.5078 0.9310
2.1636 17.5668 -2.5078 0.9310
0.5914 17.6897 -2.5078 0.9310
-0.9854 17.6721 -2.5078 0.9310
-3.9344 16.5096 -2.4047 0.9337
-5.3883 16.0939 -2.4047 0.9337
-7.6804 17.5656 -2.7164 0.9255
-8.4640 12.6291 -2.1541 0.9404
-10.4146 10.7686 -2.1226 0.9413
-13.1034 9.4312 -2.2875 0.9369
-14.1995 8.4104 -2.3384 0.9355
-16.7999 8.0246 -2.6380 0.9275
-17.2447 6.4220 -2.6073 0.9284
-5.8650 -5.0716 -1.2773 0.9691
-5.6493 -5.8413 -1.3387 0.9676
-5.6157 -12.8436 -2.3092 0.9448
-3.3840 -14.1997 -2.4047 0.9425
-2.1067 -14.4445 -2.4047 0.9425
1.8608 -15.1089 -2.5078 0.9402
3.1982 -14.8833 -2.5078 0.9402
4.5102 -14.5396 -2.5078 0.9402
7.8540 -12.3031 -2.4046 0.9425
8.9179 -11.5553 -2.4046 0.9425
9.9110 -10.7156 -2.4046 0.9425
10.4788 -7.9024 -2.1621 0.9482
10.4862 -4.1734 -1.8593 0.9553
10.4902 -2.1322 -1.7635 0.9575
14.7342 -0.3283 -2.4279 0.9420
14.7049 0.9844 -2.4279 0.9420
13.9224 4.8344 -2.4279 0.9420
12.1505 8.3408 -2.4279 0.9420
11.3599 9.3892 -2.4279 0.9420
9.4238 11.1465 -2.4046 0.9425
7.2982 12.6408 -2.4046 0.9425
6.4079 13.8087 -2.5078 0.9402
3.8581 14.7261 -2.5078 0.9402
1.1859 15.1768 -2.5078 0.9402
-1.5238 15.1466 -2.5078 0.9402
-2.7480 14.3363 -2.4047 0.9425
-4.0131 14.0348 -2.4047 0.9425
-7.9330 13.0596 -2.5173 0.9399
-8.8480 12.0086 -2.4573 0.9413
-9.7946 11.0749 -2.4356 0.9418
-12.2153 9.6463 -2.5641 0.9389
-13.1561 8.6063 -2.5899 0.9383
-17.1398 7.2679 -3.0670 0.9273
-17.3934 5.6087 -3.0107 0.9286
-4.0131 -14.0348 -2.4047 0.9425
-2.7480 -14.3363 -2.4047 0.9425
-0.1696 -15.2221 -2.5078 0.9402
1.1859 -15.1768 -2.5078 0.9402
3.8581 -14.7261 -2.5078 0.9402
7.2982 -12.6408 -2.4046 0.9425
9.4238 -11.1465 -2.4046 0.9425
10.4773 -8.6597 -2.2393 0.9464
10.4802 -7.1943 -2.0941 0.9498
10.4828 -5.8975 -1.9815 0.9524
10.4851 -4.7244 -1.8945 0.9544
10.4872 -3.6416 -1.8289 0.9560
10.4893 -2.6236 -1.7812 0.9571
14.7049 -0.9844 -2.4279 0.9420
14.7342 0.3284 -2.4279 0.9420
14.4425 2.9355 -2.4279 0.9420
14.1239 4.2094 -2.4279 0.9420
9.9110 10.7156 -2.4046 0.9425
8.9179 11.5553 -2.4046 0.9425
7.8540 12.3031 -2.4046 0.9425
6.7278 12.9534 -2.4046 0.9425
4.5102 14.5396 -2.5078 0.9402
3.1982 14.8833 -2.5078 0.9402
0.5087 15.2146 -2.5078 0.9402
-2.1067 14.4445 -2.4047 0.9425
-7.7551 14.1513 -2.6584 0.9367
-8.2229 12.2695 -2.4332 0.9419
-10.0956 10.4388 -2.3924 0.9428
-11.6144 10.0433 -2.5295 0.9397
-12.5007 8.9975 -2.5373 0.9395
-16.0703 7.6761 -2.9339 0.9303
-18.9890 5.2016 -3.2435 0.9233
-5.8650 -5.0716 -1.4574 0.9689
-5.6106 -10.2380 -2.1944 0.9536
-5.1255 -11.7223 -2.4047 0.9493
-4.0618 -12.1320 -2.4047 0.9493
1.6309 -13.2423 -2.5078 0.9471
2.8031 -13.0446 -2.5078 0.9471
3.9530 -12.7433 -2.5078 0.9471
6.8837 -10.7831 -2.4046 0.9493
7.8161 -10.1277 -2.4046 0.9493
10.4840 -5.2978 -2.2079 0.9533
10.4862 -4.1734 -2.1214 0.9551
10.4883 -3.1259 -2.0571 0.9564
12.8370 -1.4360 -2.4279 0.9488
12.8882 0.8628 -2.4279 0.9488
12.7602 2.0064 -2.4279 0.9488
12.5310 3.1342 -2.4279 0.9488
11.7768 5.3064 -2.4279 0.9488
9.8608 8.1502 -2.4046 0.9493
8.2595 9.7694 -2.4046 0.9493
5.6163 12.1027 -2.5078 0.9471
4.5168 12.5546 -2.5078 0.9471
3.3814 12.9067 -2.5078 0.9471
2.2192 13.1565 -2.5078 0.9471
1.0394 13.3018 -2.5078 0.9471
-0.1486 13.3415 -2.5078 0.9471
-1.3355 13.2754 -2.5078 0.9471
-2.4085 12.5651 -2.4047 0.9493
-7.6402 12.5775 -2.7661 0.9419
-5.5005 6.2195 -1.5606 0.9668
-10.4776 9.9097 -2.7107 0.9430
-15.3607 6.5135 -3.1361 0.9343
-5.6483 -5.3421 -1.4613 0.9689
-5.6086 -9.2330 -2.0305 0.9570
-4.5982 -11.9390 -2.4047 0.9493
-3.5173 -12.3009 -2.4047 0.9493
-0.1486 -13.3415 -2.5078 0.9471
3.3814 -12.9067 -2.5078 0.9471
4.5168 -12.5546 -2.5078 0.9471
5.6163 -12.1027 -2.5078 0.9471
6.4688 -11.2043 -2.4318 0.9487
8.2595 -9.7694 -2.4046 0.9493
10.4872 -3.6416 -2.0866 0.9558
12.7602 -2.0065 -2.4279 0.9488
12.8882 -0.8628 -2.4279 0.9488
12.9138 0.2878 -2.4279 0.9488
12.6582 2.5729 -2.4279 0.9488
12.0015 4.7764 -2.4279 0.9488
11.5287 5.8257 -2.4279 0.9488
10.9644 6.8287 -2.4279 0.9488
9.4880 8.5814 -2.4046 0.9493
7.8161 10.1277 -2.4046 0.9493
6.8837 10.7831 -2.4046 0.9493
6.1498 11.8405 -2.5078 0.9471
1.6309 13.2423 -2.5078 0.9471
0.4458 13.3349 -2.5078 0.9471
-0.7428 13.3216 -2.5078 0.9471
-4.0618 12.1320 -2.4047 0.9493
-5.1255 11.7223 -2.4047 0.9493
-7.4612 13.6149 -2.9182 0.9388
-5.5214 8.2385 -1.8641 0.9604
-9.0047 11.1453 -2.6932 0.9434
-11.2438 9.7229 -2.7940 0.9413
-11.9472 8.5991 -2.7668 0.9418
-13.2939 7.8740 -2.9042 0.9391
-16.0004 5.9586 -3.2092 0.9329
-18.9289 5.1852 -3.6890 0.9232
-5.6040 -6.9362 -1.8849 0.9642
-5.4673 -9.9766 -2.4047 0.9546
-4.5576 -10.4236 -2.4047 0.9546
-3.6118 -10.7879 -2.4047 0.9546
-2.6373 -11.0665 -2.4047 0.9546
-1.6418 -11.2573 -2.4047 0.9546
1.4502 -11.7752 -2.5078 0.9527
2.4925 -11.5993 -2.5078 0.9527
3.5151 -11.3315 -2.5078 0.9527
4.5097 -10.9736 -2.5078 0.9527
5.4685 -10.5287 -2.5078 0.9527
8.4368 -7.6306 -2.4046 0.9546
9.6561 -6.0139 -2.4046 0.9546
10.4862 -4.1734 -2.3857 0.9549
10.4902 -2.1322 -2.2628 0.9572
11.4147 -1.2770 -2.4279 0.9541
11.4831 -0.2559 -2.4279 0.9541
11.4603 0.7672 -2.4279 0.9541
10.8504 3.7677 -2.4279 0.9541
9.9144 5.5777 -2.4046 0.9546
6.5421 9.3063 -2.4046 0.9546
4.9940 10.7619 -2.5078 0.9527
1.9734 11.6989 -2.5078 0.9527
0.9243 11.8281 -2.5078 0.9527
-0.1322 11.8634 -2.5078 0.9527
-1.1875 11.8046 -2.5078 0.9527
-2.1417 11.1730 -2.4047 0.9546
-7.3660 12.1260 -2.9991 0.9436
-8.0657 10.9469 -2.8742 0.9459
-5.5077 6.2276 -1.7574 0.9666
-5.5006 5.2025 -1.6004 0.9695
-11.8031 7.7212 -2.9814 0.9440
-12.8856 6.8760 -3.0873 0.9420
-13.7517 5.8312 -3.1574 0.9408
-15.5670 5.0197 -3.4574 0.9353
-5.9789 -4.7215 -1.6104 0.9693
-5.6028 -6.3352 -1.7877 0.9660
-5.0174 -10.2102 -2.4047 0.9546
-2.1417 -11.1730 -2.4047 0.9546
0.9243 -11.8281 -2.5078 0.9527
1.9734 -11.6988 -2.5078 0.9527
4.0163 -11.1636 -2.5078 0.9527
5.9321 -10.2746 -2.5078 0.9527
6.5421 -9.3063 -2.4046 0.9546
7.3445 -8.6871 -2.4046 0.9546
8.7683 -7.2472 -2.4046 0.9546
9.3786 -6.4380 -2.4046 0.9546
10.4893 -2.6236 -2.2855 0.9568
11.3465 -1.7842 -2.4279 0.9541
11.4603 -0.7672 -2.4279 0.9541
11.4147 1.2769 -2.4279 0.9541
11.2558 2.2878 -2.4279 0.9541
10.6718 4.2473 -2.4279 0.9541
7.7241 8.3512 -2.4046 0.9546
6.9502 9.0056 -2.4046 0.9546
6.3839 10.0002 -2.5078 0.9527
1.4503 11.7752 -2.5078 0.9527
-0.6605 11.8457 -2.5078 0.9527
-2.6373 11.0665 -2.4047 0.9546
-3.6118 10.7879 -2.4047 0.9546
-4.5576 10.4236 -2.4047 0.9546
-8.4601 10.4712 -2.8456 0.9464
-11.4365 8.2315 -2.9785 0.9440
-12.4460 7.3718 -3.0577 0.9426
-13.3232 6.3639 -3.1210 0.9414
-14.4053 5.3646 -3.2493 0.9391
-17.5926 4.8191 -3.8557 0.9281
-5.6980 -4.1012 -1.6500 0.9716
-5.5999 -4.8424 -1.7399 0.9700
-5.6069 -8.3660 -2.3669 0.9595
-3.2485 -9.7026 -2.4047 0.9588
-2.3720 -9.9532 -2.4047 0.9588
-1.5400 -10.5589 -2.5078 0.9571
-0.5941 -10.6541 -2.5078 0.9571
2.2418 -10.4325 -2.5078 0.9571
3.1614 -10.1915 -2.5078 0.9571
5.7417 -8.9942 -2.5078 0.9571
6.4630 -8.3743 -2.4861 0.9575
6.9471 -7.5111 -2.4046 0.9588
8.6847 -5.4089 -2.4046 0.9588
9.1316 -4.6144 -2.4046 0.9588
9.5061 -3.7833 -2.4046 0.9588
10.1679 -1.1374 -2.4046 0.9588
10.2084 0.6834 -2.4046 0.9588
9.9255 2.4825 -2.4046 0.9588
9.3281 4.2030 -2.4046 0.9588
8.9170 5.0166 -2.4046 0.9588
8.4351 5.7904 -2.4046 0.9588
7.8863 6.5181 -2.4046 0.9588
7.2748 7.1942 -2.4046 0.9588
2.7043 10.3222 -2.5078 0.9571
-0.1189 10.6700 -2.5078 0.9571
-1.0681 10.6170 -2.5078 0.9571
-2.8130 9.8377 -2.4047 0.9588
-3.6774 9.5483 -2.4047 0.9588
-4.5127 9.1831 -2.4047 0.9588
-5.3121 8.7450 -2.4047 0.9588
-10.1354 8.0038 -3.0352 0.9483
-11.0183 7.2078 -3.0944 0.9473
-12.6167 5.3499 -3.2208 0.9452
-17.9265 4.0616 -4.3199 0.9273
-5.8751 -3.8433 -1.6500 0.9716
-5.6008 -5.2972 -1.8118 0.9688
-5.6054 -7.6076 -2.2209 0.9619
-5.3121 -8.7450 -2.4047 0.9588
-4.5127 -9.1831 -2.4047 0.9588
-2.8130 -9.8377 -2.4047 0.9588
-1.9262 -10.0490 -2.4047 0.9588
-0.1189 -10.6699 -2.5078 0.9571
0.8313 -10.6382 -2.5078 0.9571
1.7748 -10.5220 -2.5078 0.9571
3.6123 -10.0406 -2.5078 0.9571
4.4916 -9.6792 -2.5078 0.9571
5.3353 -9.2410 -2.5078 0.9571
6.1366 -8.7295 -2.5078 0.9571
7.2748 -7.1942 -2.4046 0.9588
7.8863 -6.5182 -2.4046 0.9588
8.4351 -5.7904 -2.4046 0.9588
8.9170 -5.0166 -2.4046 0.9588
9.6652 -3.3561 -2.4046 0.9588
9.9255 -2.4825 -2.4046 0.9588
10.2084 -0.6834 -2.4046 0.9588
10.2288 0.2279 -2.4046 0.9588
9.8051 2.9222 -2.4046 0.9588
9.5061 3.7833 -2.4046 0.9588
8.6847 5.4089 -2.4046 0.9588
8.1688 6.1604 -2.4046 0.9588
7.5881 6.8630 -2.4046 0.9588
6.9471 7.5111 -2.4046 0.9588
6.4630 8.3743 -2.4861 0.9575
4.9184 9.4695 -2.5078 0.9571
3.1614 10.1915 -2.5078 0.9571
2.2418 10.4325 -2.5078 0.9571
-1.5400 10.5589 -2.5078 0.9571
-2.3720 9.9532 -2.4047 0.9588
-3.2485 9.7026 -2.4047 0.9588
-4.0991 9.3750 -2.4047 0.9588
-7.9733 9.8687 -2.9818 0.9492
-11.3768 6.7385 -3.1076 0.9471
-12.1492 5.8032 -3.1644 0.9462
-15.4479 4.2316 -3.7644 0.9363
-5.5999 -4.8424 -1.9168 0.9699
-5.6017 -5.7922 -2.0863 0.9673
-2.1531 -9.0347 -2.4047 0.9624
-1.3979 -9.5845 -2.5078 0.9608
-0.5392 -9.6708 -2.5078 0.9608
0.3237 -9.6804 -2.5078 0.9608
1.1840 -9.6132 -2.5078 0.9608
2.8697 -9.2510 -2.5078 0.9608
3.6817 -8.9588 -2.5078 0.9608
4.4644 -8.5956 -2.5078 0.9608
5.2118 -8.1641 -2.5078 0.9608
6.8878 -6.2296 -2.4046 0.9624
7.4149 -5.5919 -2.4046 0.9624
7.8832 -4.9097 -2.4046 0.9624
8.2889 -4.1886 -2.4046 0.9624
8.9002 -2.6526 -2.4046 0.9624
9.1010 -1.8498 -2.4046 0.9624
9.2295 -1.0325 -2.4046 0.9624
9.2663 0.6203 -2.4046 0.9624
9.1743 1.4426 -2.4046 0.9624
9.0095 2.2534 -2.4046 0.9624
8.7732 3.0464 -2.4046 0.9624
8.4672 3.8152 -2.4046 0.9624
8.0941 4.5537 -2.4046 0.9624
7.6566 5.2560 -2.4046 0.9624
7.1585 5.9166 -2.4046 0.9624
6.2535 7.3966 -2.5078 0.9608
4.8429 8.3882 -2.5078 0.9608
3.2789 9.1140 -2.5078 0.9608
0.7546 9.6564 -2.5078 0.9608
-1.7485 9.1216 -2.4047 0.9624
-2.5534 8.9298 -2.4047 0.9624
-3.3381 8.6671 -2.4047 0.9624
-7.8380 8.8625 -3.0633 0.9523
-8.6322 8.1643 -3.0763 0.9521
-9.3919 7.4167 -3.0986 0.9518
-10.2119 6.6803 -3.1596 0.9508
-10.8811 5.8063 -3.1933 0.9503
-12.8818 4.1538 -3.5045 0.9456
-15.2582 3.4571 -4.0508 0.9374
-5.8669 -2.4878 -1.6500 0.9740
-5.6008 -5.2972 -1.9960 0.9686
-4.8219 -7.9379 -2.4047 0.9624
-4.0962 -8.3356 -2.4047 0.9624
-3.3381 -8.6671 -2.4047 0.9624
-1.7485 -9.1216 -2.4047 0.9624
-0.1079 -9.6853 -2.5078 0.9608
0.7546 -9.6564 -2.5078 0.9608
1.6110 -9.5509 -2.5078 0.9608
6.2535 -7.3966 -2.5078 0.9608
7.1584 -5.9166 -2.4046 0.9624
7.6566 -5.2560 -2.4046 0.9624
8.0941 -4.5537 -2.4046 0.9624
6.7821 -3.0559 -1.9260 0.9697
9.1743 -1.4426 -2.4046 0.9624
9.2663 -0.6203 -2.4046 0.9624
9.2848 0.2069 -2.4046 0.9624
8.6288 3.4342 -2.4046 0.9624
8.2889 4.1885 -2.4046 0.9624
3.6817 8.9589 -2.5078 0.9608
2.8697 9.2510 -2.5078 0.9608
1.1840 9.6132 -2.5078 0.9608
0.3237 9.6804 -2.5078 0.9608
-1.3978 9.5845 -2.5078 0.9608
-2.1531 9.0347 -2.4047 0.9624
-2.9487 8.8072 -2.4047 0.9624
-5.1707 7.7152 -2.4047 0.9624
-7.4185 9.1819 -3.0564 0.9524
-9.0044 7.7864 -3.0822 0.9520
-9.8056 7.0576 -3.1281 0.9513
-10.5658 6.2582 -3.1796 0.9505
-12.2785 4.5726 -3.3924 0.9473
-13.5240 3.7046 -3.6306 0.9437
-5.5046 -0.0000 -1.5583 0.9774
-5.5017 -0.4917 -1.5637 0.9773
-5.5018 -0.9912 -1.5826 0.9770
-5.5956 -2.6728 -1.7555 0.9746
-5.5982 -4.0294 -1.9526 0.9717
-5.5999 -4.8424 -2.0958 0.9697
-5.3384 -6.6075 -2.4047 0.9653
-2.6969 -8.0551 -2.4047 0.9653
-0.4932 -8.8450 -2.5078 0.9638
1.0829 -8.7923 -2.5078 0.9638
5.4124 -7.0130 -2.5078 0.9638
6.4630 -5.8454 -2.4670 0.9644
6.7817 -5.1143 -2.4046 0.9653
7.5810 -3.8309 -2.4046 0.9653
7.8919 -3.1409 -2.4046 0.9653
8.3238 -1.6919 -2.4046 0.9653
8.4413 -0.9443 -2.4046 0.9653
8.4919 -0.1892 -2.4046 0.9653
8.4750 0.5673 -2.4046 0.9653
8.3909 1.3194 -2.4046 0.9653
7.0028 4.8071 -2.4046 0.9653
5.7194 6.7650 -2.5078 0.9638
2.9989 8.3357 -2.5078 0.9638
1.4735 8.7353 -2.5078 0.9638
-0.0987 8.8582 -2.5078 0.9638
-3.0530 7.9270 -2.4047 0.9653
-4.4101 7.2600 -2.4047 0.9653
-8.7939 6.9445 -3.1721 0.9545
-9.5079 6.2198 -3.2164 0.9539
-11.0185 4.6722 -3.3881 0.9515
-5.5014 1.2464 -1.5969 0.9768
-5.5016 -0.2454 -1.5590 0.9774
-5.5018 -1.2466 -1.5970 0.9768
-5.5950 -2.3725 -1.7204 0.9751
-5.5962 -2.9862 -1.7957 0.9740
-5.5990 -4.4215 -2.0197 0.9708
-5.6028 -6.3352 -2.3942 0.9655
-4.4101 -7.2601 -2.4047 0.9653
-3.0530 -7.9270 -2.4047 0.9653
-0.0987 -8.8582 -2.5078 0.9638
2.2451 -8.5695 -2.5078 0.9638
2.9989 -8.3357 -2.5078 0.9638
3.7289 -8.0357 -2.5078 0.9638
4.4294 -7.6719 -2.5078 0.9638
5.0946 -7.2472 -2.5078 0.9638
6.2989 -6.2291 -2.5078 0.9638
7.0028 -4.8072 -2.4046 0.9653
8.0240 -2.7862 -2.4046 0.9653
8.2401 -2.0610 -2.4046 0.9653
8.3238 1.6919 -2.4046 0.9653
8.1402 2.4260 -2.4046 0.9653
7.8919 3.1409 -2.4046 0.9653
6.4630 5.8454 -2.4670 0.9644
6.0151 6.5035 -2.5078 0.9638
4.0832 7.8616 -2.5078 0.9638
2.6246 8.4610 -2.5078 0.9638
1.0829 8.7923 -2.5078 0.9638
-1.2785 8.7660 -2.5078 0.9638
-1.9692 8.2632 -2.4047 0.9653
-7.5919 7.8499 -3.0915 0.9556
-9.1501 6.5859 -3.1915 0.9542
-5.5082 3.2625 -1.8123 0.9737
-11.4611 4.2682 -3.4623 0.9504
-5.5015 0.4916 -1.5636 0.9773
-5.5238 -0.0000 -1.6990 0.9771
-5.5968 -3.3150 -2.0008 0.9731
-5.5982 -4.0294 -2.1215 0.9715
-5.5999 -4.8424 -2.2771 0.9695
-4.9135 -6.0815 -2.4047 0.9678
-3.7573 -6.8563 -2.4047 0.9678
-3.1322 -7.1635 -2.4047 0.9678
-1.8124 -7.6054 -2.4047 0.9678
0.2725 -8.1489 -2.5078 0.9665
0.9967 -8.0923 -2.5078 0.9665
2.4157 -7.7874 -2.5078 0.9665
5.5363 -5.9858 -2.5078 0.9665
6.4630 -4.8740 -2.4898 0.9667
6.6360 -4.1329 -2.4046 0.9678
6.9775 -3.5259 -2.4046 0.9678
7.4921 -2.2329 -2.4046 0.9678
7.7229 1.2144 -2.4046 0.9678
6.8135 3.8332 -2.4046 0.9678
6.4731 4.4436 -2.4150 0.9677
6.2847 5.1944 -2.5078 0.9665
4.6890 6.6703 -2.5078 0.9665
4.0767 7.0611 -2.5078 0.9665
3.4321 7.3960 -2.5078 0.9665
0.6352 8.1287 -2.5078 0.9665
-0.0908 8.1530 -2.5078 0.9665
-2.8100 7.2959 -2.4047 0.9678
-3.4482 7.0169 -2.4047 0.9678
-4.0590 6.6821 -2.4047 0.9678
-7.4796 7.0741 -3.1665 0.9578
-8.2591 6.5222 -3.2369 0.9569
-8.9172 5.8334 -3.2775 0.9564
-9.6254 5.1363 -3.3557 0.9554
-10.3889 4.4053 -3.4708 0.9539
-11.1861 3.6071 -3.6151 0.9520
-5.5014 1.2464 -1.7350 0.9767
-18.8735 0.8416 -5.8108 0.9240
-5.6915 -1.8353 -1.8393 0.9753
-5.5962 -2.9862 -1.9510 0.9738
-5.5975 -3.6617 -2.0573 0.9724
-5.5990 -4.4215 -2.1944 0.9706
-5.6008 -5.2972 -2.3711 0.9683
-4.6377 -6.2943 -2.4047 0.9678
-4.0590 -6.6821 -2.4047 0.9678
-3.4482 -7.0168 -2.4047 0.9678
-2.8100 -7.2959 -2.4047 0.9678
-2.1494 -7.5171 -2.4047 0.9678
-0.8161 -8.1125 -2.5078 0.9665
0.6352 -8.1287 -2.5078 0.9665
1.3562 -8.0399 -2.5078 0.9665
3.4321 -7.3960 -2.5078 0.9665
4.6890 -6.6703 -2.5078 0.9665
5.7974 -5.7332 -2.5078 0.9665
6.4731 -4.4436 -2.4150 0.9677
7.5842 -1.8969 -2.4046 0.9678
7.8003 -0.5222 -2.4046 0.9678
7.6611 1.5572 -2.4046 0.9678
6.6360 4.1329 -2.4046 0.9678
6.4630 4.8740 -2.4898 0.9667
4.9815 6.4547 -2.5078 0.9665
4.3873 6.8725 -2.5078 0.9665
3.7582 7.2357 -2.5078 0.9665
3.0992 7.5415 -2.5078 0.9665
2.4157 7.7874 -2.5078 0.9665
0.9967 8.0924 -2.5078 0.9665
-0.4539 8.1409 -2.5078 0.9665
-3.1322 7.1635 -2.4047 0.9678
-4.3527 6.4946 -2.4047 0.9678
-4.9135 6.0815 -2.4047 0.9678
-7.8710 6.8063 -3.2006 0.9574
-8.5948 6.1861 -3.2571 0.9567
-9.2429 5.4746 -3.3042 0.9560
-11.8024 3.2330 -3.7639 0.9501
-14.1604 2.5511 -4.4256 0.9416
-18.5741 0.0000 -6.1742 0.9247
-18.5313 -1.6560 -6.1845 0.9246
-5.5944 -2.0834 -1.9844 0.9752
-5.5968 -3.3150 -2.1623 0.9730
-5.4722 -4.7320 -2.4047 0.9700
-5.0293 -5.2002 -2.4047 0.9700
-2.8982 -6.6285 -2.4047 0.9700
-2.2968 -6.8601 -2.4047 0.9700
-0.4200 -7.5328 -2.5078 0.9687
1.5850 -7.3761 -2.5078 0.9687
2.2353 -7.2058 -2.5078 0.9687
5.1228 -5.5387 -2.5078 0.9687
6.0236 -4.5426 -2.5078 0.9687
6.4040 -3.9885 -2.5078 0.9687
6.4741 -3.2715 -2.4112 0.9699
6.9326 -2.0661 -2.4046 0.9700
7.0889 -1.4409 -2.4046 0.9700
7.2177 0.4832 -2.4046 0.9700
6.5953 2.9717 -2.4046 0.9700
6.4630 3.6360 -2.4650 0.9692
5.8153 4.8065 -2.5078 0.9687
5.3644 5.3050 -2.5078 0.9687
4.8709 5.7614 -2.5078 0.9687
4.3388 6.1721 -2.5078 0.9687
1.9120 7.2982 -2.5078 0.9687
1.2549 7.4394 -2.5078 0.9687
0.5877 7.5216 -2.5078 0.9687
-1.4203 7.4096 -2.5078 0.9687
-1.9889 6.9556 -2.4047 0.9700
-2.6001 6.7510 -2.4047 0.9700
-3.1906 6.4928 -2.4047 0.9700
-4.2913 5.8242 -2.4047 0.9700
-5.2559 4.9710 -2.4047 0.9700
-9.1199 4.8665 -3.4361 0.9574
-9.8245 4.1660 -3.5472 0.9560
-10.5827 3.4125 -3.6961 0.9542
-5.5014 1.2464 -1.8750 0.9765
-15.9016 2.1386 -5.3334 0.9346
-5.5088 0.2456 -1.8330 0.9770
-18.8521 -0.8407 -6.2728 0.9235
-18.8035 -2.5289 -6.3067 0.9231
-5.5990 -4.4215 -2.3715 0.9704
-5.2560 -4.9710 -2.4047 0.9700
-4.7926 -5.4191 -2.4047 0.9700
-0.7552 -7.5066 -2.5078 0.9687
0.5877 -7.5216 -2.5078 0.9687
1.2549 -7.4394 -2.5078 0.9687
4.3388 -6.1721 -2.5078 0.9687
5.8153 -4.8064 -2.5078 0.9687
6.4630 -3.6360 -2.4650 0.9692
6.5953 -2.9717 -2.4046 0.9700
7.0177 -1.7553 -2.4046 0.9700
7.2177 -0.4832 -2.4046 0.9700
7.1891 0.8042 -2.4046 0.9700
6.9326 2.0661 -2.4046 0.9700
6.7212 2.6750 -2.4046 0.9700
5.5954 5.0607 -2.5078 0.9687
5.1228 5.5387 -2.5078 0.9687
4.0596 6.3592 -2.5078 0.9687
3.4775 6.6953 -2.5078 0.9687
2.2353 7.2058 -2.5078 0.9687
1.5850 7.3761 -2.5078 0.9687
0.2521 7.5403 -2.5078 0.9687
-0.4200 7.5328 -2.5078 0.9687
-1.6771 7.0373 -2.4047 0.9700
-2.2968 6.8601 -2.4047 0.9700
-2.8982 6.6285 -2.4047 0.9700
-3.4767 6.3442 -2.4047 0.9700
-4.0276 6.0096 -2.4047 0.9700
-4.5465 5.6272 -2.4047 0.9700
-5.0293 5.2002 -2.4047 0.9700
-5.4722 4.7320 -2.4047 0.9700
-8.0965 5.8275 -3.3160 0.9588
-8.7627 5.1902 -3.3854 0.9580
-12.7852 2.3034 -4.3183 0.9467
-18.5265 1.6555 -6.1829 0.9246
-18.4536 0.0000 -6.5992 0.9246
-5.5944 -2.0834 -2.1348 0.9750
-5.5956 -2.6728 -2.2176 0.9740
-5.0865 -4.3985 -2.4047 0.9718
-4.6749 -4.8337 -2.4047 0.9718
-3.2317 -5.8971 -2.4047 0.9718
-2.6940 -6.1613 -2.4047 0.9718
-2.1349 -6.3767 -2.4047 0.9718
-0.3904 -7.0020 -2.5078 0.9706
0.8572 -6.9602 -2.5078 0.9706
1.4733 -6.8563 -2.5078 0.9706
2.6656 -6.4865 -2.5078 0.9706
5.5991 -4.2225 -2.5078 0.9706
6.4730 -1.9292 -2.4154 0.9717
6.6425 1.0445 -2.4046 0.9718
6.5232 1.6315 -2.4046 0.9718
6.4649 2.2448 -2.4473 0.9713
5.4055 4.4677 -2.5078 0.9706
4.0331 5.7371 -2.5078 0.9706
3.5064 6.0733 -2.5078 0.9706
2.3740 6.5988 -2.5078 0.9706
1.7773 6.7839 -2.5078 0.9706
0.5463 6.9915 -2.5078 0.9706
-0.0781 7.0124 -2.5078 0.9706
-0.7020 6.9776 -2.5078 0.9706
-1.3202 6.8875 -2.5078 0.9706
-2.9658 6.0352 -2.4047 0.9718
-3.4912 5.7473 -2.4047 0.9718
-3.9889 5.4137 -2.4047 0.9718
-4.4549 5.0372 -2.4047 0.9718
-5.2774 4.1675 -2.4047 0.9718
-8.6565 4.6193 -3.5088 0.9592
-9.3134 3.9492 -3.6176 0.9579
-10.0667 3.2461 -3.7825 0.9561
-18.4331 0.8220 -6.5984 0.9246
-18.5311 -0.8264 -6.6335 0.9242
-5.5950 -2.3725 -2.1732 0.9745
-5.2774 -4.1675 -2.4047 0.9718
-4.8855 -4.6207 -2.4047 0.9718
-4.4549 -5.0372 -2.4047 0.9718
-3.9889 -5.4137 -2.4047 0.9718
-2.9658 -6.0352 -2.4047 0.9718
-2.4169 -6.2752 -2.4047 0.9718
0.5463 -6.9915 -2.5078 0.9706
1.1664 -6.9152 -2.5078 0.9706
1.7773 -6.7839 -2.5078 0.9706
2.3740 -6.5988 -2.5078 0.9706
2.9519 -6.3613 -2.5078 0.9706
3.5064 -6.0733 -2.5078 0.9706
4.0331 -5.7371 -2.5078 0.9706
4.9864 -4.9311 -2.5078 0.9706
6.4648 -2.2448 -2.4473 0.9713
6.5232 -1.6315 -2.4046 0.9718
6.7091 -0.4491 -2.4046 0.9718
6.7224 0.1498 -2.4046 0.9718
6.5894 1.3393 -2.4046 0.9718
6.2591 3.1629 -2.5078 0.9706
5.5991 4.2225 -2.5078 0.9706
4.2846 5.5517 -2.5078 0.9706
3.2324 6.2235 -2.5078 0.9706
2.6656 6.4865 -2.5078 0.9706
-2.1349 6.3767 -2.4047 0.9718
-2.6940 6.1613 -2.4047 0.9718
-4.2261 5.2307 -2.4047 0.9718
-4.6749 4.8338 -2.4047 0.9718
-5.4578 3.9283 -2.4047 0.9718
-8.9865 4.2925 -3.5614 0.9586
-10.5395 2.8871 -3.9078 0.9546
-11.7791 2.1221 -4.2801 0.9504
-5.5087 0.4922 -1.9778 0.9768
-5.5944 -2.0834 -2.2877 0.9748
-5.3991 -3.1979 -2.4047 0.9735
-5.0931 -3.6658 -2.4047 0.9735
-4.3624 -4.5107 -2.4047 0.9735
-3.9436 -4.8811 -2.4047 0.9735
-3.4935 -5.2127 -2.4047 0.9735
-2.5140 -5.7496 -2.4047 0.9735
-0.3643 -6.5340 -2.5078 0.9724
0.2187 -6.5405 -2.5078 0.9724
1.3749 -6.3981 -2.5078 0.9724
1.9389 -6.2503 -2.5078 0.9724
2.4875 -6.0530 -2.5078 0.9724
3.0164 -5.8075 -2.5078 0.9724
3.9983 -5.1807 -2.5078 0.9724
4.4435 -4.8043 -2.5078 0.9724
5.2249 -3.9403 -2.5078 0.9724
5.5549 -3.4596 -2.5078 0.9724
6.0803 -2.4199 -2.5078 0.9724
6.2716 -1.8691 -2.5078 0.9724
6.4130 -1.3035 -2.5078 0.9724
6.4630 -0.7230 -2.4922 0.9725
6.4630 -0.1440 -2.4773 0.9727
6.4630 1.0163 -2.5072 0.9724
6.1821 2.1466 -2.5078 0.9724
5.7035 3.2088 -2.5078 0.9724
4.6531 4.6016 -2.5078 0.9724
4.2251 4.9975 -2.5078 0.9724
3.2721 5.6674 -2.5078 0.9724
2.7547 5.9362 -2.5078 0.9724
2.2154 6.1578 -2.5078 0.9724
1.0885 6.4530 -2.5078 0.9724
0.5098 6.5243 -2.5078 0.9724
-0.0729 6.5437 -2.5078 0.9724
-0.6550 6.5113 -2.5078 0.9724
-1.2320 6.4271 -2.5078 0.9724
-1.7252 6.0333 -2.4047 0.9735
-2.2553 5.8559 -2.4047 0.9735
-2.7676 5.6319 -2.4047 0.9735
-3.2579 5.3632 -2.4047 0.9735
-3.7223 5.0520 -2.4047 0.9735
-4.1572 4.7006 -2.4047 0.9735
-5.2513 3.4353 -2.4047 0.9735
-5.5362 2.9542 -2.4047 0.9735
-5.5080 2.3356 -2.2927 0.9747
-9.5915 3.0929 -3.8620 0.9577
-5.6915 -1.8353 -2.2917 0.9747
-5.5362 -2.9542 -2.4047 0.9735
-4.9247 -3.8890 -2.4047 0.9735
-4.5590 -4.3119 -2.4047 0.9735
-4.1572 -4.7006 -2.4047 0.9735
-3.7223 -5.0519 -2.4047 0.9735
-2.7676 -5.6319 -2.4047 0.9735
-1.7252 -6.0333 -2.4047 0.9735
-0.6550 -6.5113 -2.5078 0.9724
-0.0729 -6.5437 -2.5078 0.9724
0.5098 -6.5243 -2.5078 0.9724
1.0885 -6.4530 -2.5078 0.9724
1.6585 -6.3305 -2.5078 0.9724
2.2154 -6.1578 -2.5078 0.9724
2.7547 -5.9361 -2.5078 0.9724
3.2721 -5.6674 -2.5078 0.9724
5.7035 -3.2088 -2.5078 0.9724
6.1821 -2.1466 -2.5078 0.9724
6.3486 -1.5879 -2.5078 0.9724
6.4630 -1.0163 -2.5072 0.9724
6.4630 0.7230 -2.4922 0.9725
6.4130 1.3035 -2.5078 0.9724
6.2716 1.8691 -2.5078 0.9724
5.8408 2.9515 -2.5078 0.9724
5.2249 3.9403 -2.5078 0.9724
4.8535 4.3897 -2.5078 0.9724
3.9983 5.1807 -2.5078 0.9724
3.5213 5.5160 -2.5078 0.9724
1.9389 6.2503 -2.5078 0.9724
1.3749 6.3981 -2.5078 0.9724
-0.3643 6.5340 -2.5078 0.9724
-0.9444 6.4756 -2.5078 0.9724
-1.5171 6.3659 -2.5078 0.9724
-2.5140 5.7496 -2.4047 0.9735
-3.4935 5.2127 -2.4047 0.9735
-3.9436 4.8811 -2.4047 0.9735
-4.3624 4.5107 -2.4047 0.9735
-5.0931 3.6658 -2.4047 0.9735
-5.3991 3.1979 -2.4047 0.9735
-8.5390 4.0787 -3.6264 0.9603
-14.1959 1.2686 -5.4618 0.9408
-17.9723 0.0000 -7.3556 0.9253
-1.6200 -0.2919 -0.6737 0.9929
-5.5062 -2.0505 -2.4047 0.9749
-5.3018 -2.5325 -2.4047 0.9749
-5.0554 -2.9943 -2.4047 0.9749
-4.0847 -4.2236 -2.4047 0.9749
-3.6926 -4.5704 -2.4047 0.9749
-1.8654 -5.5717 -2.4047 0.9749
-1.4205 -5.9606 -2.5078 0.9739
-0.8843 -6.0634 -2.5078 0.9739
-0.3411 -6.1180 -2.5078 0.9739
0.7490 -6.0816 -2.5078 0.9739
1.2873 -5.9908 -2.5078 0.9739
1.8154 -5.8524 -2.5078 0.9739
2.3291 -5.6676 -2.5078 0.9739
3.2971 -5.1648 -2.5078 0.9739
4.1606 -4.4984 -2.5078 0.9739
4.8923 -3.6895 -2.5078 0.9739
5.2012 -3.2394 -2.5078 0.9739
5.4689 -2.7636 -2.5078 0.9739
5.6932 -2.2659 -2.5078 0.9739
5.8723 -1.7501 -2.5078 0.9739
6.0047 -1.2205 -2.5078 0.9739
6.0895 -0.6812 -2.5078 0.9739
6.0531 0.9518 -2.5078 0.9739
5.5866 2.5172 -2.5078 0.9739
5.3404 3.0045 -2.5078 0.9739
4.3569 4.3086 -2.5078 0.9739
3.9561 4.6793 -2.5078 0.9739
3.5239 5.0128 -2.5078 0.9739
3.0638 5.3066 -2.5078 0.9739
2.5793 5.5582 -2.5078 0.9739
2.0743 5.7657 -2.5078 0.9739
1.5529 5.9275 -2.5078 0.9739
0.4774 6.1089 -2.5078 0.9739
-0.0683 6.1271 -2.5078 0.9739
-1.1535 6.0179 -2.5078 0.9739
-1.6153 5.6492 -2.4047 0.9749
-3.4853 4.7303 -2.4047 0.9749
-4.2688 4.0374 -2.4047 0.9749
-4.6112 3.6414 -2.4047 0.9749
-4.9170 3.2166 -2.4047 0.9749
-5.1838 2.7662 -2.4047 0.9749
-1.5889 0.5124 -0.6833 0.9928
-1.6146 0.3658 -0.6776 0.9929
-18.2576 0.8141 -7.4798 0.9241
-1.6146 -0.3658 -0.6776 0.9929
-5.4094 -2.2938 -2.4047 0.9749
-4.6112 -3.6414 -2.4047 0.9749
-3.8925 -4.4013 -2.4047 0.9749
-3.4853 -4.7303 -2.4047 0.9749
-3.0505 -5.0217 -2.4047 0.9749
-2.1117 -5.4830 -2.4047 0.9749
-1.6154 -5.6492 -2.4047 0.9749
-1.1535 -6.0179 -2.5078 0.9739
-0.6133 -6.0967 -2.5078 0.9739
1.5529 -5.9275 -2.5078 0.9739
2.5793 -5.5582 -2.5078 0.9739
4.7231 -3.9037 -2.5078 0.9739
5.3404 -3.0045 -2.5078 0.9739
5.7885 -2.0100 -2.5078 0.9739
5.9444 -1.4868 -2.5078 0.9739
6.0531 -0.9518 -2.5078 0.9739
6.1260 0.1365 -2.5078 0.9739
5.6932 2.2658 -2.5078 0.9739
5.2012 3.2394 -2.5078 0.9739
4.5445 4.1102 -2.5078 0.9739
4.1606 4.4984 -2.5078 0.9739
2.8243 5.4378 -2.5078 0.9739
2.3291 5.6676 -2.5078 0.9739
1.8154 5.8524 -2.5078 0.9739
1.2873 5.9907 -2.5078 0.9739
-0.8843 6.0634 -2.5078 0.9739
-1.4205 5.9606 -2.5078 0.9739
-2.3539 5.3835 -2.4047 0.9749
-2.8237 5.1526 -2.4047 0.9749
-3.2711 4.8809 -2.4047 0.9749
-3.6926 4.5704 -2.4047 0.9749
-4.0847 4.2236 -2.4047 0.9749
-4.7688 3.4324 -2.4047 0.9749
-5.5062 2.0505 -2.4047 0.9749
-1.6035 0.4392 -0.6804 0.9928
-1.6200 0.2919 -0.6737 0.9929
-1.6390 0.1465 -0.6735 0.9929
-1.5001 -0.4109 -0.6779 0.9932
-4.9790 -2.3783 -2.4047 0.9762
-4.7475 -2.8120 -2.4047 0.9762
-4.1737 -3.6092 -2.4047 0.9762
-3.8359 -3.9663 -2.4047 0.9762
-3.4677 -4.2920 -2.4047 0.9762
-1.3340 -5.5976 -2.5078 0.9752
-0.8305 -5.6941 -2.5078 0.9752
0.7034 -5.7112 -2.5078 0.9752
2.1873 -5.3224 -2.5078 0.9752
2.6523 -5.1066 -2.5078 0.9752
3.9072 -4.2245 -2.5078 0.9752
5.3465 -2.1279 -2.5078 0.9752
5.7187 -0.6397 -2.5078 0.9752
5.7529 -0.1282 -2.5078 0.9752
5.7415 0.3844 -2.5078 0.9752
5.4359 1.8876 -2.5078 0.9752
5.0151 2.8215 -2.5078 0.9752
4.4354 3.6660 -2.5078 0.9752
4.0915 4.0462 -2.5078 0.9752
3.3093 4.7075 -2.5078 0.9752
2.8772 4.9834 -2.5078 0.9752
2.4222 5.2197 -2.5078 0.9752
1.9480 5.4146 -2.5078 0.9752
0.9571 5.6742 -2.5078 0.9752
0.4483 5.7369 -2.5078 0.9752
-0.0641 5.7540 -2.5078 0.9752
-1.0833 5.6514 -2.5078 0.9752
-1.9831 5.1491 -2.4047 0.9762
-3.6554 4.1333 -2.4047 0.9762
-4.0088 3.7915 -2.4047 0.9762
-4.3304 3.4196 -2.4047 0.9762
-4.6175 3.0207 -2.4047 0.9762
-1.5029 0.3405 -0.6716 0.9933
-1.5133 0.2035 -0.6654 0.9934
-1.5259 0.0680 -0.6657 0.9934
-1.5133 -0.2035 -0.6654 0.9934
-1.5029 -0.3405 -0.6716 0.9933
-1.4861 -0.4792 -0.6805 0.9932
-4.8681 -2.5977 -2.4047 0.9762
-4.6175 -3.0206 -2.4047 0.9762
-4.3304 -3.4196 -2.4047 0.9762
-2.8647 -4.7159 -2.4047 0.9762
-2.4336 -4.9521 -2.4047 0.9762
-1.9831 -5.1491 -2.4047 0.9762
-1.5820 -5.5326 -2.5078 0.9752
-0.5760 -5.7254 -2.5078 0.9752
0.4483 -5.7369 -2.5078 0.9752
1.4584 -5.5665 -2.5078 0.9752
1.9480 -5.4146 -2.5078 0.9752
2.4222 -5.2197 -2.5078 0.9752
2.8772 -4.9834 -2.5078 0.9752
4.0915 -4.0462 -2.5078 0.9752
5.2464 -2.3639 -2.5078 0.9752
5.7415 -0.3844 -2.5078 0.9752
5.6390 1.1462 -2.5078 0.9752
5.1359 2.5953 -2.5078 0.9752
4.8845 3.0421 -2.5078 0.9752
4.5943 3.4647 -2.5078 0.9752
3.5157 4.5554 -2.5078 0.9752
3.0963 4.8503 -2.5078 0.9752
2.6523 5.1066 -2.5078 0.9752
2.1873 5.3224 -2.5078 0.9752
1.2089 5.6259 -2.5078 0.9752
0.7034 5.7112 -2.5078 0.9752
-0.3204 5.7454 -2.5078 0.9752
-1.3340 5.5976 -2.5078 0.9752
-1.7518 5.2323 -2.4047 0.9762
-2.2105 5.0557 -2.4047 0.9762
-3.0719 4.5836 -2.4047 0.9762
-5.1709 1.9257 -2.4047 0.9762
-1.5001 0.4109 -0.6779 0.9932
-1.5015 0.2705 -0.6649 0.9934
-1.3946 -0.3820 -0.6693 0.9936
-4.4699 -2.6475 -2.4047 0.9774
-4.2165 -3.0349 -2.4047 0.9774
-3.2649 -4.0410 -2.4047 0.9774
-2.8923 -4.3156 -2.4047 0.9774
-2.4967 -4.5559 -2.4047 0.9774
-2.0813 -4.7600 -2.4047 0.9774
-1.6494 -4.9264 -2.4047 0.9774
-1.2560 -5.2703 -2.5078 0.9764
-0.7819 -5.3611 -2.5078 0.9764
1.6052 -5.1746 -2.5078 0.9764
2.4972 -4.8080 -2.5078 0.9764
3.3101 -4.2891 -2.5078 0.9764
3.6787 -3.9774 -2.5078 0.9764
4.0182 -3.6342 -2.5078 0.9764
4.3257 -3.2621 -2.5078 0.9764
4.5989 -2.8642 -2.5078 0.9764
4.8355 -2.4435 -2.5078 0.9764
5.0338 -2.0034 -2.5078 0.9764
5.3093 -1.0792 -2.5078 0.9764
5.4165 -0.1207 -2.5078 0.9764
5.3521 0.8416 -2.5078 0.9764
5.1181 1.7772 -2.5078 0.9764
4.9396 2.2257 -2.5078 0.9764
4.1761 3.4516 -2.5078 0.9764
3.4979 4.1373 -2.5078 0.9764
3.1158 4.4322 -2.5078 0.9764
1.8341 5.0980 -2.5078 0.9764
1.3731 5.2410 -2.5078 0.9764
0.4221 5.4014 -2.5078 0.9764
-0.5423 5.3906 -2.5078 0.9764
-1.4895 5.2091 -2.5078 0.9764
-1.8672 4.8480 -2.4047 0.9774
-2.2913 4.6626 -2.4047 0.9774
-2.2129 3.0034 -1.7269 0.9837
-4.0771 3.2197 -2.4047 0.9774
-4.5834 2.4458 -2.4047 0.9774
-4.7829 2.0281 -2.4047 0.9774
-1.3890 0.4479 -0.6755 0.9936
-1.3967 0.3165 -0.6629 0.9937
-1.4099 0.1896 -0.6585 0.9937
-1.4212 -0.0634 -0.6585 0.9937
-1.4099 -0.1896 -0.6585 0.9937
-1.3967 -0.3165 -0.6629 0.9937
-1.3890 -0.4479 -0.6755 0.9936
-4.3475 -2.8440 -2.4047 0.9774
-3.4417 -3.8916 -2.4047 0.9774
-3.0817 -4.1824 -2.4047 0.9774
-2.6972 -4.4401 -2.4047 0.9774
-2.2913 -4.6626 -2.4047 0.9774
-1.8672 -4.8480 -2.4047 0.9774
-1.4895 -5.2091 -2.5078 0.9764
-0.5423 -5.3906 -2.5078 0.9764
-0.0604 -5.4175 -2.5078 0.9764
0.4221 -5.4014 -2.5078 0.9764
0.9011 -5.3424 -2.5078 0.9764
1.8341 -5.0980 -2.5078 0.9764
2.7089 -4.6920 -2.5078 0.9764
3.1158 -4.4323 -2.5078 0.9764
3.8523 -3.8096 -2.5078 0.9764
4.1761 -3.4516 -2.5078 0.9764
5.1181 -1.7772 -2.5078 0.9764
5.2559 -1.3146 -2.5078 0.9764
5.3521 -0.8416 -2.5078 0.9764
5.4057 -0.3619 -2.5078 0.9764
5.0338 2.0034 -2.5078 0.9764
4.3257 3.2621 -2.5078 0.9764
3.6787 3.9774 -2.5078 0.9764
3.3101 4.2891 -2.5078 0.9764
2.9153 4.5667 -2.5078 0.9764
2.4972 4.8080 -2.5078 0.9764
1.6052 5.1746 -2.5078 0.9764
0.6623 5.3772 -2.5078 0.9764
0.1810 5.4148 -2.5078 0.9764
-1.2560 5.2703 -2.5078 0.9764
-1.6494 4.9264 -2.4047 0.9774
-2.0813 4.7600 -2.4047 0.9774
-2.0770 3.0990 -1.7269 0.9837
-3.9297 3.3981 -2.4047 0.9774
-4.4699 2.6475 -2.4047 0.9774
-4.6878 2.2392 -2.4047 0.9774
-4.8685 1.8130 -2.4047 0.9774
-1.3367 0.0000 -0.6557 0.9941
-1.3317 -0.1190 -0.6558 0.9941
-1.3061 -0.3578 -0.6642 0.9940
-4.4237 -2.1130 -2.4047 0.9784
-4.2180 -2.4984 -2.4047 0.9784
-3.4081 -3.5240 -2.4047 0.9784
-2.3560 -4.2992 -2.4047 0.9784
-1.9640 -4.4918 -2.4047 0.9784
-1.5845 -4.7326 -2.4481 0.9780
-0.7378 -5.0591 -2.5078 0.9775
1.0741 -4.9985 -2.5078 0.9775
3.1236 -4.0474 -2.5078 0.9775
4.0819 -3.0783 -2.5078 0.9775
4.3397 -2.7028 -2.5078 0.9775
4.5631 -2.3058 -2.5078 0.9775
4.8996 -1.4602 -2.5078 0.9775
5.0101 -1.0184 -2.5078 0.9775
5.0809 -0.5684 -2.5078 0.9775
5.1012 0.3415 -2.5078 0.9775
4.2150 2.8934 -2.5078 0.9775
3.6352 3.5949 -2.5078 0.9775
2.9402 4.1825 -2.5078 0.9775
2.1521 4.6376 -2.5078 0.9775
1.7308 4.8107 -2.5078 0.9775
1.2957 4.9457 -2.5078 0.9775
-0.0570 5.1123 -2.5078 0.9775
-0.9625 5.0212 -2.5078 0.9775
-1.4056 4.9156 -2.5078 0.9775
-1.7725 4.6021 -2.4191 0.9783
-3.2478 3.6723 -2.4047 0.9784
-4.1026 2.6838 -2.4047 0.9784
-4.3252 2.3080 -2.4047 0.9784
-4.5134 1.9138 -2.4047 0.9784
-1.3003 0.4193 -0.6702 0.9939
-1.3251 0.1782 -0.6559 0.9941
-1.3251 -0.1782 -0.6559 0.9941
-1.3089 -0.2966 -0.6583 0.9940
-1.3003 -0.4193 -0.6702 0.9939
-4.5134 -1.9138 -2.4047 0.9784
-4.3252 -2.3080 -2.4047 0.9784
-3.8474 -3.0383 -2.4047 0.9784
-1.7725 -4.6021 -2.4191 0.9783
-0.0570 -5.1123 -2.5078 0.9775
0.8504 -5.0414 -2.5078 0.9775
1.7308 -4.8107 -2.5078 0.9775
2.5563 -4.4276 -2.5078 0.9775
2.9402 -4.1825 -2.5078 0.9775
3.6352 -3.5949 -2.5078 0.9775
4.4558 -2.5068 -2.5078 0.9775
4.6613 -2.1003 -2.5078 0.9775
5.0505 -0.7942 -2.5078 0.9775
4.8996 1.4602 -2.5078 0.9775
4.7502 1.8905 -2.5078 0.9775
4.5631 2.3058 -2.5078 0.9775
3.7918 3.4294 -2.5078 0.9775
3.4715 3.7533 -2.5078 0.9775
3.1236 4.0474 -2.5078 0.9775
2.3565 4.5371 -2.5078 0.9775
1.9433 4.7288 -2.5078 0.9775
1.5147 4.8830 -2.5078 0.9775
1.0741 4.9985 -2.5078 0.9775
0.6250 5.0743 -2.5078 0.9775
0.1708 5.1097 -2.5078 0.9775
-0.2846 5.1046 -2.5078 0.9775
-0.7378 5.0591 -2.5078 0.9775
-1.1852 4.9733 -2.5078 0.9775
-1.9640 4.4918 -2.4047 0.9784
-2.0413 3.0459 -1.7986 0.9838
-1.2931 0.4815 -0.6768 0.9939
-1.3061 0.3578 -0.6642 0.9940
-1.3317 0.1190 -0.6558 0.9941
-1.2624 0.0000 -0.6549 0.9943
-1.2576 -0.1124 -0.6550 0.9943
-1.2283 -0.3365 -0.6607 0.9943
-1.2162 -0.4529 -0.6733 0.9942
-3.7622 -2.7079 -2.4047 0.9793
-3.5063 -3.0320 -2.4047 0.9793
-3.2225 -3.3320 -2.4047 0.9793
-2.9131 -3.6056 -2.4047 0.9793
-2.0470 -3.0543 -1.9075 0.9836
-2.2277 -4.0650 -2.4047 0.9793
-1.5347 -4.5840 -2.5078 0.9785
-0.6977 -4.7835 -2.5078 0.9785
-0.2691 -4.8266 -2.5078 0.9785
1.0156 -4.7262 -2.5078 0.9785
2.2282 -4.2900 -2.5078 0.9785
2.6012 -4.0746 -2.5078 0.9785
2.9535 -3.8270 -2.5078 0.9785
4.1034 -2.5556 -2.5078 0.9785
4.7372 -0.9629 -2.5078 0.9785
4.8041 -0.5374 -2.5078 0.9785
4.8329 -0.1077 -2.5078 0.9785
4.7754 0.7509 -2.5078 0.9785
4.6897 1.1730 -2.5078 0.9785
4.4074 1.9859 -2.5078 0.9785
3.9854 2.7359 -2.5078 0.9785
3.7261 3.0797 -2.5078 0.9785
3.4372 3.3991 -2.5078 0.9785
2.7801 3.9547 -2.5078 0.9785
2.0348 4.3850 -2.5078 0.9785
1.6365 4.5487 -2.5078 0.9785
1.2251 4.6763 -2.5078 0.9785
0.3766 4.8194 -2.5078 0.9785
-0.4839 4.8098 -2.5078 0.9785
-0.9101 4.7477 -2.5078 0.9785
-3.0709 3.4723 -2.4047 0.9793
-3.3677 3.1852 -2.4047 0.9793
-3.6379 2.8728 -2.4047 0.9793
-1.2222 0.3941 -0.6662 0.9942
-1.2316 0.2790 -0.6551 0.9943
-1.2514 -0.1683 -0.6551 0.9943
-1.2222 -0.3941 -0.6662 0.9942
-4.2676 -1.8096 -2.4047 0.9793
-4.0896 -2.1823 -2.4047 0.9793
-3.3677 -3.1852 -2.4047 0.9793
-3.0709 -3.4723 -2.4047 0.9793
-2.4066 -3.9617 -2.4047 0.9793
-2.0444 -4.1602 -2.4047 0.9793
-1.6660 -4.3257 -2.4047 0.9793
-0.9101 -4.7477 -2.5078 0.9785
-0.4839 -4.8098 -2.5078 0.9785
0.8041 -4.7668 -2.5078 0.9785
1.6365 -4.5487 -2.5078 0.9785
2.0348 -4.3850 -2.5078 0.9785
2.4171 -4.1865 -2.5078 0.9785
2.7801 -3.9547 -2.5078 0.9785
3.9854 -2.7359 -2.5078 0.9785
4.2131 -2.3703 -2.5078 0.9785
4.4074 -1.9859 -2.5078 0.9785
4.5666 -1.5857 -2.5078 0.9785
4.8329 0.1077 -2.5078 0.9785
4.8041 0.5374 -2.5078 0.9785
4.7372 0.9629 -2.5078 0.9785
4.6327 1.3807 -2.5078 0.9785
4.4915 1.7876 -2.5078 0.9785
4.1034 2.5556 -2.5078 0.9785
3.8596 2.9107 -2.5078 0.9785
3.5852 3.2427 -2.5078 0.9785
3.2824 3.5489 -2.5078 0.9785
2.9535 3.8269 -2.5078 0.9785
1.4322 4.6171 -2.5078 0.9785
0.1615 4.8314 -2.5078 0.9785
-0.2691 4.8266 -2.5078 0.9785
-0.6977 4.7835 -2.5078 0.9785
-1.5347 4.5840 -2.5078 0.9785
-2.2277 4.0650 -2.4047 0.9793
-2.0371 3.0396 -1.8983 0.9836
-2.9131 3.6056 -2.4047 0.9793
-3.2225 3.3320 -2.4047 0.9793
-3.7622 2.7079 -2.4047 0.9793
-4.1827 1.9979 -2.4047 0.9793
-1.2283 0.3365 -0.6607 0.9943
-1.2576 0.1124 -0.6550 0.9943
-1.1944 0.0000 -0.6542 0.9946
-1.1899 -0.1063 -0.6543 0.9946
-1.1577 -0.3171 -0.6575 0.9945
-1.1464 -0.4269 -0.6700 0.9944
-3.9618 -1.8924 -2.4047 0.9802
-3.5635 -2.5649 -2.4047 0.9802
-1.7717 -4.0521 -2.4222 0.9800
-1.4537 -4.3419 -2.5078 0.9793
-1.0615 -4.4541 -2.5078 0.9793
0.5597 -4.5445 -2.5078 0.9793
0.9620 -4.4766 -2.5078 0.9793
1.3566 -4.3733 -2.5078 0.9793
2.7975 -3.6248 -2.5078 0.9793
3.3959 -3.0714 -2.5078 0.9793
3.8867 -2.4206 -2.5078 0.9793
4.0867 -2.0651 -2.5078 0.9793
4.3881 -1.3078 -2.5078 0.9793
4.4871 -0.9120 -2.5078 0.9793
4.5504 -0.5091 -2.5078 0.9793
4.5777 -0.1020 -2.5078 0.9793
4.5232 0.7113 -2.5078 0.9793
4.4420 1.1110 -2.5078 0.9793
4.3255 1.5020 -2.5078 0.9793
3.9906 2.2451 -2.5078 0.9793
3.7750 2.5914 -2.5078 0.9793
3.2557 3.2196 -2.5078 0.9793
2.6333 3.7459 -2.5078 0.9793
1.9274 4.1534 -2.5078 0.9793
1.1604 4.4293 -2.5078 0.9793
0.7616 4.5150 -2.5078 0.9793
-0.0510 4.5786 -2.5078 0.9793
-0.4583 4.5558 -2.5078 0.9793
-0.8620 4.4970 -2.5078 0.9793
-1.2588 4.4024 -2.5078 0.9793
-1.5902 4.1289 -2.4233 0.9800
-2.2795 3.7525 -2.4047 0.9802
-2.1754 2.9524 -2.0086 0.9834
-3.1899 3.0170 -2.4047 0.9802
-1.1411 0.4838 -0.6788 0.9944
-1.1649 0.2639 -0.6542 0.9946
-1.1840 0.1592 -0.6543 0.9946
-1.1933 -0.0532 -0.6542 0.9946
-1.1840 -0.1592 -0.6543 0.9946
-1.1411 -0.4838 -0.6788 0.9944
-3.6743 -2.4036 -2.4047 0.9802
-2.9087 -3.2889 -2.4047 0.9802
-1.5902 -4.1289 -2.4233 0.9800
-0.8620 -4.4970 -2.5078 0.9793
1.5501 -4.3085 -2.5078 0.9793
1.9274 -4.1534 -2.5078 0.9793
2.2894 -3.9654 -2.5078 0.9793
3.5293 -2.9171 -2.5078 0.9793
3.9906 -2.2451 -2.5078 0.9793
4.5686 -0.3058 -2.5078 0.9793
4.4871 0.9120 -2.5078 0.9793
4.0867 2.0651 -2.5078 0.9793
3.8867 2.4206 -2.5078 0.9793
3.6558 2.7570 -2.5078 0.9793
3.3959 3.0714 -2.5078 0.9793
3.1090 3.3615 -2.5078 0.9793
2.7975 3.6249 -2.5078 0.9793
2.4638 3.8595 -2.5078 0.9793
2.1105 4.0634 -2.5078 0.9793
1.7405 4.2352 -2.5078 0.9793
1.3566 4.3732 -2.5078 0.9793
0.9620 4.4766 -2.5078 0.9793
0.5597 4.5445 -2.5078 0.9793
0.1530 4.5763 -2.5078 0.9793
-0.2549 4.5717 -2.5078 0.9793
-2.1100 3.8504 -2.4047 0.9802
-2.7593 3.4152 -2.4047 0.9802
-3.0523 3.1561 -2.4047 0.9802
-3.7777 2.2375 -2.4047 0.9802
-3.9618 1.8924 -2.4047 0.9802
-1.1464 0.4269 -0.6700 0.9944
-1.1756 0.2118 -0.6543 0.9946
-1.0934 -0.2995 -0.6545 0.9948
-3.5837 -2.1226 -2.4047 0.9809
-3.3806 -2.4332 -2.4047 0.9809
-3.1506 -2.7244 -2.4047 0.9809
-2.8956 -2.9940 -2.4047 0.9809
-2.6176 -3.2398 -2.4047 0.9809
-2.0404 -3.0445 -2.1160 0.9832
-2.0017 -3.6526 -2.4047 0.9809
-1.0070 -4.2254 -2.5078 0.9801
-0.6269 -4.2982 -2.5078 0.9801
0.1451 -4.3413 -2.5078 0.9801
0.5310 -4.3111 -2.5078 0.9801
1.6511 -4.0177 -2.5078 0.9801
2.3373 -3.6613 -2.5078 0.9801
2.6539 -3.4387 -2.5078 0.9801
2.9494 -3.1889 -2.5078 0.9801
3.2215 -2.9137 -2.5078 0.9801
3.4681 -2.6154 -2.5078 0.9801
3.8768 -1.9590 -2.5078 0.9801
4.2567 -0.8652 -2.5078 0.9801
4.3340 0.2901 -2.5078 0.9801
4.2139 1.0540 -2.5078 0.9801
3.9603 1.7844 -2.5078 0.9801
2.4980 3.5535 -2.5078 0.9801
2.1719 3.7618 -2.5078 0.9801
1.4705 4.0872 -2.5078 0.9801
0.7225 4.2832 -2.5078 0.9801
-0.8177 4.2661 -2.5078 0.9801
-1.1942 4.1763 -2.5078 0.9801
-1.5612 4.0535 -2.5078 0.9801
-1.8370 3.7382 -2.4047 0.9809
-2.1721 2.9479 -2.1141 0.9832
-3.0261 2.8620 -2.4047 0.9809
-1.0769 0.4566 -0.6753 0.9946
-1.1039 0.2501 -0.6535 0.9948
-1.1220 0.1509 -0.6536 0.9948
-1.1309 0.0504 -0.6536 0.9948
-1.1309 -0.0504 -0.6536 0.9948
-1.1220 -0.1509 -0.6536 0.9948
-1.0870 -0.3505 -0.6594 0.9947
-3.6747 -1.9609 -2.4047 0.9809
-3.4856 -2.2802 -2.4047 0.9809
-3.2688 -2.5813 -2.4047 0.9809
-3.0261 -2.8620 -2.4047 0.9809
-2.7593 -3.1200 -2.4047 0.9809
-2.4707 -3.3532 -2.4047 0.9809
-2.1624 -3.5598 -2.4047 0.9809
-0.8177 -4.2661 -2.5078 0.9801
-0.4348 -4.3219 -2.5078 0.9801
-0.0484 -4.3434 -2.5078 0.9801
0.3384 -4.3305 -2.5078 0.9801
1.1008 -4.2019 -2.5078 0.9801
1.8284 -3.9401 -2.5078 0.9801
2.1719 -3.7618 -2.5078 0.9801
2.4980 -3.5535 -2.5078 0.9801
3.0885 -3.0543 -2.5078 0.9801
3.3481 -2.7673 -2.5078 0.9801
3.5811 -2.4583 -2.5078 0.9801
3.7857 -2.1298 -2.5078 0.9801
4.3340 -0.2901 -2.5078 0.9801
4.2567 0.8652 -2.5078 0.9801
4.0358 1.6062 -2.5078 0.9801
3.8768 1.9591 -2.5078 0.9801
3.2215 2.9137 -2.5078 0.9801
2.9494 3.1888 -2.5078 0.9801
1.6511 4.0177 -2.5078 0.9801
-0.2418 4.3370 -2.5078 0.9801
-0.6269 4.2982 -2.5078 0.9801
-1.6686 3.8163 -2.4047 0.9809
-2.0017 3.6526 -2.4047 0.9809
-2.6176 3.2398 -2.4047 0.9809
-3.1506 2.7244 -2.4047 0.9809
-3.3806 2.4332 -2.4047 0.9809
-3.5837 2.1226 -2.4047 0.9809
-3.7584 1.7952 -2.4047 0.9809
-1.0827 0.4032 -0.6671 0.9947
-1.0934 0.2995 -0.6545 0.9948
-1.1276 0.1008 -0.6536 0.9948
