ply
format ascii 1.0
element vertex 1392
property float32 x
property float32 y
property float32 z
property float32 I
end_header
7.0664 -15.2277 2.9601 0.9341
12.0285 15.5858 3.0160 0.9234
7.0653 -15.2253 1.8024 0.9347
11.4502 16.2882 1.6854 0.9232
11.9964 15.5442 1.6622 0.9242
7.0644 -15.2234 1.0407 0.9350
12.0353 15.5945 1.2215 0.9241
11.4575 16.2986 0.7856 0.9233
7.0636 -15.2218 0.6617 0.9350
17.9263 0.3995 0.7070 0.9307
12.0353 15.5945 0.7767 0.9242
17.7860 -0.3963 0.3005 0.9313
11.4575 16.2986 0.3365 0.9234
-18.7673 6.0516 0.3331 0.9241
17.6476 -1.1814 0.2988 0.9317
17.9263 0.3995 0.3029 0.9308
12.0353 15.5945 0.3327 0.9242
-18.6237 6.9355 0.3357 0.9236
17.7860 -0.3963 -0.1002 0.9313
11.4575 16.2986 -0.1122 0.9234
-18.5738 5.9892 -0.1099 0.9249
7.0621 -15.2185 -0.0945 0.9351
17.6476 -1.1814 -0.0996 0.9317
-18.4115 6.8565 -0.1106 0.9244
17.7860 -0.3964 -0.5009 0.9313
11.4575 16.2986 -0.5610 0.9234
7.0614 -15.2169 -0.4724 0.9351
-18.2208 6.7855 -0.5475 0.9251
17.7860 -0.3963 -0.9022 0.9312
17.6476 -1.1814 -0.8970 0.9316
17.9263 0.3995 -0.9093 0.9307
12.0353 15.5945 -0.9990 0.9241
10.5148 -13.6245 -1.2619 0.9333
-9.2881 15.2902 -1.3118 0.9308
-10.1838 13.8216 -1.2588 0.9335
-14.3777 11.3539 -1.3433 0.9292
-15.2772 9.9939 -1.3386 0.9294
7.0599 -15.2137 -1.2298 0.9349
17.6476 -1.1814 -1.2969 0.9315
17.9263 0.3995 -1.3147 0.9306
12.0353 15.5945 -1.4443 0.9240
-9.1738 16.7401 -1.3997 0.9263
-9.6485 14.3966 -1.2707 0.9329
-10.9664 13.5733 -1.2795 0.9324
-12.0480 12.4576 -1.2707 0.9329
-13.3481 11.5426 -1.2939 0.9317
-15.1365 10.8946 -1.3674 0.9279
-16.0255 9.4919 -1.3657 0.9280
-17.6695 8.4400 -1.4358 0.9245
-17.7955 6.6271 -1.3924 0.9267
10.4619 -16.3884 -1.8666 0.9248
10.4675 -13.5632 -1.6448 0.9335
10.5261 -7.9381 -1.2657 0.9484
17.7860 -0.3963 -1.7080 0.9310
-9.7180 13.1893 -1.5728 0.9363
-10.8988 12.3234 -1.5794 0.9360
-11.9067 11.2613 -1.5734 0.9363
-14.5815 9.5388 -1.6728 0.9324
-16.7777 8.9529 -1.8257 0.9264
-17.8351 5.7511 -1.7991 0.9275
-5.8290 -15.1346 -1.5570 0.9369
7.0277 -15.1443 -1.6028 0.9351
10.5724 -12.5051 -1.5721 0.9363
10.5246 -8.6988 -1.3109 0.9466
17.6476 -1.1813 -1.6981 0.9314
17.9263 0.3995 -1.7214 0.9305
12.0353 15.5945 -1.8912 0.9239
-10.5586 13.0685 -1.6130 0.9347
-11.0933 11.4704 -1.5320 0.9379
-14.3942 10.3604 -1.7027 0.9312
-17.5972 8.4054 -1.8723 0.9246
-17.4579 6.5014 -1.7885 0.9279
-5.6582 -10.3248 -1.3985 0.9537
10.4619 -16.3884 -2.3096 0.9247
10.4675 -13.5632 -2.0351 0.9333
10.4757 -9.4747 -1.6778 0.9447
10.5202 -7.9337 -1.5652 0.9483
18.8737 -2.1113 -2.2559 0.9264
-8.2358 16.7593 -2.2182 0.9275
-8.5595 14.0908 -1.9584 0.9357
-9.3765 12.7259 -1.8777 0.9383
-10.4606 11.8279 -1.8756 0.9384
-16.0435 8.5611 -2.1601 0.9294
-17.5977 5.6745 -2.1964 0.9282
7.0202 -15.1282 -1.9811 0.9350
10.4699 -12.3838 -1.9263 0.9368
10.5346 -3.6580 -1.3247 0.9561
10.5366 -2.6354 -1.2902 0.9572
12.0353 15.5945 -2.3399 0.9237
-10.7357 11.1006 -1.8344 0.9397
-12.4177 10.7380 -1.9501 0.9360
-13.7186 9.8740 -2.0078 0.9342
-17.5701 8.3925 -2.3130 0.9246
-17.3397 6.4573 -2.1979 0.9282
-5.6157 -12.8435 -1.9861 0.9449
-5.3509 -15.9822 -2.3881 0.9342
-3.9072 -16.3951 -2.3881 0.9342
-2.4324 -16.6778 -2.3881 0.9342
0.5875 -17.5720 -2.4912 0.9314
6.4697 -15.7431 -2.4116 0.9335
9.0684 -14.2053 -2.3879 0.9342
10.4720 -11.3222 -2.1852 0.9396
10.4757 -9.4747 -2.0013 0.9445
10.4815 -6.5280 -1.7496 0.9513
10.4840 -5.2978 -1.6644 0.9537
10.5344 -3.1396 -1.5575 0.9566
16.9121 -1.8919 -2.4112 0.9336
16.8110 2.6434 -2.4112 0.9336
16.0760 5.5822 -2.4112 0.9336
15.5153 6.9909 -2.4112 0.9336
13.1171 10.8416 -2.4112 0.9336
12.1001 11.9660 -2.4112 0.9336
-3.1729 16.5529 -2.3881 0.9342
-9.0973 12.3470 -2.1730 0.9399
-10.0944 11.4139 -2.1590 0.9403
-11.1336 10.5301 -2.1713 0.9400
-12.5999 9.9500 -2.2748 0.9372
-17.4579 7.4028 -2.6868 0.9263
-5.8771 -9.6751 -1.6040 0.9553
-5.6192 -14.5899 -2.2153 0.9388
-1.6870 -16.7696 -2.3881 0.9342
-0.1959 -17.5807 -2.4912 0.9314
1.3697 -17.5284 -2.4912 0.9314
2.9244 -17.3369 -2.4912 0.9314
5.9519 -16.5437 -2.4912 0.9314
8.4265 -14.5952 -2.3879 0.9342
10.4773 -8.6597 -1.9260 0.9466
10.4802 -7.1943 -1.8011 0.9499
10.4828 -5.8975 -1.7042 0.9526
10.5097 -4.7354 -1.6333 0.9545
10.5209 -3.6533 -1.5780 0.9560
17.0134 0.3791 -2.4112 0.9336
15.8114 6.2928 -2.4112 0.9336
14.4451 8.9965 -2.4112 0.9336
10.2967 13.3418 -2.3879 0.9342
9.0684 14.2053 -2.3879 0.9342
5.2091 16.7924 -2.4912 0.9314
2.1492 17.4499 -2.4912 0.9314
-0.9788 17.5545 -2.4912 0.9314
-3.9071 16.3951 -2.3881 0.9342
-5.3509 15.9823 -2.3881 0.9342
-5.5151 12.6133 -1.9505 0.9459
-8.0594 14.7066 -2.3762 0.9345
-8.4522 12.6115 -2.1511 0.9405
-10.3987 10.7521 -2.1194 0.9414
-11.9942 10.3718 -2.2467 0.9379
-17.2406 6.4204 -2.6067 0.9284
-5.8650 -5.0716 -1.2773 0.9691
-4.6022 -13.7461 -2.3881 0.9429
0.5053 -15.1134 -2.4912 0.9405
1.8484 -15.0084 -2.4912 0.9405
4.4802 -14.4429 -2.4912 0.9405
6.6811 -12.8635 -2.3879 0.9429
8.8560 -11.4751 -2.3879 0.9429
10.4757 -9.4747 -2.3269 0.9443
10.4788 -7.9024 -2.1621 0.9482
10.4815 -6.5280 -2.0342 0.9512
10.4862 -4.1734 -1.8593 0.9553
10.4902 -2.1322 -1.7635 0.9575
14.5458 -1.6272 -2.4112 0.9424
14.1991 3.5514 -2.4112 0.9424
13.8267 4.8011 -2.4112 0.9424
13.3445 6.0127 -2.4112 0.9424
12.7563 7.1766 -2.4112 0.9424
9.3584 11.0692 -2.3879 0.9429
7.2475 12.5531 -2.3879 0.9429
6.3653 13.7168 -2.4912 0.9405
2.5152 14.9111 -2.4912 0.9405
-0.1685 15.1209 -2.4912 0.9405
-2.7290 14.2368 -2.3881 0.9429
-9.7797 11.0580 -2.4319 0.9419
-12.1971 9.6320 -2.5603 0.9389
-14.7463 7.8689 -2.7535 0.9345
-17.3911 5.6079 -3.0103 0.9286
-5.6483 -5.3421 -1.2807 0.9690
-5.6129 -11.4220 -2.0966 0.9497
-5.2100 -13.5274 -2.3881 0.9429
-0.1685 -15.1209 -2.4912 0.9405
2.5152 -14.9112 -2.4912 0.9405
3.8324 -14.6281 -2.4912 0.9405
8.3361 -11.8582 -2.3879 0.9429
10.4828 -5.8975 -1.9815 0.9524
10.4851 -4.7244 -1.8945 0.9544
10.4872 -3.6416 -1.8289 0.9560
14.6038 -0.9776 -2.4112 0.9424
14.5458 1.6272 -2.4112 0.9424
14.0268 4.1804 -2.4112 0.9424
13.0634 6.6012 -2.4112 0.9424
12.4240 7.7377 -2.4112 0.9424
11.6860 8.8128 -2.4112 0.9424
9.8422 10.6413 -2.3879 0.9429
6.6811 12.8635 -2.3879 0.9429
3.1770 14.7843 -2.4912 0.9405
1.8485 15.0084 -2.4912 0.9405
0.5053 15.1133 -2.4912 0.9405
-3.3605 14.1011 -2.3881 0.9429
-5.5061 12.5928 -2.2642 0.9458
-8.2115 12.2524 -2.4298 0.9420
-10.0802 10.4228 -2.3887 0.9429
-11.5962 10.0276 -2.5255 0.9397
-13.7448 8.1411 -2.6317 0.9373
-17.0015 6.3314 -2.9887 0.9291
-18.9986 5.2043 -3.2451 0.9232
-5.8650 -5.0716 -1.4574 0.9689
-5.6040 -6.9362 -1.6761 0.9644
-5.6069 -8.3660 -1.8930 0.9598
-5.6106 -10.2380 -2.1944 0.9536
-5.0899 -11.6410 -2.3881 0.9496
-4.0336 -12.0478 -2.3881 0.9496
-2.9453 -12.3590 -2.3881 0.9496
-1.8336 -12.5721 -2.3881 0.9496
-0.7379 -13.2330 -2.4912 0.9475
0.4429 -13.2462 -2.4912 0.9475
1.6201 -13.1542 -2.4912 0.9475
7.7619 -10.0574 -2.3879 0.9496
9.4221 -8.5218 -2.3879 0.9496
10.4815 -6.5280 -2.3210 0.9510
10.4902 -2.1322 -2.0121 0.9574
12.7487 -1.4262 -2.4112 0.9491
12.6725 1.9927 -2.4112 0.9491
10.4739 7.1899 -2.3879 0.9496
9.0332 8.9331 -2.3879 0.9496
8.2022 9.7016 -2.3879 0.9496
6.4649 11.1976 -2.4303 0.9487
3.3589 12.8209 -2.4912 0.9475
1.0325 13.2133 -2.4912 0.9475
-2.3918 12.4779 -2.3881 0.9496
-4.5663 11.8562 -2.3881 0.9496
-7.6264 12.5548 -2.7611 0.9420
-12.4133 8.1204 -2.7881 0.9414
-15.2839 6.4809 -3.1204 0.9347
-5.6483 -5.3421 -1.4613 0.9689
-5.6255 -6.3609 -1.5961 0.9660
-5.6086 -9.2330 -2.0305 0.9570
-4.5663 -11.8562 -2.3881 0.9496
-3.4929 -12.2155 -2.3881 0.9496
-2.3918 -12.4779 -2.3881 0.9496
1.0325 -13.2133 -2.4912 0.9475
4.4867 -12.4710 -2.4912 0.9475
6.4649 -11.1976 -2.4303 0.9487
7.3062 -10.3932 -2.3879 0.9496
8.2022 -9.7016 -2.3879 0.9496
9.0332 -8.9331 -2.3879 0.9496
10.4739 -7.1899 -2.3879 0.9496
10.4828 -5.8975 -2.2608 0.9522
10.4851 -4.7244 -2.1616 0.9543
10.4872 -3.6416 -2.0866 0.9558
12.6725 -1.9927 -2.4112 0.9491
12.7996 -0.8568 -2.4112 0.9491
12.8251 0.2858 -2.4112 0.9491
12.5712 2.5552 -2.4112 0.9491
11.4495 5.7857 -2.4112 0.9491
10.8891 6.7818 -2.4112 0.9491
10.1432 7.6494 -2.3879 0.9496
5.0378 12.2588 -2.4912 0.9475
3.9267 12.6585 -2.4912 0.9475
2.7845 12.9578 -2.4912 0.9475
1.6201 13.1542 -2.4912 0.9475
-0.7379 13.2330 -2.4912 0.9475
-1.8336 12.5721 -2.3881 0.9496
-2.9453 12.3590 -2.3881 0.9496
-4.0336 12.0478 -2.3881 0.9496
-5.5073 8.2175 -1.8594 0.9605
-8.9759 11.1096 -2.6846 0.9435
-13.2592 7.8534 -2.8966 0.9392
-14.6654 7.0051 -3.0548 0.9360
-15.9077 5.9241 -3.1906 0.9332
-5.6418 -4.8786 -1.5766 0.9700
-5.6040 -6.9362 -1.8849 0.9642
-3.5867 -10.7130 -2.3881 0.9549
-1.6304 -11.1792 -2.3881 0.9549
0.3938 -11.7786 -2.4912 0.9530
3.4917 -11.2561 -2.4912 0.9530
6.9019 -8.9431 -2.3879 0.9549
7.6705 -8.2933 -2.3879 0.9549
9.0194 -6.8019 -2.3879 0.9549
10.4883 -3.1258 -2.3134 0.9562
10.4902 -2.1322 -2.2628 0.9572
11.3363 -1.2682 -2.4112 0.9544
11.4042 -0.2541 -2.4112 0.9544
11.3815 0.7619 -2.4112 0.9544
11.0661 2.7678 -2.4112 0.9544
10.2995 4.6407 -2.3879 0.9549
9.8456 5.5390 -2.3879 0.9549
8.7075 7.1969 -2.3879 0.9549
4.9608 10.6902 -2.4912 0.9530
3.9896 11.0893 -2.4912 0.9530
2.9868 11.4004 -2.4912 0.9530
1.9602 11.6210 -2.4912 0.9530
0.9181 11.7494 -2.4912 0.9530
-1.1796 11.7260 -2.4912 0.9530
-2.1268 11.0955 -2.3881 0.9549
-4.9826 10.1394 -2.3881 0.9549
-7.3527 12.1042 -2.9936 0.9437
-8.0372 10.9082 -2.8641 0.9461
-10.9566 8.6523 -2.9511 0.9445
-12.8261 6.8442 -3.0730 0.9423
-13.6840 5.8025 -3.1418 0.9410
-15.5028 4.9990 -3.4431 0.9356
-5.6027 -5.2990 -1.6301 0.9690
-5.6028 -6.3352 -1.7877 0.9660
-5.6054 -7.6076 -1.9975 0.9621
-4.9826 -10.1394 -2.3881 0.9549
-4.0604 -10.5426 -2.3881 0.9549
-3.1059 -10.8621 -2.3881 0.9549
-0.1313 -11.7845 -2.4912 0.9530
0.9181 -11.7494 -2.4912 0.9530
2.9868 -11.4004 -2.4912 0.9530
8.0324 -7.9434 -2.3879 0.9549
9.3135 -6.3934 -2.3879 0.9549
9.8456 -5.5390 -2.3879 0.9549
10.4872 -3.6416 -2.3466 0.9556
10.4893 -2.6236 -2.2855 0.9568
11.3815 -0.7619 -2.4112 0.9544
11.4042 0.2541 -2.4112 0.9544
11.3363 1.2681 -2.4112 0.9544
11.1784 2.2721 -2.4112 0.9544
10.9318 3.2580 -2.4112 0.9544
10.5985 4.2181 -2.4112 0.9544
10.0826 5.0949 -2.3879 0.9549
9.5891 5.9721 -2.3879 0.9549
8.3782 7.5777 -2.3879 0.9549
7.6705 8.2933 -2.3879 0.9549
6.9020 8.9431 -2.3879 0.9549
5.4321 10.4586 -2.4912 0.9530
4.4797 10.9006 -2.4912 0.9530
1.4406 11.6968 -2.4912 0.9530
-1.6304 11.1792 -2.3881 0.9549
-2.6190 10.9897 -2.3881 0.9549
-3.5867 10.7130 -2.3881 0.9549
-4.5260 10.3513 -2.3881 0.9549
-8.4331 10.4377 -2.8365 0.9466
-9.4920 9.8146 -2.8861 0.9457
-5.5228 4.7757 -1.5433 0.9706
-11.4118 8.2137 -2.9721 0.9441
-12.3889 7.3379 -3.0437 0.9428
-14.3471 5.3429 -3.2362 0.9393
-17.5441 4.8058 -3.8451 0.9283
-5.6404 -4.0597 -1.6333 0.9718
-4.0707 -9.3099 -2.3881 0.9591
-2.3555 -9.8842 -2.3881 0.9591
-1.5297 -10.4887 -2.4912 0.9574
1.2957 -10.5201 -2.4912 0.9574
3.1404 -10.1237 -2.4912 0.9574
4.0290 -9.8040 -2.4912 0.9574
5.7035 -8.9343 -2.4912 0.9574
6.8989 -7.4590 -2.3879 0.9591
7.5354 -6.8154 -2.3879 0.9591
9.0683 -4.5824 -2.3879 0.9591
9.7371 -2.9020 -2.3879 0.9591
10.0973 -1.1296 -2.3879 0.9591
10.0370 1.5782 -2.3879 0.9591
9.8567 2.4653 -2.3879 0.9591
9.5981 3.3328 -2.3879 0.9591
8.8551 4.9818 -2.3879 0.9591
7.2243 7.1443 -2.3879 0.9591
6.5598 7.7589 -2.3879 0.9591
5.2998 9.1795 -2.4912 0.9574
4.4617 9.6148 -2.4912 0.9574
1.7630 10.4520 -2.4912 0.9574
-0.1181 10.5989 -2.4912 0.9574
-1.9129 9.9793 -2.3881 0.9591
-4.4814 9.1194 -2.3881 0.9591
-11.7120 6.2497 -3.1200 0.9469
-13.9058 4.4841 -3.4339 0.9417
-5.8156 -3.8044 -1.6333 0.9718
-5.5990 -4.4215 -1.6767 0.9711
-5.6008 -5.2972 -1.8118 0.9688
-5.6028 -6.3352 -1.9877 0.9658
-5.2753 -8.6843 -2.3881 0.9591
-4.4814 -9.1194 -2.3881 0.9591
-3.6519 -9.4820 -2.3881 0.9591
-2.7935 -9.7694 -2.3881 0.9591
-1.9129 -9.9793 -2.3881 0.9591
-0.1181 -10.5990 -2.4912 0.9574
0.8257 -10.5674 -2.4912 0.9574
2.6863 -10.2536 -2.4912 0.9574
5.2998 -9.1795 -2.4912 0.9574
6.0958 -8.6714 -2.4912 0.9574
7.2243 -7.1443 -2.3879 0.9591
6.7881 -3.0586 -1.7498 0.9699
9.5981 -3.3328 -2.3879 0.9591
10.1578 0.2264 -2.3879 0.9591
9.7371 2.9020 -2.3879 0.9591
9.4401 3.7571 -2.3879 0.9591
9.0683 4.5824 -2.3879 0.9591
7.5354 6.8154 -2.3879 0.9591
5.7035 8.9343 -2.4912 0.9574
4.8856 9.4065 -2.4912 0.9574
4.0290 9.8040 -2.4912 0.9574
3.1404 10.1237 -2.4912 0.9574
2.2269 10.3631 -2.4912 0.9574
-3.2259 9.6353 -2.3881 0.9591
-4.0707 9.3099 -2.3881 0.9591
-4.8832 8.9107 -2.3881 0.9591
-7.1665 10.6931 -3.0253 0.9485
-9.7206 8.4057 -3.0203 0.9486
-10.5280 7.5776 -3.0486 0.9481
-11.3307 6.7112 -3.0950 0.9473
-13.1913 4.9125 -3.3083 0.9438
-5.9115 -2.2015 -1.6333 0.9743
-5.5968 -3.3150 -1.6842 0.9735
-5.5999 -4.8424 -1.9168 0.9699
-5.6017 -5.7922 -2.0863 0.9673
-5.6040 -6.9362 -2.3088 0.9638
-5.1348 -7.6617 -2.3881 0.9626
-4.4325 -8.0883 -2.3881 0.9626
-3.6950 -8.4507 -2.3881 0.9626
-0.5357 -9.6065 -2.4912 0.9610
0.3215 -9.6160 -2.4912 0.9610
3.6572 -8.8992 -2.4912 0.9610
4.4347 -8.5384 -2.4912 0.9610
5.8784 -7.6168 -2.4912 0.9610
6.8400 -6.1864 -2.3879 0.9626
7.8285 -4.8756 -2.3879 0.9626
8.2314 -4.1595 -2.3879 0.9626
8.5689 -3.4104 -2.3879 0.9626
8.8384 -2.6341 -2.3879 0.9626
8.7123 3.0253 -2.3879 0.9626
7.1088 5.8756 -2.3879 0.9626
6.5576 6.4850 -2.3879 0.9626
3.2571 9.0533 -2.4912 0.9610
2.4384 9.3073 -2.4912 0.9610
-0.1072 9.6208 -2.4912 0.9610
-2.5357 8.8678 -2.3881 0.9626
-5.4710 7.4254 -2.3881 0.9626
-7.7988 8.8182 -3.0480 0.9525
-8.5890 8.1234 -3.0609 0.9523
-10.8370 5.7828 -3.1804 0.9505
-15.1832 3.4401 -4.0308 0.9377
-6.0037 -1.9360 -1.6333 0.9743
-5.5990 -4.4215 -1.8472 0.9710
-4.7884 -7.8828 -2.3881 0.9626
-4.0678 -8.2778 -2.3881 0.9626
-3.3149 -8.6070 -2.3881 0.9626
-1.7363 -9.0583 -2.3881 0.9626
-0.9631 -9.5731 -2.4912 0.9610
0.7495 -9.5922 -2.4912 0.9610
1.6003 -9.4874 -2.4912 0.9610
4.8107 -8.3324 -2.4912 0.9610
6.2118 -7.3474 -2.4912 0.9610
6.5576 -6.4850 -2.3879 0.9626
8.0379 -4.5221 -2.3879 0.9626
8.9470 -2.2378 -2.3879 0.9626
9.1655 1.0253 -2.3879 0.9626
8.8384 2.6341 -2.3879 0.9626
8.2314 4.1595 -2.3879 0.9626
7.8285 4.8756 -2.3879 0.9626
6.8400 6.1864 -2.3879 0.9626
2.8506 9.1894 -2.4912 0.9610
2.0214 9.4067 -2.4912 0.9610
1.1761 9.5493 -2.4912 0.9610
0.3215 9.6160 -2.4912 0.9610
-0.5356 9.6065 -2.4912 0.9610
-2.1381 8.9720 -2.3881 0.9626
-2.9282 8.7461 -2.3881 0.9626
-4.4325 8.0883 -2.3881 0.9626
-5.1348 7.6617 -2.3881 0.9626
-5.5071 6.8162 -2.2689 0.9644
-8.9593 7.7474 -3.0668 0.9522
-9.7645 7.0281 -3.1150 0.9515
-10.5230 6.2328 -3.1667 0.9507
-5.5011 2.6276 -1.5785 0.9751
-13.4693 3.6896 -3.6159 0.9439
-5.5016 -0.0000 -1.5575 0.9774
-5.5018 -0.9912 -1.5826 0.9770
-5.5944 -2.0834 -1.6900 0.9755
-5.5956 -2.6728 -1.7555 0.9746
-5.5982 -4.0294 -1.9526 0.9717
-5.5999 -4.8424 -2.0958 0.9697
-4.0540 -7.3976 -2.3881 0.9655
-2.6781 -7.9992 -2.3881 0.9655
-1.2700 -8.7077 -2.4912 0.9641
0.2940 -8.7949 -2.4912 0.9641
1.0757 -8.7338 -2.4912 0.9641
1.8488 -8.6034 -2.4912 0.9641
4.0560 -7.8093 -2.4912 0.9641
4.7350 -7.4173 -2.4912 0.9641
7.1600 -4.4593 -2.3879 0.9655
8.2660 -1.6802 -2.3879 0.9655
8.3327 1.3103 -2.3879 0.9655
7.6904 3.4651 -2.3879 0.9655
7.3515 4.1359 -2.3879 0.9655
6.5017 5.3738 -2.3879 0.9655
6.2569 6.1876 -2.4912 0.9641
5.6814 6.7200 -2.4912 0.9641
4.3999 7.6208 -2.4912 0.9641
3.7041 7.9822 -2.4912 0.9641
2.2302 8.5125 -2.4912 0.9641
0.6855 8.7730 -2.4912 0.9641
-0.0980 8.7992 -2.4912 0.9641
-3.0318 7.8720 -2.3881 0.9655
-3.7204 7.5709 -2.3881 0.9655
-5.5082 3.6033 -1.8633 0.9730
-5.5016 0.2453 -1.5590 0.9774
-5.5016 -0.2454 -1.5590 0.9774
-5.5017 -0.7399 -1.5715 0.9772
-5.6915 -1.8353 -1.6929 0.9754
-5.5962 -2.9862 -1.7957 0.9740
-5.5975 -3.6617 -1.8936 0.9726
-5.5990 -4.4215 -2.0197 0.9708
-5.6008 -5.2972 -2.1824 0.9685
-2.3192 -8.1106 -2.3881 0.9655
-0.8808 -8.7556 -2.4912 0.9641
-0.0980 -8.7992 -2.4912 0.9641
1.4637 -8.6772 -2.4912 0.9641
2.2302 -8.5125 -2.4912 0.9641
2.9790 -8.2802 -2.4912 0.9641
3.7041 -7.9822 -2.4912 0.9641
4.3999 -7.6208 -2.4912 0.9641
6.2569 -6.1876 -2.4912 0.9641
6.5017 -5.3738 -2.3879 0.9655
6.9542 -4.7738 -2.3879 0.9655
8.1830 -2.0467 -2.3879 0.9655
8.3327 -1.3103 -2.3879 0.9655
8.4162 -0.5634 -2.3879 0.9655
8.4330 0.1879 -2.3879 0.9655
8.3828 0.9378 -2.3879 0.9655
8.2660 1.6801 -2.3879 0.9655
8.0837 2.4092 -2.3879 0.9655
7.5284 3.8043 -2.3879 0.9655
7.1600 4.4593 -2.3879 0.9655
6.4630 5.8454 -2.4670 0.9644
5.9751 6.4602 -2.4912 0.9641
5.3764 6.9664 -2.4912 0.9641
4.7350 7.4173 -2.4912 0.9641
2.6072 8.4047 -2.4912 0.9641
1.8488 8.6034 -2.4912 0.9641
1.0757 8.7338 -2.4912 0.9641
0.2940 8.7949 -2.4912 0.9641
-2.6781 7.9992 -2.3881 0.9655
-3.3795 7.7291 -2.3881 0.9655
-4.6963 7.0074 -2.3881 0.9655
-5.3014 6.5616 -2.3881 0.9655
-11.4181 4.2521 -3.4493 0.9506
-12.5135 3.4278 -3.6730 0.9475
-5.5015 0.4916 -1.5636 0.9773
-18.8832 -1.6875 -5.8312 0.9237
-5.5956 -2.6728 -1.9073 0.9744
-5.5999 -4.8424 -2.2771 0.9695
-4.8794 -6.0393 -2.3881 0.9680
-4.3225 -6.4496 -2.3881 0.9680
-3.7313 -6.8087 -2.3881 0.9680
-3.1105 -7.1138 -2.3881 0.9680
-2.4649 -7.3624 -2.3881 0.9680
-1.7999 -7.5526 -2.3881 0.9680
-1.1689 -8.0145 -2.4912 0.9667
-0.4509 -8.0867 -2.4912 0.9667
1.7016 -7.9185 -2.4912 0.9667
2.3996 -7.7356 -2.4912 0.9667
3.0786 -7.4913 -2.4912 0.9667
3.7331 -7.1876 -2.4912 0.9667
4.3581 -6.8268 -2.4912 0.9667
4.9484 -6.4118 -2.4912 0.9667
5.4994 -5.9459 -2.4912 0.9667
6.0068 -5.4329 -2.4912 0.9667
6.5900 -4.1043 -2.3879 0.9680
6.9291 -3.5014 -2.3879 0.9680
7.7154 -0.8631 -2.3879 0.9680
7.7616 -0.1730 -2.3879 0.9680
7.7462 0.5185 -2.3879 0.9680
7.3340 2.5466 -2.3879 0.9680
7.0782 3.1893 -2.3879 0.9680
6.7663 3.8066 -2.3879 0.9680
6.4692 4.4409 -2.4135 0.9677
6.2429 5.1599 -2.4912 0.9667
4.6578 6.6259 -2.4912 0.9667
4.0496 7.0142 -2.4912 0.9667
-4.0309 6.6357 -2.3881 0.9680
-9.5927 5.1188 -3.3443 0.9555
-10.3530 4.3901 -3.4588 0.9540
-11.1475 3.5946 -3.6026 0.9522
-5.5014 1.2464 -1.7350 0.9767
-5.5975 -3.6617 -2.0573 0.9724
-5.5990 -4.4215 -2.1944 0.9706
-5.1436 -5.8159 -2.3881 0.9680
-4.6055 -6.2506 -2.3881 0.9680
-4.0309 -6.6357 -2.3881 0.9680
-3.4243 -6.9682 -2.3881 0.9680
-2.7905 -7.2453 -2.3881 0.9680
-1.5247 -7.9545 -2.4912 0.9667
-0.8107 -8.0586 -2.4912 0.9667
1.3471 -7.9864 -2.4912 0.9667
5.2291 -6.1850 -2.4912 0.9667
5.7588 -5.6950 -2.4912 0.9667
6.2429 -5.1599 -2.4912 0.9667
6.7663 -3.8066 -2.3879 0.9680
7.3340 -2.5466 -2.3879 0.9680
7.7616 0.1730 -2.3879 0.9680
7.6080 1.5464 -2.3879 0.9680
7.4402 2.2174 -2.3879 0.9680
7.2133 2.8708 -2.3879 0.9680
6.4630 4.8740 -2.4898 0.9667
6.0068 5.4329 -2.4912 0.9667
4.3581 6.8268 -2.4912 0.9667
3.7331 7.1876 -2.4912 0.9667
3.0786 7.4913 -2.4912 0.9667
1.7016 7.9185 -2.4912 0.9667
0.9900 8.0385 -2.4912 0.9667
-0.4509 8.0867 -2.4912 0.9667
-1.1689 8.0145 -2.4912 0.9667
-1.7999 7.5526 -2.3881 0.9680
-2.4649 7.3624 -2.3881 0.9680
-3.7313 6.8087 -2.3881 0.9680
-7.8398 6.7793 -3.1879 0.9576
-9.9721 4.7633 -3.3991 0.9548
-10.7500 4.0033 -3.5283 0.9531
-14.0909 2.5386 -4.4038 0.9418
-18.7687 1.6772 -5.7959 0.9242
-18.5597 0.0000 -6.1694 0.9247
-18.5253 -1.6555 -6.1825 0.9246
-5.5090 -0.9925 -1.8607 0.9767
-5.5956 -2.6728 -2.0613 0.9742
-5.5982 -4.0294 -2.2928 0.9713
-5.4342 -4.6991 -2.3881 0.9702
-3.9996 -5.9679 -2.3881 0.9702
0.2504 -7.4901 -2.4912 0.9689
0.9161 -7.4381 -2.4912 0.9689
1.5745 -7.3271 -2.4912 0.9689
2.2204 -7.1579 -2.4912 0.9689
4.0326 -6.3169 -2.4912 0.9689
4.5788 -5.9329 -2.4912 0.9689
5.9836 -4.5124 -2.4912 0.9689
6.4702 -3.2695 -2.4097 0.9699
6.8845 -2.0518 -2.3879 0.9702
7.0398 -1.4309 -2.3879 0.9702
7.1392 -0.7986 -2.3879 0.9702
7.1819 -0.1601 -2.3879 0.9702
7.1677 0.4798 -2.3879 0.9702
6.9690 1.7431 -2.3879 0.9702
5.7766 4.7745 -2.4912 0.9689
5.3287 5.2697 -2.4912 0.9689
3.1546 6.7980 -2.4912 0.9689
1.2465 7.3899 -2.4912 0.9689
0.5838 7.4716 -2.4912 0.9689
-0.7501 7.4567 -2.4912 0.9689
-3.1685 6.4477 -2.3881 0.9702
-4.2615 5.7838 -2.3881 0.9702
-15.8000 2.1249 -5.2993 0.9350
-18.5142 0.8256 -6.1603 0.9249
-18.8383 -0.8401 -6.2682 0.9236
-5.6915 -1.8353 -1.9878 0.9751
-5.5990 -4.4215 -2.3715 0.9704
-5.2195 -4.9365 -2.3881 0.9702
-4.7594 -5.3815 -2.3881 0.9702
-4.2615 -5.7838 -2.3881 0.9702
-1.9751 -6.9073 -2.3881 0.9702
-0.7502 -7.4567 -2.4912 0.9689
-0.0835 -7.4938 -2.4912 0.9689
0.5838 -7.4715 -2.4912 0.9689
1.8993 -7.2496 -2.4912 0.9689
2.5370 -7.0518 -2.4912 0.9689
4.8385 -5.7230 -2.4912 0.9689
5.3287 -5.2697 -2.4912 0.9689
5.7766 -4.7745 -2.4912 0.9689
6.1786 -4.2414 -2.4912 0.9689
6.4630 -3.6360 -2.4650 0.9692
6.5496 -2.9511 -2.3879 0.9702
6.7862 -2.3564 -2.3879 0.9702
6.9690 -1.7431 -2.3879 0.9702
7.0965 -1.1159 -2.3879 0.9702
7.1677 -0.4798 -2.3879 0.9702
7.0398 1.4309 -2.3879 0.9702
6.8845 2.0518 -2.3879 0.9702
5.9836 4.5124 -2.4912 0.9689
1.5745 7.3271 -2.4912 0.9689
0.2504 7.4901 -2.4912 0.9689
-0.4172 7.4827 -2.4912 0.9689
-1.0816 7.4158 -2.4912 0.9689
-1.6654 6.9885 -2.3881 0.9702
-2.2808 6.8125 -2.3881 0.9702
-4.9944 5.1642 -2.3881 0.9702
-5.5154 3.9697 -2.2588 0.9718
-9.4419 4.5100 -3.4782 0.9569
-10.1501 3.7799 -3.6003 0.9554
-18.5225 1.6552 -6.1815 0.9246
-18.4632 -1.6499 -6.6289 0.9243
-5.5944 -2.0834 -2.1348 0.9750
-4.6424 -4.8002 -2.3881 0.9720
-3.2093 -5.8562 -2.3881 0.9720
-1.5829 -6.6423 -2.4419 0.9714
1.4635 -6.8107 -2.4912 0.9708
2.0639 -6.6534 -2.4912 0.9708
2.6479 -6.4433 -2.4912 0.9708
3.2109 -6.1821 -2.4912 0.9708
3.7484 -5.8717 -2.4912 0.9708
5.1665 -4.6728 -2.4912 0.9708
5.9131 -3.6827 -2.4912 0.9708
6.6360 -0.7424 -2.3879 0.9720
6.6765 -0.1488 -2.3882 0.9720
6.6753 0.4469 -2.3925 0.9720
6.5964 1.0372 -2.3879 0.9720
6.4779 1.6202 -2.3879 0.9720
6.4630 2.2442 -2.4466 0.9714
6.3512 2.8617 -2.4912 0.9708
5.7432 3.9425 -2.4912 0.9708
4.9532 4.8983 -2.4912 0.9708
4.4976 5.3197 -2.4912 0.9708
2.3582 6.5549 -2.4912 0.9708
1.7655 6.7387 -2.4912 0.9708
1.1587 6.8691 -2.4912 0.9708
0.5427 6.9450 -2.4912 0.9708
-0.6973 6.9312 -2.4912 0.9708
-1.8359 6.4206 -2.3881 0.9720
-2.9452 5.9933 -2.3881 0.9720
-5.2408 4.1386 -2.3881 0.9720
-5.5884 3.6557 -2.3881 0.9720
-8.6269 4.6034 -3.4968 0.9593
-5.5014 1.2464 -2.0172 0.9763
-13.0409 1.7538 -4.7055 0.9456
-18.4301 0.8218 -6.5973 0.9246
-18.5248 -0.8261 -6.6312 0.9242
-5.6915 -1.8353 -2.1385 0.9749
-5.5962 -2.9862 -2.2683 0.9734
-5.5884 -3.6558 -2.3881 0.9720
-4.4240 -5.0023 -2.3881 0.9720
-2.9452 -5.9933 -2.3881 0.9720
-1.8359 -6.4206 -2.3881 0.9720
-1.3114 -6.8416 -2.4912 0.9708
-0.6973 -6.9312 -2.4912 0.9708
-0.0776 -6.9657 -2.4912 0.9708
1.7655 -6.7387 -2.4912 0.9708
2.3582 -6.5549 -2.4912 0.9708
4.4976 -5.3197 -2.4912 0.9708
5.3695 -4.4380 -2.4912 0.9708
5.7432 -3.9425 -2.4912 0.9708
6.3512 -2.8617 -2.4912 0.9708
6.4779 -1.6202 -2.3879 0.9720
6.6765 0.1488 -2.3882 0.9720
6.6360 0.7423 -2.3879 0.9720
6.4630 2.5722 -2.4875 0.9709
6.2174 3.1418 -2.4912 0.9708
5.9131 3.6827 -2.4912 0.9708
5.5619 4.1944 -2.4912 0.9708
5.1665 4.6728 -2.4912 0.9708
4.7301 5.1141 -2.4912 0.9708
3.7484 5.8717 -2.4912 0.9708
3.2109 6.1821 -2.4912 0.9708
2.6479 6.4433 -2.4912 0.9708
0.8515 6.9139 -2.4912 0.9708
0.2328 6.9623 -2.4912 0.9708
-0.3878 6.9554 -2.4912 0.9708
-1.0054 6.8932 -2.4912 0.9708
-2.1201 6.3324 -2.3881 0.9720
-2.6753 6.1186 -2.3881 0.9720
-3.7178 5.5473 -2.3881 0.9720
-5.0512 4.3680 -2.3881 0.9720
-5.4200 3.9010 -2.3881 0.9720
-5.5176 2.6355 -2.1867 0.9744
-9.6060 3.5773 -3.6656 0.9574
-10.5073 2.8782 -3.8959 0.9548
-11.7398 2.1150 -4.2658 0.9506
-18.5010 1.6532 -6.6425 0.9241
-5.5088 -0.0000 -2.1111 0.9767
-5.5944 -2.0834 -2.2877 0.9748
-5.3617 -3.1757 -2.3881 0.9737
-5.0577 -3.6403 -2.3881 0.9737
-4.7137 -4.0761 -2.3881 0.9737
-4.3322 -4.4794 -2.3881 0.9737
-3.9163 -4.8472 -2.3881 0.9737
-3.4693 -5.1766 -2.3881 0.9737
-2.9948 -5.4648 -2.3881 0.9737
-1.9784 -5.9092 -2.3881 0.9737
-1.5070 -6.3235 -2.4912 0.9725
0.7946 -6.4519 -2.4912 0.9725
1.3657 -6.3555 -2.4912 0.9725
1.9260 -6.2088 -2.4912 0.9725
2.4709 -6.0127 -2.4912 0.9725
3.4979 -5.4793 -2.4912 0.9725
3.9717 -5.1462 -2.4912 0.9725
4.4140 -4.7723 -2.4912 0.9725
5.1902 -3.9141 -2.4912 0.9725
5.5179 -3.4366 -2.4912 0.9725
6.2298 -1.8567 -2.4912 0.9725
6.4630 0.4326 -2.4823 0.9726
6.4217 1.0098 -2.4912 0.9725
6.3063 1.5773 -2.4912 0.9725
5.9268 2.6705 -2.4912 0.9725
5.6656 3.1874 -2.4912 0.9725
5.0107 4.1414 -2.4912 0.9725
3.7385 5.3180 -2.4912 0.9725
1.6475 6.2884 -2.4912 0.9725
-0.6507 6.4680 -2.4912 0.9725
-1.2238 6.3844 -2.4912 0.9725
-1.7132 5.9915 -2.3881 0.9737
-2.2397 5.8152 -2.3881 0.9737
-3.2353 5.3260 -2.3881 0.9737
-3.6965 5.0169 -2.3881 0.9737
-4.1283 4.6680 -2.3881 0.9737
-4.8906 3.8620 -2.3881 0.9737
-5.2149 3.4114 -2.3881 0.9737
-8.8124 3.7368 -3.6681 0.9598
-9.5622 3.0834 -3.8502 0.9579
-18.4024 0.8206 -7.0591 0.9241
-18.5194 -0.8259 -7.1041 0.9237
-5.5091 -1.7765 -2.2183 0.9755
-5.4978 -2.9337 -2.3881 0.9737
-4.5274 -4.2820 -2.3881 0.9737
-4.1283 -4.6680 -2.3881 0.9737
-3.6965 -5.0169 -2.3881 0.9737
-2.7484 -5.5928 -2.3881 0.9737
-2.2397 -5.8152 -2.3881 0.9737
-1.7132 -5.9915 -2.3881 0.9737
-0.0724 -6.5002 -2.4912 0.9725
0.5064 -6.4809 -2.4912 0.9725
1.0812 -6.4101 -2.4912 0.9725
1.6475 -6.2884 -2.4912 0.9725
2.2006 -6.1168 -2.4912 0.9725
2.7363 -5.8966 -2.4912 0.9725
3.2503 -5.6297 -2.4912 0.9725
3.7385 -5.3181 -2.4912 0.9725
4.1970 -4.9642 -2.4912 0.9725
5.0107 -4.1414 -2.4912 0.9725
5.3594 -3.6790 -2.4912 0.9725
6.3064 -1.5773 -2.4912 0.9725
6.4217 -1.0098 -2.4912 0.9725
6.4630 0.1440 -2.4773 0.9727
6.4630 0.7230 -2.4922 0.9725
6.2298 1.8567 -2.4912 0.9725
5.8019 2.9318 -2.4912 0.9725
4.4140 4.7723 -2.4912 0.9725
2.9963 5.7689 -2.4912 0.9725
1.9260 6.2087 -2.4912 0.9725
0.7946 6.4519 -2.4912 0.9725
-0.3619 6.4905 -2.4912 0.9725
-1.5070 6.3235 -2.4912 0.9725
-2.4965 5.7097 -2.3881 0.9737
-2.9948 5.4648 -2.3881 0.9737
-5.0577 3.6404 -2.3881 0.9737
-8.5097 4.0647 -3.6140 0.9604
-9.9956 2.7381 -3.9716 0.9566
-5.5086 0.9924 -2.1450 0.9763
-13.9789 1.2491 -5.3783 0.9417
-5.5156 -0.0000 -2.2574 0.9764
-1.6390 -0.1465 -0.6735 0.9929
-5.0203 -2.9735 -2.3881 0.9751
-4.7357 -3.4086 -2.3881 0.9751
-4.0564 -4.1943 -2.3881 0.9751
-3.2484 -4.8470 -2.3881 0.9751
-2.3376 -5.3462 -2.3881 0.9751
-1.8525 -5.5330 -2.3881 0.9751
-1.4110 -5.9209 -2.4912 0.9740
-0.8784 -6.0230 -2.4912 0.9740
-0.3389 -6.0773 -2.4912 0.9740
0.2034 -6.0833 -2.4912 0.9740
1.2788 -5.9509 -2.4912 0.9740
3.2752 -5.1305 -2.4912 0.9740
4.1329 -4.4685 -2.4912 0.9740
4.8597 -3.6649 -2.4912 0.9740
5.6553 -2.2507 -2.4912 0.9740
6.0490 -0.6767 -2.4912 0.9740
6.0852 -0.1356 -2.4912 0.9740
6.0129 0.9455 -2.4912 0.9740
5.9048 1.4769 -2.4912 0.9740
5.5494 2.5004 -2.4912 0.9740
5.3049 2.9845 -2.4912 0.9740
4.6916 3.8777 -2.4912 0.9740
4.3279 4.2799 -2.4912 0.9740
3.9298 4.6481 -2.4912 0.9740
3.5005 4.9795 -2.4912 0.9740
3.0434 5.2713 -2.4912 0.9740
2.5621 5.5212 -2.4912 0.9740
2.0605 5.7274 -2.4912 0.9740
0.4742 6.0682 -2.4912 0.9740
-0.0678 6.0864 -2.4912 0.9740
-1.1459 5.9779 -2.4912 0.9740
-1.6041 5.6100 -2.3881 0.9751
-2.0971 5.4450 -2.3881 0.9751
-3.4611 4.6975 -2.3881 0.9751
-3.8655 4.3708 -2.3881 0.9751
-4.2392 4.0094 -2.3881 0.9751
-4.8829 3.1942 -2.3881 0.9751
-5.1478 2.7470 -2.3881 0.9751
-5.3719 2.2779 -2.3881 0.9751
-1.5889 0.5124 -0.6833 0.9928
-1.6146 0.3658 -0.6776 0.9929
-5.5099 -0.2457 -2.2573 0.9764
-1.6146 -0.3658 -0.6776 0.9929
-1.5889 -0.5124 -0.6833 0.9928
-5.1478 -2.7470 -2.3881 0.9751
-4.8829 -3.1942 -2.3881 0.9751
-4.5792 -3.6162 -2.3881 0.9751
-4.2392 -4.0094 -2.3881 0.9751
-3.8655 -4.3708 -2.3881 0.9751
-1.6041 -5.6100 -2.3881 0.9751
-1.1459 -5.9779 -2.4912 0.9740
-0.6093 -6.0562 -2.4912 0.9740
0.4742 -6.0682 -2.4912 0.9740
1.0124 -6.0020 -2.4912 0.9740
2.0605 -5.7274 -2.4912 0.9740
3.0434 -5.2713 -2.4912 0.9740
3.5005 -4.9795 -2.4912 0.9740
4.6916 -3.8778 -2.4912 0.9740
5.0182 -3.4448 -2.4912 0.9740
5.3049 -2.9845 -2.4912 0.9740
6.0129 -0.9455 -2.4912 0.9740
6.0732 -0.4065 -2.4912 0.9740
6.0490 0.6767 -2.4912 0.9740
5.9648 1.2124 -2.4912 0.9740
5.8332 1.7385 -2.4912 0.9740
5.4325 2.7452 -2.4912 0.9740
5.1666 3.2178 -2.4912 0.9740
4.8597 3.6649 -2.4912 0.9740
4.5143 4.0829 -2.4912 0.9740
4.1329 4.4685 -2.4912 0.9740
2.3136 5.6299 -2.4912 0.9740
1.8034 5.8135 -2.4912 0.9740
0.2034 6.0833 -2.4912 0.9740
-0.3389 6.0773 -2.4912 0.9740
-0.8784 6.0230 -2.4912 0.9740
-1.4110 5.9209 -2.4912 0.9740
-2.8041 5.1169 -2.3881 0.9751
-3.2484 4.8470 -2.3881 0.9751
-3.6669 4.5386 -2.3881 0.9751
-4.4136 3.8166 -2.3881 0.9751
-1.6035 0.4392 -0.6804 0.9928
-1.6200 0.2919 -0.6737 0.9929
-1.5266 0.0000 -0.6653 0.9934
-1.5015 -0.2705 -0.6649 0.9934
-1.5001 -0.4109 -0.6779 0.9932
-4.9444 -2.3618 -2.3881 0.9764
-4.7146 -2.7925 -2.3881 0.9764
-4.4473 -3.2010 -2.3881 0.9764
-4.1448 -3.5841 -2.3881 0.9764
-3.8093 -3.9388 -2.3881 0.9764
-3.0506 -4.5518 -2.3881 0.9764
-2.6334 -4.8053 -2.3881 0.9764
-0.8249 -5.6562 -2.4912 0.9754
0.1910 -5.7129 -2.4912 0.9754
1.2009 -5.5885 -2.4912 0.9754
1.6935 -5.4594 -2.4912 0.9754
2.1727 -5.2870 -2.4912 0.9754
3.0757 -4.8180 -2.4912 0.9754
3.4923 -4.5251 -2.4912 0.9754
4.5638 -3.4417 -2.4912 0.9754
5.1017 -2.5780 -2.4912 0.9754
5.4779 -1.6326 -2.4912 0.9754
5.6806 -0.6355 -2.4912 0.9754
5.7033 0.3818 -2.4912 0.9754
5.6467 0.8879 -2.4912 0.9754
5.5452 1.3870 -2.4912 0.9754
5.2115 2.3482 -2.4912 0.9754
4.9818 2.8027 -2.4912 0.9754
4.7126 3.2350 -2.4912 0.9754
4.4059 3.6416 -2.4912 0.9754
3.6904 4.3651 -2.4912 0.9754
2.8580 4.9503 -2.4912 0.9754
2.4061 5.1850 -2.4912 0.9754
1.9350 5.3786 -2.4912 0.9754
1.4487 5.5294 -2.4912 0.9754
0.9507 5.6364 -2.4912 0.9754
-0.0637 5.7157 -2.4912 0.9754
-0.5721 5.6873 -2.4912 0.9754
-1.0761 5.6139 -2.4912 0.9754
-1.9694 5.1134 -2.3881 0.9764
-2.4167 4.9178 -2.3881 0.9764
-2.8448 4.6832 -2.3881 0.9764
-4.3003 3.3959 -2.3881 0.9764
-4.5855 2.9997 -2.3881 0.9764
-4.8343 2.5797 -2.3881 0.9764
-5.0447 2.1391 -2.3881 0.9764
-1.5029 0.3405 -0.6716 0.9933
-1.5259 0.0680 -0.6657 0.9934
-1.5259 -0.0680 -0.6657 0.9934
-1.5029 -0.3405 -0.6716 0.9933
-1.4861 -0.4792 -0.6805 0.9932
-5.0447 -2.1391 -2.3881 0.9764
-4.8343 -2.5796 -2.3881 0.9764
-4.5855 -2.9997 -2.3881 0.9764
-4.3003 -3.3959 -2.3881 0.9764
-3.9810 -3.7652 -2.3881 0.9764
-3.6301 -4.1046 -2.3881 0.9764
-1.9694 -5.1134 -2.3881 0.9764
-0.0637 -5.7157 -2.4912 0.9754
0.4453 -5.6987 -2.4912 0.9754
0.9507 -5.6364 -2.4912 0.9754
1.4486 -5.5295 -2.4912 0.9754
2.4061 -5.1850 -2.4912 0.9754
2.8580 -4.9503 -2.4912 0.9754
3.2873 -4.6762 -2.4912 0.9754
3.6904 -4.3651 -2.4912 0.9754
4.0643 -4.0193 -2.4912 0.9754
4.4059 -3.6416 -2.4912 0.9754
4.9818 -2.8027 -2.4912 0.9754
5.3998 -1.8750 -2.4912 0.9754
5.5452 -1.3870 -2.4912 0.9754
5.7033 -0.3818 -2.4912 0.9754
5.7146 0.1273 -2.4912 0.9754
5.4779 1.6326 -2.4912 0.9754
5.1017 2.5780 -2.4912 0.9754
4.2393 3.8342 -2.4912 0.9754
3.8812 4.1963 -2.4912 0.9754
3.0757 4.8180 -2.4912 0.9754
2.1727 5.2870 -2.4912 0.9754
1.6935 5.4594 -2.4912 0.9754
0.6987 5.6732 -2.4912 0.9754
0.1910 5.7129 -2.4912 0.9754
-0.3182 5.7072 -2.4912 0.9754
-0.8249 5.6562 -2.4912 0.9754
-1.7396 5.1960 -2.3881 0.9764
-2.6334 4.8053 -2.3881 0.9764
-3.0506 4.5518 -2.3881 0.9764
-4.1448 3.5841 -2.3881 0.9764
-4.4473 3.2010 -2.3881 0.9764
-4.7146 2.7925 -2.3881 0.9764
-1.4219 0.0000 -0.6582 0.9938
-1.3993 -0.2521 -0.6581 0.9938
-4.8347 -1.8005 -2.3881 0.9775
-4.1873 -3.0138 -2.3881 0.9775
-3.5866 -3.7085 -2.3881 0.9775
-3.2422 -4.0130 -2.3881 0.9775
-2.8722 -4.2856 -2.3881 0.9775
-1.6379 -4.8922 -2.3881 0.9775
-1.2476 -5.2352 -2.4912 0.9766
-0.2996 -5.3734 -2.4912 0.9766
0.1798 -5.3788 -2.4912 0.9766
1.1307 -5.2617 -2.4912 0.9766
2.4806 -4.7760 -2.4912 0.9766
3.6543 -3.9510 -2.4912 0.9766
3.9914 -3.6100 -2.4912 0.9766
4.8034 -2.4272 -2.4912 0.9766
5.0003 -1.9901 -2.4912 0.9766
5.2740 -1.0720 -2.4912 0.9766
5.3484 -0.5983 -2.4912 0.9766
5.3805 -0.1199 -2.4912 0.9766
5.0840 1.7654 -2.4912 0.9766
4.9067 2.2109 -2.4912 0.9766
4.6905 2.6388 -2.4912 0.9766
4.1483 3.4286 -2.4912 0.9766
3.0951 4.4028 -2.4912 0.9766
2.2654 4.8818 -2.4912 0.9766
1.8219 5.0640 -2.4912 0.9766
1.3639 5.2061 -2.4912 0.9766
0.8951 5.3068 -2.4912 0.9766
0.4193 5.3654 -2.4912 0.9766
-0.0600 5.3815 -2.4912 0.9766
-0.5387 5.3548 -2.4912 0.9766
-1.4796 5.1744 -2.4912 0.9766
-2.2754 4.6302 -2.3881 0.9775
-2.6784 4.4093 -2.3881 0.9775
-3.4178 3.8646 -2.3881 0.9775
-3.7482 3.5450 -2.3881 0.9775
-4.3174 2.8243 -2.3881 0.9775
-1.3890 0.4479 -0.6755 0.9936
-1.3967 0.3165 -0.6629 0.9937
-1.4099 0.1896 -0.6585 0.9937
-1.4212 -0.0634 -0.6585 0.9937
-1.4099 -0.1896 -0.6585 0.9937
-1.3967 -0.3165 -0.6629 0.9937
-4.7497 -2.0140 -2.3881 0.9775
-4.0488 -3.1973 -2.3881 0.9775
-3.7482 -3.5450 -2.3881 0.9775
-3.4178 -3.8646 -2.3881 0.9775
-2.6784 -4.4093 -2.3881 0.9775
-1.8542 -4.8144 -2.3881 0.9775
-1.0132 -5.2856 -2.4912 0.9766
-0.5387 -5.3548 -2.4912 0.9766
0.4193 -5.3654 -2.4912 0.9766
1.8219 -5.0640 -2.4912 0.9766
2.6909 -4.6608 -2.4912 0.9766
3.0951 -4.4028 -2.4912 0.9766
3.4746 -4.1098 -2.4912 0.9766
4.1483 -3.4286 -2.4912 0.9766
4.4370 -3.0458 -2.4912 0.9766
4.6905 -2.6388 -2.4912 0.9766
4.9067 -2.2109 -2.4912 0.9766
5.2210 -1.3059 -2.4912 0.9766
5.3165 -0.8360 -2.4912 0.9766
5.3698 -0.3595 -2.4912 0.9766
5.3805 0.1199 -2.4912 0.9766
5.3484 0.5983 -2.4912 0.9766
5.1576 1.5371 -2.4912 0.9766
4.5683 2.8451 -2.4912 0.9766
3.9914 3.6100 -2.4912 0.9766
2.8959 4.5363 -2.4912 0.9766
2.4806 4.7760 -2.4912 0.9766
0.6579 5.3414 -2.4912 0.9766
-0.2996 5.3735 -2.4912 0.9766
-1.6379 4.8922 -2.3881 0.9775
-2.0668 4.7270 -2.3881 0.9775
-2.4794 4.5243 -2.3881 0.9775
-3.2422 4.0130 -2.3881 0.9775
-3.5866 3.7085 -2.3881 0.9775
-4.1873 3.0138 -2.3881 0.9775
-4.4389 2.6292 -2.3881 0.9775
-4.6553 2.2236 -2.3881 0.9775
-1.3367 0.0000 -0.6557 0.9941
-1.3317 -0.1190 -0.6558 0.9941
-1.3159 -0.2371 -0.6559 0.9941
-1.3061 -0.3578 -0.6642 0.9940
-1.2931 -0.4815 -0.6768 0.9939
-4.1888 -2.4810 -2.3881 0.9785
-3.9513 -2.8440 -2.3881 0.9785
-3.6825 -3.1844 -2.3881 0.9785
-3.3845 -3.4995 -2.3881 0.9785
-2.0470 -3.0543 -1.8036 0.9838
-2.3397 -4.2693 -2.3881 0.9785
-1.9504 -4.4606 -2.3881 0.9785
-1.5829 -4.7280 -2.4457 0.9780
-1.1773 -4.9402 -2.4912 0.9776
0.1697 -5.0757 -2.4912 0.9776
1.5047 -4.8505 -2.4912 0.9776
1.9304 -4.6974 -2.4912 0.9776
2.3408 -4.5069 -2.4912 0.9776
2.7327 -4.2807 -2.4912 0.9776
4.0548 -3.0579 -2.4912 0.9776
4.5327 -2.2905 -2.4912 0.9776
4.9768 -1.0116 -2.4912 0.9776
5.0773 -0.1131 -2.4912 0.9776
5.0169 0.7889 -2.4912 0.9776
4.7976 1.6659 -2.4912 0.9776
4.6302 2.0863 -2.4912 0.9776
4.4262 2.4901 -2.4912 0.9776
4.1870 2.8742 -2.4912 0.9776
3.9145 3.2355 -2.4912 0.9776
3.6110 3.5710 -2.4912 0.9776
2.9207 4.1547 -2.4912 0.9776
2.5393 4.3982 -2.4912 0.9776
1.7192 4.7787 -2.4912 0.9776
0.8447 5.0078 -2.4912 0.9776
0.3956 5.0631 -2.4912 0.9776
-0.9561 4.9878 -2.4912 0.9776
-1.3962 4.8829 -2.4912 0.9776
-1.7497 4.5431 -2.3881 0.9785
-2.5275 4.1609 -2.3881 0.9785
-2.1812 2.9604 -1.8038 0.9838
-1.3003 0.4193 -0.6702 0.9939
-1.3355 0.0596 -0.6558 0.9941
-1.3355 -0.0596 -0.6558 0.9941
-1.3251 -0.1782 -0.6559 0.9941
-1.3089 -0.2966 -0.6583 0.9940
-4.4821 -1.9006 -2.3881 0.9785
-4.0741 -2.6652 -2.3881 0.9785
-3.2252 -3.6468 -2.3881 0.9785
-2.5275 -4.1609 -2.3881 0.9785
-1.3962 -4.8829 -2.4912 0.9776
-0.0566 -5.0782 -2.4912 0.9776
0.8447 -5.0078 -2.4912 0.9776
1.2871 -4.9128 -2.4912 0.9776
2.5393 -4.3982 -2.4912 0.9776
2.9207 -4.1547 -2.4912 0.9776
3.2789 -3.8782 -2.4912 0.9776
3.6110 -3.5710 -2.4912 0.9776
4.1870 -2.8742 -2.4912 0.9776
4.7976 -1.6659 -2.4912 0.9776
4.9268 -1.2323 -2.4912 0.9776
5.0169 -0.7889 -2.4912 0.9776
5.0773 0.1131 -2.4912 0.9776
5.0471 0.5646 -2.4912 0.9776
4.0548 3.0579 -2.4912 0.9776
3.1028 4.0205 -2.4912 0.9776
2.7327 4.2807 -2.4912 0.9776
2.3408 4.5069 -2.4912 0.9776
0.1697 5.0757 -2.4912 0.9776
-0.2827 5.0707 -2.4912 0.9776
-1.1773 4.9402 -2.4912 0.9776
-2.0407 3.0449 -1.7980 0.9838
-3.0596 3.7869 -2.3881 0.9785
-3.3845 3.4995 -2.3881 0.9785
-3.9513 2.8440 -2.3881 0.9785
-4.3930 2.0983 -2.3881 0.9785
-1.2931 0.4815 -0.6768 0.9939
-1.3159 0.2371 -0.6559 0.9941
-1.2426 -0.2239 -0.6550 0.9943
-1.2283 -0.3365 -0.6607 0.9943
-3.7361 -2.6891 -2.3881 0.9795
-2.2122 -4.0368 -2.3881 0.9795
-1.8442 -4.2177 -2.3881 0.9795
-0.2673 -4.7945 -2.4912 0.9786
1.0088 -4.6948 -2.4912 0.9786
2.2133 -4.2614 -2.4912 0.9786
2.5838 -4.0475 -2.4912 0.9786
3.2606 -3.5253 -2.4912 0.9786
3.5614 -3.2211 -2.4912 0.9786
3.8339 -2.8913 -2.4912 0.9786
4.6019 -1.3715 -2.4912 0.9786
4.7722 -0.5338 -2.4912 0.9786
4.7912 0.3207 -2.4912 0.9786
4.7437 0.7459 -2.4912 0.9786
4.6584 1.1652 -2.4912 0.9786
4.5363 1.5752 -2.4912 0.9786
4.3781 1.9727 -2.4912 0.9786
4.1851 2.3545 -2.4912 0.9786
3.7013 3.0592 -2.4912 0.9786
2.4010 4.1586 -2.4912 0.9786
2.0213 4.3558 -2.4912 0.9786
1.6256 4.5184 -2.4912 0.9786
1.2170 4.6452 -2.4912 0.9786
-0.0535 4.8016 -2.4912 0.9786
-0.4807 4.7778 -2.4912 0.9786
-0.9040 4.7161 -2.4912 0.9786
-1.3202 4.6169 -2.4912 0.9786
-2.3899 3.9343 -2.3881 0.9795
-3.3444 3.1631 -2.3881 0.9795
-1.2514 0.1683 -0.6551 0.9943
-1.2613 0.0562 -0.6550 0.9943
-1.2316 -0.2790 -0.6551 0.9943
-4.2380 -1.7971 -2.3881 0.9795
-4.0612 -2.1671 -2.3881 0.9795
-3.3444 -3.1631 -2.3881 0.9795
-2.7305 -3.7059 -2.3881 0.9795
-2.3899 -3.9343 -2.3881 0.9795
-1.6544 -4.2956 -2.3881 0.9795
-0.4807 -4.7778 -2.4912 0.9786
-0.0535 -4.8017 -2.4912 0.9786
1.2170 -4.6452 -2.4912 0.9786
1.6256 -4.5184 -2.4912 0.9786
2.4010 -4.1586 -2.4912 0.9786
2.7616 -3.9284 -2.4912 0.9786
3.4144 -3.3765 -2.4912 0.9786
3.9589 -2.7177 -2.4912 0.9786
4.1851 -2.3545 -2.4912 0.9786
4.5363 -1.5752 -2.4912 0.9786
4.7912 -0.3207 -2.4912 0.9786
4.8008 0.1070 -2.4912 0.9786
4.7722 0.5338 -2.4912 0.9786
4.7057 0.9565 -2.4912 0.9786
4.6019 1.3715 -2.4912 0.9786
3.8339 2.8913 -2.4912 0.9786
3.2606 3.5253 -2.4912 0.9786
2.9338 3.8015 -2.4912 0.9786
1.4227 4.5863 -2.4912 0.9786
0.5870 4.7659 -2.4912 0.9786
-0.2673 4.7945 -2.4912 0.9786
-0.6930 4.7517 -2.4912 0.9786
-1.1132 4.6711 -2.4912 0.9786
-2.2122 4.0368 -2.3881 0.9795
-3.2001 3.3089 -2.3881 0.9795
-3.4819 3.0109 -2.3881 0.9795
-3.7361 2.6891 -2.3881 0.9795
-4.1537 1.9841 -2.3881 0.9795
-1.2162 0.4529 -0.6733 0.9942
-1.2283 0.3365 -0.6607 0.9943
-1.1899 -0.1063 -0.6543 0.9946
-1.1577 -0.3171 -0.6575 0.9945
-1.1464 -0.4269 -0.6700 0.9944
-3.9344 -1.8793 -2.3881 0.9803
-3.5388 -2.5471 -2.3881 0.9803
-3.2981 -2.8519 -2.3881 0.9803
-3.0311 -3.1342 -2.3881 0.9803
-2.0954 -3.8236 -2.3881 0.9803
-1.7468 -3.9949 -2.3881 0.9803
-1.4440 -4.3130 -2.4912 0.9795
-0.6564 -4.5007 -2.4912 0.9795
0.5560 -4.5142 -2.4912 0.9795
0.9556 -4.4468 -2.4912 0.9795
1.3476 -4.3442 -2.4912 0.9795
2.4474 -3.8338 -2.4912 0.9795
3.0884 -3.3391 -2.4912 0.9795
3.6315 -2.7386 -2.4912 0.9795
3.8608 -2.4045 -2.4912 0.9795
4.4572 -0.9060 -2.4912 0.9795
4.5472 -0.1013 -2.4912 0.9795
4.5382 0.3038 -2.4912 0.9795
4.4932 0.7065 -2.4912 0.9795
4.4124 1.1036 -2.4912 0.9795
4.1469 1.8685 -2.4912 0.9795
3.9641 2.2302 -2.4912 0.9795
3.7499 2.5741 -2.4912 0.9795
3.2340 3.1982 -2.4912 0.9795
2.9365 3.4734 -2.4912 0.9795
2.2742 3.9390 -2.4912 0.9795
1.1527 4.3999 -2.4912 0.9795
0.3543 4.5345 -2.4912 0.9795
-0.0507 4.5481 -2.4912 0.9795
-0.4553 4.5255 -2.4912 0.9795
-0.8563 4.4670 -2.4912 0.9795
-1.2504 4.3731 -2.4912 0.9795
-1.5874 4.1215 -2.4190 0.9801
-1.9230 3.9132 -2.3881 0.9803
-2.8885 3.2661 -2.3881 0.9803
-3.1677 2.9960 -2.3881 0.9803
-3.4218 2.7022 -2.3881 0.9803
-3.6488 2.3869 -2.3881 0.9803
-1.1515 0.3713 -0.6626 0.9945
-1.1933 0.0532 -0.6542 0.9946
-1.1840 -0.1592 -0.6543 0.9946
-3.4218 -2.7022 -2.3881 0.9803
-2.8885 -3.2661 -2.3881 0.9803
-2.5863 -3.5102 -2.3881 0.9803
-1.5874 -4.1215 -2.4190 0.9801
-1.2505 -4.3731 -2.4912 0.9795
-0.4553 -4.5255 -2.4912 0.9795
0.3543 -4.5345 -2.4912 0.9795
1.5397 -4.2798 -2.4912 0.9795
1.9146 -4.1258 -2.4912 0.9795
2.6157 -3.7209 -2.4912 0.9795
2.9365 -3.4734 -2.4912 0.9795
3.7499 -2.5741 -2.4912 0.9795
3.9641 -2.2302 -2.4912 0.9795
4.4932 -0.7065 -2.4912 0.9795
4.5472 0.1013 -2.4912 0.9795
4.5202 0.5056 -2.4912 0.9795
4.4572 0.9060 -2.4912 0.9795
4.0595 2.0513 -2.4912 0.9795
3.8608 2.4045 -2.4912 0.9795
3.6315 2.7386 -2.4912 0.9795
3.3733 3.0510 -2.4912 0.9795
2.7789 3.6007 -2.4912 0.9795
2.4474 3.8338 -2.4912 0.9795
1.7289 4.2070 -2.4912 0.9795
0.9556 4.4469 -2.4912 0.9795
0.5560 4.5143 -2.4912 0.9795
-0.2532 4.5413 -2.4912 0.9795
-1.0544 4.4245 -2.4912 0.9795
-1.4440 4.3130 -2.4912 0.9795
-2.0954 3.8236 -2.3881 0.9803
-2.0321 3.0321 -1.9992 0.9835
-2.7401 3.3915 -2.3881 0.9803
-3.0311 3.1341 -2.3881 0.9803
-3.2981 2.8520 -2.3881 0.9803
-3.7515 2.2220 -2.3881 0.9803
-3.9344 1.8793 -2.3881 0.9803
-1.1577 0.3171 -0.6575 0.9945
-1.1899 0.1063 -0.6543 0.9946
-1.1319 0.0000 -0.6535 0.9948
-1.1141 -0.2007 -0.6536 0.9948
-1.0827 -0.4032 -0.6671 0.9947
-3.7323 -1.7828 -2.3881 0.9811
-3.1287 -2.7055 -2.3881 0.9811
-2.8755 -2.9732 -2.3881 0.9811
-1.9878 -3.6273 -2.3881 0.9811
-1.6571 -3.7898 -2.3881 0.9811
-1.0003 -4.1973 -2.4912 0.9803
0.9065 -4.2185 -2.4912 0.9803
1.2784 -4.1211 -2.4912 0.9803
2.3217 -3.6369 -2.4912 0.9803
2.6362 -3.4158 -2.4912 0.9803
2.9298 -3.1677 -2.4912 0.9803
4.2881 -0.4797 -2.4912 0.9803
4.3137 -0.0961 -2.4912 0.9803
4.2624 0.6702 -2.4912 0.9803
4.1859 1.0470 -2.4912 0.9803
3.7605 2.1156 -2.4912 0.9803
3.3258 2.7489 -2.4912 0.9803
3.0680 3.0340 -2.4912 0.9803
2.7858 3.2950 -2.4912 0.9803
2.4814 3.5299 -2.4912 0.9803
2.1574 3.7367 -2.4912 0.9803
1.0935 4.1739 -2.4912 0.9803
-0.0481 4.3145 -2.4912 0.9803
-0.8123 4.2377 -2.4912 0.9803
-1.5508 4.0265 -2.4912 0.9803
-2.1716 2.9472 -2.1136 0.9832
-3.2461 2.5634 -2.3881 0.9811
-3.6492 1.9473 -2.3881 0.9811
-1.0769 0.4566 -0.6753 0.9946
-1.0870 0.3505 -0.6594 0.9947
-1.1039 0.2501 -0.6535 0.9948
-1.1220 0.1509 -0.6536 0.9948
-1.0870 -0.3505 -0.6594 0.9947
-3.6492 -1.9473 -2.3881 0.9811
-3.0051 -2.8422 -2.3881 0.9811
-2.7402 -3.0984 -2.3881 0.9811
-2.1474 -3.5351 -2.3881 0.9811
-1.1862 -4.1486 -2.4912 0.9803
-0.8123 -4.2377 -2.4912 0.9803
0.3361 -4.3017 -2.4912 0.9803
1.4607 -4.0600 -2.4912 0.9803
3.0680 -3.0340 -2.4912 0.9803
3.3258 -2.7489 -2.4912 0.9803
3.5573 -2.4420 -2.4912 0.9803
3.9339 -1.7725 -2.4912 0.9803
4.1859 -1.0470 -2.4912 0.9803
4.2624 -0.6702 -2.4912 0.9803
4.3052 -0.2882 -2.4912 0.9803
4.3137 0.0961 -2.4912 0.9803
4.2881 0.4797 -2.4912 0.9803
4.2283 0.8595 -2.4912 0.9803
4.1351 1.2324 -2.4912 0.9803
4.0090 1.5955 -2.4912 0.9803
3.8510 1.9460 -2.4912 0.9803
3.6626 2.2811 -2.4912 0.9803
3.2001 2.8943 -2.4912 0.9803
2.9298 3.1677 -2.4912 0.9803
2.6362 3.4158 -2.4912 0.9803
2.3217 3.6369 -2.4912 0.9803
1.6401 3.9909 -2.4912 0.9803
0.9065 4.2185 -2.4912 0.9803
0.5274 4.2824 -2.4912 0.9803
-0.2402 4.3081 -2.4912 0.9803
-1.0003 4.1973 -2.4912 0.9803
-1.3699 4.0916 -2.4912 0.9803
-1.6571 3.7898 -2.3881 0.9811
-2.5994 3.2174 -2.3881 0.9811
-2.8755 2.9732 -2.3881 0.9811
-3.1287 2.7055 -2.3881 0.9811
-3.3571 2.4163 -2.3881 0.9811
-1.0827 0.4032 -0.6671 0.9947
-1.0934 0.2995 -0.6545 0.9948
-1.1141 0.2007 -0.6536 0.9948
-1.1276 0.1008 -0.6536 0.9948
