ply
format ascii 1.0
element vertex 1394
property float32 x
property float32 y
property float32 z
property float32 I
end_header
12.0285 15.5858 3.4715 0.9231
12.0285 15.5858 3.0160 0.9234
7.0653 -15.2253 1.8024 0.9347
7.0649 -15.2245 1.4208 0.9348
11.9964 15.5442 1.6622 0.9242
12.0353 15.5945 1.2215 0.9241
7.0637 -15.2218 0.6617 0.9350
17.9263 0.3995 0.7070 0.9307
12.0353 15.5945 0.7767 0.9242
17.7860 -0.3963 0.3005 0.9313
11.4575 16.2986 0.3365 0.9234
-18.7764 6.0546 0.3332 0.9241
7.0629 -15.2202 0.2834 0.9351
17.9263 0.3995 0.3029 0.9308
12.0353 15.5945 0.3327 0.9242
17.7860 -0.3963 -0.1002 0.9313
11.4575 16.2986 -0.1122 0.9234
17.6476 -1.1814 -0.0996 0.9317
17.9263 0.3995 -0.1010 0.9308
12.0353 15.5945 -0.1109 0.9242
-18.3657 5.9222 -0.5434 0.9257
17.6476 -1.1814 -0.4980 0.9317
12.0353 15.5945 -0.5547 0.9242
-18.2294 6.7887 -0.5477 0.9251
7.0607 -15.2154 -0.8507 0.9350
17.9263 0.3995 -0.9093 0.9307
12.0353 15.5945 -0.9990 0.9241
-18.0336 6.7158 -0.9759 0.9258
17.7860 -0.3964 -1.3044 0.9311
11.4575 16.2986 -1.4608 0.9232
-9.3074 15.3221 -1.3145 0.9306
-11.4461 12.9423 -1.2668 0.9331
-14.4210 11.3881 -1.3473 0.9290
-15.3143 10.0181 -1.3418 0.9292
-17.9764 5.7966 -1.3849 0.9270
17.6476 -1.1814 -1.2969 0.9315
17.9263 0.3995 -1.3147 0.9306
-9.1931 16.7753 -1.4026 0.9261
-13.3719 11.5631 -1.2962 0.9316
-15.1732 10.9211 -1.3708 0.9278
-5.6236 -16.7968 -1.7006 0.9313
10.4619 -16.3884 -1.8666 0.9248
10.4722 -13.5692 -1.6456 0.9334
10.6059 -7.9983 -1.2753 0.9480
17.7860 -0.3963 -1.7080 0.9310
-10.9230 12.3509 -1.5829 0.9359
-13.5687 10.7151 -1.6599 0.9329
-14.6057 9.5546 -1.6756 0.9323
-5.8345 -15.1490 -1.5585 0.9368
10.4649 -14.8866 -1.7470 0.9295
10.6441 -12.5899 -1.5828 0.9359
-9.0607 13.5195 -1.5625 0.9367
-10.5791 13.0939 -1.6161 0.9346
-11.1135 11.4913 -1.5348 0.9378
-15.3735 9.1058 -1.7154 0.9307
-17.4700 6.5059 -1.7897 0.9278
-5.6157 -12.8436 -1.6651 0.9451
-5.6236 -16.7968 -2.1041 0.9311
10.4619 -16.3884 -2.3096 0.9247
10.4675 -13.5632 -2.0351 0.9333
10.4720 -11.3222 -1.8320 0.9398
10.4757 -9.4747 -1.6778 0.9447
10.5356 -3.1400 -1.3059 0.9567
17.7860 -0.3963 -2.1133 0.9308
-11.5249 10.9002 -1.8843 0.9381
-13.0505 10.3059 -1.9753 0.9352
-14.1381 9.2487 -2.0068 0.9342
-16.0772 8.5791 -2.1646 0.9292
-17.6119 5.6791 -2.1981 0.9282
7.0206 -15.1290 -1.9812 0.9350
10.4649 -14.8865 -2.1615 0.9293
10.4739 -10.3579 -1.7498 0.9424
10.5366 -2.6354 -1.2902 0.9572
17.9285 0.3995 -2.1302 0.9303
12.0353 15.5945 -2.3399 0.9237
-8.7203 13.0115 -1.8606 0.9389
-10.7553 11.1209 -1.8377 0.9396
-12.4410 10.7581 -1.9537 0.9359
-14.7448 8.7334 -2.0357 0.9333
-17.3434 6.4587 -2.1984 0.9282
-5.6157 -12.8435 -1.9861 0.9449
-3.9397 -16.5318 -2.4080 0.9336
-2.4527 -16.8168 -2.4080 0.9336
3.7233 -17.3268 -2.5111 0.9309
5.2507 -16.9266 -2.5111 0.9309
10.3825 -13.4530 -2.4078 0.9337
10.4720 -11.3222 -2.1852 0.9396
10.4757 -9.4747 -2.0013 0.9445
10.4788 -7.9024 -1.8596 0.9484
10.4815 -6.5280 -1.7496 0.9513
10.4840 -5.2978 -1.6644 0.9537
10.5356 -3.1400 -1.5577 0.9566
17.1198 1.1460 -2.4311 0.9330
16.9498 2.6652 -2.4311 0.9330
16.6453 4.1633 -2.4311 0.9330
16.2087 5.6283 -2.4311 0.9330
13.2254 10.9311 -2.4311 0.9330
12.2000 12.0648 -2.4311 0.9330
11.0777 13.1028 -2.4311 0.9330
7.1532 15.4147 -2.4078 0.9337
5.9995 16.6759 -2.5111 0.9309
1.3806 17.6684 -2.5111 0.9309
-3.1994 16.6909 -2.4080 0.9336
-9.1125 12.3676 -2.1767 0.9398
-10.1128 11.4347 -2.1629 0.9402
-11.1537 10.5491 -2.1752 0.9399
-12.6223 9.9677 -2.2789 0.9371
-13.6972 8.9603 -2.3191 0.9360
-17.4737 7.4095 -2.6892 0.9262
-17.4545 5.6283 -2.5985 0.9286
-5.6192 -14.5899 -2.2153 0.9388
-4.6722 -16.3398 -2.4080 0.9336
-3.1994 -16.6908 -2.4080 0.9336
-1.7011 -16.9094 -2.4080 0.9336
-0.1974 -17.7212 -2.5111 0.9309
1.3806 -17.6684 -2.5111 0.9309
4.4914 -17.1437 -2.5111 0.9309
7.1532 -15.4147 -2.4078 0.9337
10.4699 -12.3838 -2.2977 0.9366
10.4773 -8.6597 -1.9260 0.9466
10.4802 -7.1943 -1.8011 0.9499
10.4828 -5.8975 -1.7042 0.9526
10.6377 -4.7931 -1.6532 0.9540
13.3337 -2.0966 -1.9125 0.9469
16.8143 3.4176 -2.4311 0.9330
15.3139 7.7385 -2.4311 0.9330
14.5644 9.0708 -2.4311 0.9330
13.6992 10.3311 -2.4311 0.9330
11.6504 12.5963 -2.4311 0.9330
9.1440 14.3237 -2.4078 0.9337
7.8328 15.0808 -2.4078 0.9337
6.4744 15.7544 -2.4134 0.9335
5.2507 16.9266 -2.5111 0.9309
3.7233 17.3267 -2.5111 0.9309
2.1663 17.5894 -2.5111 0.9309
0.5922 17.7124 -2.5111 0.9309
-0.9866 17.6948 -2.5111 0.9309
-2.4527 16.8168 -2.4080 0.9336
-3.9397 16.5318 -2.4080 0.9336
-7.6830 17.5716 -2.7173 0.9254
-8.4663 12.6325 -2.1547 0.9404
-12.0166 10.3912 -2.2509 0.9378
-13.1088 9.4352 -2.2885 0.9368
-14.2033 8.4127 -2.3390 0.9355
-5.8650 -5.0716 -1.2773 0.9691
-5.6106 -10.2380 -1.9233 0.9538
-0.8486 -15.2190 -2.5111 0.9401
0.5093 -15.2341 -2.5111 0.9401
3.2023 -14.9025 -2.5111 0.9401
4.5160 -14.5583 -2.5111 0.9401
7.8646 -12.3196 -2.4078 0.9425
9.9243 -10.7300 -2.4078 0.9425
10.4757 -9.4747 -2.3269 0.9443
10.4840 -5.2978 -1.9351 0.9535
10.4862 -4.1734 -1.8593 0.9553
14.7244 0.9857 -2.4311 0.9419
14.5782 2.2923 -2.4311 0.9419
14.3163 3.5808 -2.4311 0.9419
13.9408 4.8408 -2.4311 0.9419
13.4546 6.0624 -2.4311 0.9419
12.8617 7.2358 -2.4311 0.9419
11.3749 9.4016 -2.4311 0.9419
9.4364 11.1614 -2.4078 0.9425
8.4055 11.9570 -2.4078 0.9425
7.3079 12.6577 -2.4078 0.9425
6.4161 13.8265 -2.5111 0.9401
3.8630 14.7450 -2.5111 0.9401
2.5353 15.0303 -2.5111 0.9401
1.1875 15.1963 -2.5111 0.9401
-2.7517 14.3555 -2.4080 0.9425
-7.5664 15.3973 -2.8263 0.9328
-8.8504 12.0119 -2.4580 0.9413
-10.8080 10.2221 -2.4507 0.9415
-13.1627 8.6107 -2.5912 0.9382
-14.7771 7.8853 -2.7593 0.9344
-17.1545 7.2741 -3.0696 0.9272
-5.6483 -5.3421 -1.2807 0.9690
-5.6129 -11.4220 -2.0966 0.9497
-5.2534 -13.6402 -2.4080 0.9425
-2.7517 -14.3555 -2.4080 0.9425
1.1875 -15.1963 -2.5111 0.9401
2.5353 -15.0303 -2.5111 0.9401
5.1601 -14.3427 -2.5111 0.9401
7.3079 -12.6577 -2.4078 0.9425
8.4055 -11.9570 -2.4078 0.9425
9.4364 -11.1615 -2.4078 0.9425
10.3924 -10.2773 -2.4078 0.9425
10.4872 -3.6416 -1.8289 0.9560
10.4893 -2.6236 -1.7812 0.9571
14.5782 -2.2923 -2.4311 0.9419
14.4617 2.9395 -2.4311 0.9419
13.1712 6.6557 -2.4311 0.9419
11.7825 8.8856 -2.4311 0.9419
9.9243 10.7300 -2.4078 0.9425
7.8646 12.3196 -2.4078 0.9425
5.7939 14.0986 -2.5111 0.9401
4.5160 14.5583 -2.5111 0.9401
3.2023 14.9024 -2.5111 0.9401
0.5093 15.2341 -2.5111 0.9401
-2.1095 14.4638 -2.4080 0.9425
-3.3885 14.2187 -2.4080 0.9425
-4.6406 13.8606 -2.4080 0.9425
-7.3411 16.7895 -3.0187 0.9284
-7.7578 14.1561 -2.6593 0.9367
-9.4998 11.7581 -2.4902 0.9406
-12.5060 9.0012 -2.5384 0.9394
-16.0758 7.6788 -2.9349 0.9303
-17.0087 6.3341 -2.9900 0.9291
-18.9892 5.2017 -3.2435 0.9233
-5.8650 -5.0716 -1.4574 0.9689
-5.6493 -5.8413 -1.5274 0.9675
-5.6069 -8.3660 -1.8930 0.9598
-5.1324 -11.7380 -2.4080 0.9492
-4.0673 -12.1482 -2.4080 0.9492
-2.9699 -12.4620 -2.4080 0.9492
-1.8489 -12.6769 -2.4080 0.9492
-0.7438 -13.3388 -2.5111 0.9471
0.4464 -13.3520 -2.5111 0.9471
2.8067 -13.0613 -2.5111 0.9471
3.9581 -12.7597 -2.5111 0.9471
7.8266 -10.1412 -2.4078 0.9492
8.6982 -9.4044 -2.4078 0.9492
9.5007 -8.5929 -2.4078 0.9492
10.2278 -7.7131 -2.4078 0.9492
10.4815 -6.5280 -2.3210 0.9510
10.4840 -5.2978 -2.2079 0.9533
10.4862 -4.1734 -2.1214 0.9551
10.4883 -3.1259 -2.0571 0.9564
10.4902 -2.1322 -2.0121 0.9574
12.7772 2.0091 -2.4311 0.9487
12.5476 3.1384 -2.4311 0.9487
11.7924 5.3134 -2.4311 0.9487
11.2727 6.3419 -2.4311 0.9487
10.6635 7.3201 -2.4311 0.9487
7.3671 10.4798 -2.4078 0.9492
4.5226 12.5707 -2.5111 0.9471
3.3858 12.9233 -2.5111 0.9471
2.2221 13.1734 -2.5111 0.9471
-0.1488 13.3587 -2.5111 0.9471
-2.4118 12.5820 -2.4080 0.9492
-3.5220 12.3174 -2.4080 0.9492
-4.6044 11.9550 -2.4080 0.9492
-7.1357 14.5206 -3.0411 0.9363
-7.6429 12.5818 -2.7670 0.9418
-8.6012 11.6736 -2.7255 0.9427
-10.4807 9.9125 -2.7115 0.9430
-12.4520 8.1458 -2.7968 0.9412
-14.1986 7.5766 -3.0250 0.9366
-17.2331 5.5570 -3.4034 0.9290
-5.6359 -6.3726 -1.5990 0.9660
-5.6054 -7.6077 -1.7762 0.9623
-4.6044 -11.9550 -2.4080 0.9492
-2.4118 -12.5820 -2.4080 0.9492
-1.3372 -13.2924 -2.5111 0.9471
3.3858 -12.9233 -2.5111 0.9471
4.5226 -12.5707 -2.5111 0.9471
6.4696 -11.2056 -2.4321 0.9487
9.1085 -9.0076 -2.4078 0.9492
10.4851 -4.7244 -2.1616 0.9543
10.4872 -3.6416 -2.0866 0.9558
12.9053 -0.8639 -2.4311 0.9487
12.8540 1.4379 -2.4311 0.9487
12.6750 2.5763 -2.4311 0.9487
12.3954 3.6942 -2.4311 0.9487
8.6982 9.4043 -2.4078 0.9492
7.8266 10.1412 -2.4078 0.9492
6.1577 11.8557 -2.5111 0.9471
5.0781 12.3567 -2.5111 0.9471
1.6330 13.2593 -2.5111 0.9471
-4.0672 12.1482 -2.4080 0.9492
-7.4638 13.6196 -2.9192 0.9387
-5.5245 8.2432 -1.8652 0.9604
-9.0103 11.1522 -2.6948 0.9433
-9.7963 10.1293 -2.6487 0.9443
-13.3006 7.8779 -2.9056 0.9390
-14.7466 7.0438 -3.0718 0.9356
-16.0183 5.9653 -3.2128 0.9328
-5.6950 -4.9246 -1.5915 0.9697
-5.6040 -6.9362 -1.8849 0.9642
-5.6069 -8.3660 -2.1288 0.9597
-5.4746 -9.9899 -2.4080 0.9545
-3.6166 -10.8023 -2.4080 0.9545
-1.6440 -11.2724 -2.4080 0.9545
0.3970 -11.8727 -2.5111 0.9526
1.4521 -11.7903 -2.5111 0.9526
3.5196 -11.3460 -2.5111 0.9526
4.5155 -10.9877 -2.5111 0.9526
6.9595 -9.0177 -2.4078 0.9545
7.7345 -8.3624 -2.4078 0.9545
8.4481 -7.6408 -2.4078 0.9545
9.0946 -6.8586 -2.4078 0.9545
10.4862 -4.1734 -2.3857 0.9549
10.4902 -2.1322 -2.2628 0.9572
11.4299 -1.2786 -2.4311 0.9541
11.4983 -0.2562 -2.4311 0.9541
11.1575 2.7907 -2.4311 0.9541
10.3854 4.6794 -2.4078 0.9545
9.3911 6.4466 -2.4078 0.9545
8.0993 8.0096 -2.4078 0.9545
7.3543 8.6987 -2.4078 0.9545
3.0107 11.4915 -2.5111 0.9526
1.9759 11.7139 -2.5111 0.9526
-0.1323 11.8786 -2.5111 0.9526
-5.0242 10.2239 -2.4080 0.9545
-11.0132 8.6971 -2.9663 0.9442
-11.8090 7.7251 -2.9829 0.9439
-13.7650 5.8369 -3.1604 0.9407
-5.6130 -5.3088 -1.6331 0.9689
-5.6054 -7.6076 -1.9975 0.9621
-3.1318 -10.9527 -2.4080 0.9545
-2.1446 -11.1880 -2.4080 0.9545
-1.1891 -11.8197 -2.5111 0.9526
0.9254 -11.8433 -2.5111 0.9526
1.9759 -11.7139 -2.5111 0.9526
3.0106 -11.4915 -2.5111 0.9526
4.0215 -11.1779 -2.5111 0.9526
5.9397 -10.2878 -2.5111 0.9526
8.7801 -7.2569 -2.4078 0.9545
9.9276 -5.5852 -2.4078 0.9545
10.3854 -4.6794 -2.4078 0.9545
10.4872 -3.6416 -2.3466 0.9556
11.3616 -1.7865 -2.4311 0.9541
11.4983 0.2562 -2.4311 0.9541
10.6860 4.2529 -2.4311 0.9541
10.1666 5.1374 -2.4078 0.9545
9.6690 6.0219 -2.4078 0.9545
9.0946 6.8586 -2.4078 0.9545
8.4481 7.6408 -2.4078 0.9545
6.9595 9.0177 -2.4078 0.9545
4.5155 10.9877 -2.5111 0.9526
3.5196 11.3460 -2.5111 0.9526
0.3970 11.8727 -2.5111 0.9526
-5.4746 9.9899 -2.4080 0.9545
-7.7548 11.5710 -2.9444 0.9446
-8.4654 10.4777 -2.8473 0.9464
-9.5093 9.8325 -2.8914 0.9456
-10.5809 9.1497 -2.9569 0.9444
-12.4570 7.3783 -3.0604 0.9425
-13.3351 6.3696 -3.1238 0.9414
-5.6017 -5.7922 -1.8938 0.9674
-4.9239 -8.9849 -2.4080 0.9588
-3.2528 -9.7156 -2.4080 0.9588
0.3570 -10.6784 -2.5111 0.9570
2.2447 -10.4459 -2.5111 0.9570
3.1655 -10.2046 -2.5111 0.9570
6.9564 -7.5212 -2.4078 0.9588
7.5982 -6.8722 -2.4078 0.9588
8.1797 -6.1686 -2.4078 0.9588
9.1438 -4.6206 -2.4078 0.9588
9.8182 -2.9262 -2.4078 0.9588
10.0397 -2.0407 -2.4078 0.9588
10.1815 -1.1390 -2.4078 0.9588
10.2424 -0.2283 -2.4078 0.9588
10.2221 0.6843 -2.4078 0.9588
10.1206 1.5914 -2.4078 0.9588
9.9388 2.4859 -2.4078 0.9588
9.6781 3.3606 -2.4078 0.9588
8.9289 5.0233 -2.4078 0.9588
8.4464 5.7981 -2.4078 0.9588
6.6145 7.8236 -2.4078 0.9588
5.3422 9.2529 -2.5111 0.9570
4.4974 9.6916 -2.5111 0.9570
1.7771 10.5355 -2.5111 0.9570
-1.0694 10.6306 -2.5111 0.9570
-2.8168 9.8509 -2.4080 0.9588
-3.6824 9.5611 -2.4080 0.9588
-9.4304 8.9192 -3.0506 0.9481
-11.0272 7.2137 -3.0969 0.9473
-11.7764 6.2841 -3.1371 0.9466
-12.6258 5.3538 -3.2231 0.9452
-17.9360 4.0638 -4.3222 0.9272
-5.6028 -6.3352 -1.9877 0.9658
-4.5187 -9.1954 -2.4080 0.9588
-3.6824 -9.5611 -2.4080 0.9588
-2.8168 -9.8509 -2.4080 0.9588
-1.0695 -10.6307 -2.5111 0.9570
0.8323 -10.6518 -2.5111 0.9570
1.7771 -10.5355 -2.5111 0.9570
4.4974 -9.6916 -2.5111 0.9570
5.3422 -9.2529 -2.5111 0.9570
6.6145 -7.8236 -2.4078 0.9588
8.4464 -5.7981 -2.4078 0.9588
8.9289 -5.0233 -2.4078 0.9588
9.6781 -3.3606 -2.4078 0.9588
9.9388 -2.4859 -2.4078 0.9588
10.1206 -1.5914 -2.4078 0.9588
10.2221 -0.6843 -2.4078 0.9588
10.0397 2.0407 -2.4078 0.9588
9.5188 3.7884 -2.4078 0.9588
8.6963 5.4161 -2.4078 0.9588
4.0612 9.8824 -2.5111 0.9570
3.1655 10.2046 -2.5111 0.9570
1.3060 10.6042 -2.5111 0.9570
0.3570 10.6783 -2.5111 0.9570
-0.5948 10.6677 -2.5111 0.9570
-3.2528 9.7156 -2.4080 0.9588
-9.0204 9.3270 -3.0495 0.9481
-11.3858 6.7438 -3.1101 0.9471
-12.1600 5.8084 -3.1672 0.9461
-13.2536 4.9357 -3.3239 0.9435
-15.4607 4.2352 -3.7675 0.9363
-5.9836 -2.2283 -1.6532 0.9740
-5.7615 -2.7520 -1.6532 0.9740
-5.5968 -3.3150 -1.6842 0.9735
-5.5999 -4.8424 -1.9168 0.9699
-5.6017 -5.7922 -2.0863 0.9673
-5.1776 -7.7256 -2.4080 0.9623
-3.7258 -8.5212 -2.4080 0.9623
-1.3997 -9.5968 -2.5111 0.9607
0.3241 -9.6929 -2.5111 0.9607
2.8734 -9.2629 -2.5111 0.9607
5.9253 -7.6777 -2.5111 0.9607
7.4248 -5.5994 -2.4078 0.9623
7.8937 -4.9163 -2.4078 0.9623
8.9121 -2.6561 -2.4078 0.9623
9.1132 -1.8523 -2.4078 0.9623
9.2419 -1.0339 -2.4078 0.9623
9.2787 0.6211 -2.4078 0.9623
9.1866 1.4445 -2.4078 0.9623
9.0216 2.2564 -2.4078 0.9623
8.4786 3.8203 -2.4078 0.9623
7.6669 5.2630 -2.4078 0.9623
7.1680 5.9245 -2.4078 0.9623
6.2615 7.4061 -2.5111 0.9607
4.8491 8.3990 -2.5111 0.9607
4.0823 8.7972 -2.5111 0.9607
2.4579 9.3817 -2.5111 0.9607
1.6131 9.5632 -2.5111 0.9607
0.7555 9.6688 -2.5111 0.9607
-0.9708 9.6496 -2.5111 0.9607
-2.5568 8.9418 -2.4080 0.9623
-4.1017 8.3468 -2.4080 0.9623
-4.8283 7.9486 -2.4080 0.9623
-5.5166 7.4872 -2.4080 0.9623
-7.8456 8.8711 -3.0663 0.9522
-9.3995 7.4227 -3.1011 0.9517
-10.2202 6.6857 -3.1621 0.9508
-10.8896 5.8109 -3.1958 0.9503
-11.7589 4.9862 -3.3070 0.9486
-5.8784 -2.4927 -1.6532 0.9740
-5.6332 -3.0060 -1.6532 0.9740
-5.5975 -3.6617 -1.7319 0.9727
-5.5990 -4.4215 -1.8472 0.9710
-5.6008 -5.2972 -1.9960 0.9686
-5.6028 -6.3352 -2.1898 0.9657
-3.3425 -8.6787 -2.4080 0.9623
-2.5568 -8.9418 -2.4080 0.9623
-1.7508 -9.1338 -2.4080 0.9623
-0.9708 -9.6496 -2.5111 0.9607
0.7555 -9.6688 -2.5111 0.9607
1.6131 -9.5632 -2.5111 0.9607
3.2831 -9.1257 -2.5111 0.9607
4.0823 -8.7972 -2.5111 0.9607
5.5775 -7.9340 -2.5111 0.9607
7.1680 -5.9245 -2.4078 0.9623
7.6669 -5.2630 -2.4078 0.9623
8.1049 -4.5597 -2.4078 0.9623
8.7850 -3.0505 -2.4078 0.9623
9.0216 -2.2564 -2.4078 0.9623
9.2787 -0.6211 -2.4078 0.9623
9.2419 1.0339 -2.4078 0.9623
9.1132 1.8523 -2.4078 0.9623
8.9121 2.6561 -2.4078 0.9623
7.4248 5.5993 -2.4078 0.9623
6.8970 6.2379 -2.4078 0.9623
6.4630 6.9877 -2.4645 0.9614
5.9254 7.6777 -2.5111 0.9607
2.0375 9.4819 -2.5111 0.9607
1.1855 9.6256 -2.5111 0.9607
0.3241 9.6929 -2.5111 0.9607
-3.7258 8.5212 -2.4080 0.9623
-4.4695 8.1557 -2.4080 0.9623
-5.1776 7.7256 -2.4080 0.9623
-7.4256 9.1908 -3.0593 0.9524
-8.2531 8.5337 -3.0738 0.9521
-10.5741 6.2630 -3.1820 0.9505
-5.5011 2.6276 -1.5785 0.9751
-13.5346 3.7075 -3.6334 0.9437
-5.5017 -0.4917 -1.5637 0.9773
-5.5018 -0.9912 -1.5826 0.9770
-5.5944 -2.0834 -1.6900 0.9755
-5.5968 -3.3150 -1.8415 0.9733
-5.6017 -5.7922 -2.2811 0.9671
-4.7355 -7.0658 -2.4080 0.9653
-4.0878 -7.4593 -2.4080 0.9653
-3.4077 -7.7935 -2.4080 0.9653
1.0843 -8.8036 -2.5111 0.9638
2.6280 -8.4719 -2.5111 0.9638
4.0884 -7.8717 -2.5111 0.9638
4.7728 -7.4765 -2.5111 0.9638
5.4193 -7.0221 -2.5111 0.9638
6.4630 -5.8454 -2.4670 0.9644
8.1511 -2.4293 -2.4078 0.9653
8.3349 -1.6941 -2.4078 0.9653
8.5033 -0.1895 -2.4078 0.9653
7.4128 4.1704 -2.4078 0.9653
7.0122 4.8136 -2.4078 0.9653
6.5559 5.4186 -2.4078 0.9653
3.0028 8.3463 -2.5111 0.9638
0.6910 8.8431 -2.5111 0.9638
-0.0988 8.8696 -2.5111 0.9638
-0.8879 8.8255 -2.5111 0.9638
-3.7514 7.6340 -2.4080 0.9653
-4.4160 7.2698 -2.4080 0.9653
-5.0455 6.8479 -2.4080 0.9653
-9.5156 6.2248 -3.2190 0.9538
-10.1868 5.4358 -3.2687 0.9531
-5.5014 1.2464 -1.5969 0.9768
-5.5108 0.2457 -1.5616 0.9773
-5.5017 -0.7400 -1.5715 0.9772
-5.6915 -1.8353 -1.6929 0.9754
-5.5962 -2.9862 -1.7957 0.9740
-5.5975 -3.6617 -1.8936 0.9726
-5.6008 -5.2972 -2.1824 0.9685
-4.4160 -7.2698 -2.4080 0.9653
-3.7514 -7.6340 -2.4080 0.9653
-3.0571 -7.9376 -2.4080 0.9653
-1.6013 -8.3538 -2.4080 0.9653
-0.0988 -8.8696 -2.5111 0.9638
1.4754 -8.7465 -2.5111 0.9638
3.0028 -8.3464 -2.5111 0.9638
4.4350 -7.6817 -2.5111 0.9638
5.7268 -6.7737 -2.5111 0.9638
6.3069 -6.2371 -2.5111 0.9638
6.5559 -5.4186 -2.4078 0.9653
7.0122 -4.8136 -2.4078 0.9653
7.4128 -4.1704 -2.4078 0.9653
6.7821 -3.0559 -2.1059 0.9695
8.4021 -1.3212 -2.4078 0.9653
8.4864 -0.5681 -2.4078 0.9653
8.3349 1.6941 -2.4078 0.9653
8.1511 2.4293 -2.4078 0.9653
7.9025 3.1451 -2.4078 0.9653
7.5912 3.8360 -2.4078 0.9653
7.2196 4.4964 -2.4078 0.9653
6.4630 5.8454 -2.4670 0.9644
6.0228 6.5118 -2.5111 0.9638
5.4194 7.0221 -2.5111 0.9638
3.3716 8.2043 -2.5111 0.9638
2.6280 8.4719 -2.5111 0.9638
1.0843 8.8036 -2.5111 0.9638
-0.4938 8.8563 -2.5111 0.9638
-1.2801 8.7772 -2.5111 0.9638
-1.9718 8.2742 -2.4080 0.9653
-2.7005 8.0659 -2.4080 0.9653
-3.4076 7.7935 -2.4080 0.9653
-4.0878 7.4593 -2.4080 0.9653
-4.7355 7.0658 -2.4080 0.9653
-5.3456 6.6163 -2.4080 0.9653
-7.5992 7.8575 -3.0945 0.9556
-5.5079 4.7629 -2.0614 0.9702
-5.5082 3.2625 -1.8123 0.9737
-10.5997 5.0630 -3.3255 0.9523
-12.5636 3.4415 -3.6877 0.9473
-5.5015 0.4916 -1.5636 0.9773
-18.9571 0.0000 -5.8308 0.9237
-18.9315 -1.6918 -5.8462 0.9235
-5.5944 -2.0834 -1.8362 0.9753
-5.5956 -2.6728 -1.9073 0.9744
-5.5968 -3.3150 -2.0008 0.9731
-5.5999 -4.8424 -2.2771 0.9695
-4.9200 -6.0896 -2.4080 0.9678
-4.3585 -6.5033 -2.4080 0.9678
-3.7624 -6.8655 -2.4080 0.9678
-3.1364 -7.1731 -2.4080 0.9678
-2.4855 -7.4238 -2.4080 0.9678
-1.8149 -7.6155 -2.4080 0.9678
-1.1782 -8.0785 -2.5111 0.9664
-0.4545 -8.1513 -2.5111 0.9664
0.9979 -8.1027 -2.5111 0.9664
1.7152 -7.9818 -2.5111 0.9664
2.4188 -7.7974 -2.5111 0.9664
3.7630 -7.2450 -2.5111 0.9664
4.3929 -6.8814 -2.5111 0.9664
4.9879 -6.4630 -2.5111 0.9664
5.5434 -5.9934 -2.5111 0.9664
6.0548 -5.4763 -2.5111 0.9664
6.4630 -4.8740 -2.4898 0.9667
6.6449 -4.1385 -2.4078 0.9678
6.9869 -3.5306 -2.4078 0.9678
7.5022 -2.2359 -2.4078 0.9678
7.7797 -0.8703 -2.4078 0.9678
7.8263 -0.1744 -2.4078 0.9678
7.8108 0.5229 -2.4078 0.9678
7.7333 1.2160 -2.4078 0.9678
7.1372 3.2159 -2.4078 0.9678
6.8227 3.8384 -2.4078 0.9678
5.8049 5.7405 -2.5111 0.9664
5.2709 6.2344 -2.5111 0.9664
4.6951 6.6788 -2.5111 0.9664
3.4365 7.4055 -2.5111 0.9664
2.0690 7.8974 -2.5111 0.9664
-0.0909 8.1635 -2.5111 0.9664
-4.0645 6.6910 -2.4080 0.9678
-4.6439 6.3027 -2.4080 0.9678
-5.1864 5.8644 -2.4080 0.9678
-7.4853 7.0796 -3.1690 0.9578
-8.2655 6.5272 -3.2394 0.9569
-9.6318 5.1397 -3.3579 0.9553
-10.3958 4.4082 -3.4731 0.9538
-5.5014 1.2464 -1.7350 0.9767
-18.8761 0.8417 -5.8117 0.9240
-5.5950 -2.3725 -1.8692 0.9749
-5.5962 -2.9862 -1.9510 0.9738
-5.5975 -3.6617 -2.0573 0.9724
-5.5990 -4.4215 -2.1944 0.9706
-5.6008 -5.2972 -2.3711 0.9683
-5.1864 -5.8644 -2.4080 0.9678
-3.4528 -7.0262 -2.4080 0.9678
-0.8172 -8.1229 -2.5111 0.9664
-0.0909 -8.1635 -2.5111 0.9664
0.6360 -8.1391 -2.5111 0.9664
1.3579 -8.0502 -2.5111 0.9664
2.7637 -7.6819 -2.5111 0.9664
6.2928 -5.2011 -2.5111 0.9664
6.4739 -4.4441 -2.4152 0.9677
7.5943 -1.8995 -2.4078 0.9678
7.8108 -0.5229 -2.4078 0.9678
7.7797 0.8703 -2.4078 0.9678
7.6714 1.5593 -2.4078 0.9678
7.2734 2.8947 -2.4078 0.9678
6.9869 3.5306 -2.4078 0.9678
5.5434 5.9934 -2.5111 0.9664
4.9879 6.4630 -2.5111 0.9664
3.7630 7.2450 -2.5111 0.9664
3.1032 7.5512 -2.5111 0.9664
-0.4545 8.1513 -2.5111 0.9664
-1.1782 8.0785 -2.5111 0.9664
-1.8149 7.6155 -2.4080 0.9678
-3.7624 6.8655 -2.4080 0.9678
-4.3585 6.5034 -2.4080 0.9678
-4.9200 6.0896 -2.4080 0.9678
-5.4425 5.6275 -2.4080 0.9678
-8.6012 6.1908 -3.2596 0.9566
-14.1739 2.5536 -4.4298 0.9415
-18.7787 1.6781 -5.7989 0.9241
-18.5769 0.0000 -6.1751 0.9247
-18.5325 -1.6561 -6.1849 0.9246
-5.5956 -2.6728 -2.0613 0.9742
-5.5968 -3.3150 -2.1623 0.9730
-5.4795 -4.7383 -2.4080 0.9699
-4.0330 -6.0176 -2.4080 0.9699
-2.9021 -6.6373 -2.4080 0.9699
-2.2999 -6.8693 -2.4080 0.9699
-1.6793 -7.0467 -2.4080 0.9699
-1.0902 -7.4751 -2.5111 0.9687
1.5871 -7.3856 -2.5111 0.9687
2.2381 -7.2150 -2.5111 0.9687
4.6154 -5.9803 -2.5111 0.9687
5.6026 -5.0672 -2.5111 0.9687
6.0314 -4.5485 -2.5111 0.9687
6.4748 -3.2719 -2.4115 0.9699
6.9418 -2.0689 -2.4078 0.9699
7.1987 -0.8053 -2.4078 0.9699
7.2274 0.4838 -2.4078 0.9699
7.1557 1.1252 -2.4078 0.9699
7.0271 1.7576 -2.4078 0.9699
6.6042 2.9757 -2.4078 0.9699
6.4630 3.6360 -2.4650 0.9692
5.3713 5.3118 -2.5111 0.9687
4.8772 5.7688 -2.5111 0.9687
4.3444 6.1800 -2.5111 0.9687
2.5573 7.1082 -2.5111 0.9687
1.9145 7.3076 -2.5111 0.9687
1.2565 7.4490 -2.5111 0.9687
0.5885 7.5312 -2.5111 0.9687
-0.0842 7.5538 -2.5111 0.9687
-1.4221 7.4191 -2.5111 0.9687
-3.1949 6.5015 -2.4080 0.9699
-3.7609 6.1913 -2.4080 0.9699
-4.2970 5.8320 -2.4080 0.9699
-5.2630 4.9777 -2.4080 0.9699
-7.7817 6.1452 -3.2960 0.9591
-8.4094 5.5012 -3.3403 0.9585
-10.5889 3.4145 -3.6983 0.9542
-5.5014 1.2464 -1.8750 0.9765
-18.8069 -2.5294 -6.3078 0.9231
-5.5962 -2.9862 -2.1085 0.9736
-5.5975 -3.6617 -2.2234 0.9722
-5.5990 -4.4215 -2.3715 0.9704
-4.2970 -5.8320 -2.4080 0.9699
-3.7609 -6.1913 -2.4080 0.9699
-2.6036 -6.7600 -2.4080 0.9699
-0.0842 -7.5538 -2.5111 0.9687
0.5885 -7.5312 -2.5111 0.9687
2.5573 -7.1082 -2.5111 0.9687
5.3713 -5.3118 -2.5111 0.9687
6.2280 -4.2753 -2.5111 0.9687
6.6042 -2.9757 -2.4078 0.9699
7.2274 -0.4838 -2.4078 0.9699
7.1987 0.8053 -2.4078 0.9699
7.0984 1.4428 -2.4078 0.9699
6.4123 3.9936 -2.5111 0.9687
6.0314 4.5485 -2.5111 0.9687
5.6026 5.0672 -2.5111 0.9687
5.1293 5.5458 -2.5111 0.9687
3.4819 6.7039 -2.5111 0.9687
2.8714 6.9872 -2.5111 0.9687
2.2381 7.2150 -2.5111 0.9687
1.5871 7.3856 -2.5111 0.9687
0.9234 7.4976 -2.5111 0.9687
-1.0902 7.4751 -2.5111 0.9687
-1.6793 7.0467 -2.4080 0.9699
-2.2999 6.8693 -2.4080 0.9699
-2.9021 6.6373 -2.4080 0.9699
-3.4814 6.3527 -2.4080 0.9699
-4.0330 6.0176 -2.4080 0.9699
-4.5526 5.6348 -2.4080 0.9699
-8.1026 5.8319 -3.3184 0.9588
-8.7685 5.1936 -3.3876 0.9580
-9.4804 4.5284 -3.4924 0.9567
-18.5273 1.6556 -6.1831 0.9246
-5.5968 -3.3150 -2.3262 0.9727
-5.4651 -3.9336 -2.4080 0.9718
-4.6811 -4.8402 -2.4080 0.9718
-2.6976 -6.1696 -2.4080 0.9718
-2.1378 -6.3852 -2.4080 0.9718
0.2346 -7.0179 -2.5111 0.9706
0.8583 -6.9692 -2.5111 0.9706
1.4752 -6.8651 -2.5111 0.9706
2.0804 -6.7066 -2.5111 0.9706
4.2901 -5.5589 -2.5111 0.9706
5.2078 -4.7101 -2.5111 0.9706
5.6063 -4.2279 -2.5111 0.9706
6.4738 -1.9294 -2.4157 0.9717
6.5982 -1.3412 -2.4078 0.9718
6.6914 -0.7485 -2.4078 0.9718
6.7314 -0.1500 -2.4078 0.9718
6.6744 1.0495 -2.4161 0.9717
6.5319 1.6337 -2.4078 0.9718
6.4020 2.8846 -2.5111 0.9706
6.1198 3.4429 -2.5111 0.9706
5.4124 4.4735 -2.5111 0.9706
4.5335 5.3622 -2.5111 0.9706
3.5109 6.0811 -2.5111 0.9706
1.7796 6.7926 -2.5111 0.9706
-0.0782 7.0214 -2.5111 0.9706
-0.7029 6.9866 -2.5111 0.9706
-1.3219 6.8963 -2.5111 0.9706
-3.4959 5.7550 -2.4080 0.9718
-4.4609 5.0440 -2.4080 0.9718
-4.8921 4.6269 -2.4080 0.9718
-5.2845 4.1731 -2.4080 0.9718
-9.3196 3.9518 -3.6200 0.9579
-5.5014 1.2464 -2.0172 0.9763
-13.1214 1.7647 -4.7346 0.9453
-18.4337 0.8220 -6.5986 0.9246
-5.5975 -3.6617 -2.3920 0.9720
-3.9942 -5.4210 -2.4080 0.9718
-3.4959 -5.7550 -2.4080 0.9718
-2.4201 -6.2836 -2.4080 0.9718
-1.8512 -6.4741 -2.4080 0.9718
0.5470 -7.0005 -2.5111 0.9706
2.3771 -6.6072 -2.5111 0.9706
4.0382 -5.7445 -2.5111 0.9706
4.5335 -5.3622 -2.5111 0.9706
4.9928 -4.9375 -2.5111 0.9706
6.1198 -3.4429 -2.5111 0.9706
6.4020 -2.8846 -2.5111 0.9706
6.4656 -2.2451 -2.4476 0.9713
6.5319 -1.6337 -2.4078 0.9718
6.7181 -0.4497 -2.4078 0.9718
6.7314 0.1500 -2.4078 0.9718
6.6914 0.7485 -2.4078 0.9718
6.4630 2.5722 -2.4875 0.9709
6.2671 3.1669 -2.5111 0.9706
5.2078 4.7101 -2.5111 0.9706
4.7679 5.1550 -2.5111 0.9706
4.2901 5.5589 -2.5111 0.9706
3.7783 5.9187 -2.5111 0.9706
3.2365 6.2314 -2.5111 0.9706
2.6691 6.4948 -2.5111 0.9706
0.2346 7.0179 -2.5111 0.9706
-1.5857 6.6538 -2.4461 0.9714
-2.1378 6.3852 -2.4080 0.9718
-2.6976 6.1696 -2.4080 0.9718
-3.7488 5.5935 -2.4080 0.9718
-4.2317 5.2377 -2.4080 0.9718
-5.5078 3.2622 -2.2892 0.9732
-8.9924 4.2953 -3.5638 0.9585
-5.5121 0.4925 -1.9790 0.9768
-5.5944 -2.0834 -2.2877 0.9748
-5.4064 -3.2022 -2.4080 0.9734
-4.7530 -4.1100 -2.4080 0.9734
-4.3683 -4.5168 -2.4080 0.9734
-3.4982 -5.2197 -2.4080 0.9734
-3.0198 -5.5104 -2.4080 0.9734
-1.9949 -5.9585 -2.4080 0.9734
-1.5190 -6.3741 -2.5111 0.9723
0.8010 -6.5034 -2.5111 0.9723
1.3766 -6.4063 -2.5111 0.9723
2.4907 -6.0607 -2.5111 0.9723
3.0202 -5.8150 -2.5111 0.9723
3.5258 -5.5231 -2.5111 0.9723
4.4492 -4.8104 -2.5111 0.9723
5.2316 -3.9454 -2.5111 0.9723
5.5620 -3.4641 -2.5111 0.9723
5.8483 -2.9553 -2.5111 0.9723
6.0881 -2.4230 -2.5111 0.9723
6.4213 -1.3052 -2.5111 0.9723
6.4630 -0.7230 -2.4922 0.9725
6.4630 -0.1440 -2.4773 0.9727
6.4630 0.4327 -2.4823 0.9726
6.3567 1.5899 -2.5111 0.9723
6.1900 2.1494 -2.5111 0.9723
5.9741 2.6918 -2.5111 0.9723
5.4022 3.7084 -2.5111 0.9723
5.0507 4.1745 -2.5111 0.9723
3.7684 5.3606 -2.5111 0.9723
3.2763 5.6747 -2.5111 0.9723
2.2182 6.1657 -2.5111 0.9723
0.5105 6.5327 -2.5111 0.9723
-0.0730 6.5521 -2.5111 0.9723
-1.2336 6.4354 -2.5111 0.9723
-2.2584 5.8637 -2.4080 0.9734
-2.7713 5.6394 -2.4080 0.9734
-3.2622 5.3704 -2.4080 0.9734
-4.1627 4.7069 -2.4080 0.9734
-9.5971 3.0947 -3.8643 0.9577
-5.5014 1.2464 -2.1617 0.9761
-11.8799 1.5977 -4.5936 0.9499
-18.5122 -0.8255 -7.1013 0.9237
-5.5950 -2.3725 -2.3289 0.9743
-5.5437 -2.9582 -2.4080 0.9734
-4.1627 -4.7069 -2.4080 0.9734
-3.7273 -5.0587 -2.4080 0.9734
-3.2622 -5.3704 -2.4080 0.9734
-2.7713 -5.6394 -2.4080 0.9734
-1.2336 -6.4354 -2.5111 0.9723
-0.6559 -6.5196 -2.5111 0.9723
0.5105 -6.5327 -2.5111 0.9723
1.0899 -6.4613 -2.5111 0.9723
1.6606 -6.3387 -2.5111 0.9723
2.2182 -6.1657 -2.5111 0.9723
2.7582 -5.9438 -2.5111 0.9723
4.2305 -5.0039 -2.5111 0.9723
5.0507 -4.1745 -2.5111 0.9723
5.4022 -3.7084 -2.5111 0.9723
5.7108 -3.2129 -2.5111 0.9723
6.1900 -2.1494 -2.5111 0.9723
6.3567 -1.5899 -2.5111 0.9723
6.4630 -1.0163 -2.5072 0.9724
6.4630 -0.4326 -2.4823 0.9726
6.4630 0.1440 -2.4773 0.9727
6.4630 0.7230 -2.4922 0.9725
6.0881 2.4230 -2.5111 0.9723
4.8597 4.3954 -2.5111 0.9723
3.5258 5.5231 -2.5111 0.9723
1.9414 6.2584 -2.5111 0.9723
1.3766 6.4063 -2.5111 0.9723
0.8010 6.5034 -2.5111 0.9723
-1.5190 6.3740 -2.5111 0.9723
-3.0198 5.5104 -2.4080 0.9734
-3.9489 4.8876 -2.4080 0.9734
-4.3683 4.5168 -2.4080 0.9734
-5.0999 3.6707 -2.4080 0.9734
-8.5446 4.0814 -3.6288 0.9602
-14.2379 1.2723 -5.4780 0.9406
-17.9717 0.0000 -7.3554 0.9253
-1.6390 -0.1465 -0.6735 0.9929
-1.6035 -0.4392 -0.6804 0.9928
-5.3090 -2.5359 -2.4080 0.9749
-5.0622 -2.9983 -2.4080 0.9749
-4.7752 -3.4370 -2.4080 0.9749
-4.4504 -3.8484 -2.4080 0.9749
-3.6975 -4.5765 -2.4080 0.9749
-3.2755 -4.8874 -2.4080 0.9749
-2.8275 -5.1595 -2.4080 0.9749
-2.3571 -5.3907 -2.4080 0.9749
-1.8679 -5.5791 -2.4080 0.9749
-1.4223 -5.9683 -2.5111 0.9738
-0.3416 -6.1259 -2.5111 0.9738
0.7500 -6.0894 -2.5111 0.9738
2.3321 -5.6749 -2.5111 0.9738
3.3013 -5.1715 -2.5111 0.9738
4.5503 -4.1155 -2.5111 0.9738
4.8986 -3.6942 -2.5111 0.9738
5.2079 -3.2435 -2.5111 0.9738
6.0124 -1.2221 -2.5111 0.9738
6.0974 -0.6821 -2.5111 0.9738
6.1339 -0.1367 -2.5111 0.9738
6.1217 0.4098 -2.5111 0.9738
6.0609 0.9530 -2.5111 0.9738
5.3472 3.0083 -2.5111 0.9738
4.7291 3.9087 -2.5111 0.9738
4.3625 4.3141 -2.5111 0.9738
3.9612 4.6853 -2.5111 0.9738
2.5826 5.5654 -2.5111 0.9738
1.5549 5.9351 -2.5111 0.9738
1.0205 6.0499 -2.5111 0.9738
-1.1550 6.0257 -2.5111 0.9738
-1.6175 5.6568 -2.4080 0.9749
-2.1146 5.4904 -2.4080 0.9749
-3.0545 5.0285 -2.4080 0.9749
-3.4900 4.7366 -2.4080 0.9749
-3.8977 4.4072 -2.4080 0.9749
-4.6174 3.6463 -2.4080 0.9749
-4.9236 3.2209 -2.4080 0.9749
-5.1907 2.7699 -2.4080 0.9749
-1.5889 0.5124 -0.6833 0.9928
-1.6301 0.2192 -0.6732 0.9929
-18.2593 0.8142 -7.4805 0.9240
-1.6301 -0.2192 -0.6732 0.9929
-1.6146 -0.3658 -0.6776 0.9929
-5.4166 -2.2969 -2.4080 0.9749
-4.9236 -3.2209 -2.4080 0.9749
-3.8977 -4.4072 -2.4080 0.9749
-3.0545 -5.0285 -2.4080 0.9749
-2.5949 -5.2804 -2.4080 0.9749
-0.6141 -6.1046 -2.5111 0.9738
0.4780 -6.1168 -2.5111 0.9738
1.0205 -6.0499 -2.5111 0.9738
1.5549 -5.9351 -2.5111 0.9738
2.0770 -5.7731 -2.5111 0.9738
2.5826 -5.5654 -2.5111 0.9738
3.0677 -5.3134 -2.5111 0.9738
4.3625 -4.3141 -2.5111 0.9738
4.7291 -3.9087 -2.5111 0.9738
5.3472 -3.0083 -2.5111 0.9738
5.5938 -2.5204 -2.5111 0.9738
6.1217 -0.4098 -2.5111 0.9738
6.0974 0.6821 -2.5111 0.9738
5.8798 1.7524 -2.5111 0.9738
5.4760 2.7671 -2.5111 0.9738
4.5503 4.1155 -2.5111 0.9738
3.7485 4.8571 -2.5111 0.9738
3.3014 5.1715 -2.5111 0.9738
2.8280 5.4448 -2.5111 0.9738
2.3321 5.6749 -2.5111 0.9738
1.2890 5.9985 -2.5111 0.9738
-2.8275 5.1595 -2.4080 0.9749
-3.2755 4.8874 -2.4080 0.9749
-3.6975 4.5765 -2.4080 0.9749
-4.4504 3.8484 -2.4080 0.9749
-5.3089 2.5359 -2.4080 0.9749
-1.6390 0.1465 -0.6735 0.9929
-1.5015 -0.2705 -0.6649 0.9934
-5.1778 -1.9282 -2.4080 0.9762
-4.9856 -2.3814 -2.4080 0.9762
-4.7539 -2.8157 -2.4080 0.9762
-3.0760 -4.5898 -2.4080 0.9762
-2.6553 -4.8453 -2.4080 0.9762
-0.8315 -5.7014 -2.5111 0.9752
-0.3208 -5.7528 -2.5111 0.9752
0.1925 -5.7585 -2.5111 0.9752
0.7043 -5.7185 -2.5111 0.9752
1.2105 -5.6331 -2.5111 0.9752
2.1901 -5.3293 -2.5111 0.9752
2.6557 -5.1132 -2.5111 0.9752
3.1003 -4.8565 -2.5111 0.9752
3.5202 -4.5613 -2.5111 0.9752
4.2732 -3.8649 -2.5111 0.9752
4.8908 -3.0460 -2.5111 0.9752
5.3533 -2.1306 -2.5111 0.9752
5.5217 -1.6456 -2.5111 0.9752
5.6463 -1.1477 -2.5111 0.9752
5.7260 -0.6406 -2.5111 0.9752
5.7489 0.3848 -2.5111 0.9752
5.6918 0.8950 -2.5111 0.9752
5.4429 1.8900 -2.5111 0.9752
4.7502 3.2608 -2.5111 0.9752
3.7199 4.4000 -2.5111 0.9752
3.3136 4.7136 -2.5111 0.9752
2.8809 4.9898 -2.5111 0.9752
2.4253 5.2264 -2.5111 0.9752
0.9583 5.6815 -2.5111 0.9752
0.4489 5.7442 -2.5111 0.9752
-0.0642 5.7614 -2.5111 0.9752
-1.5829 5.5359 -2.5093 0.9752
-1.9858 5.1560 -2.4080 0.9762
-3.2774 4.4482 -2.4080 0.9762
-3.6603 4.1388 -2.4080 0.9762
-4.0142 3.7966 -2.4080 0.9762
-4.8746 2.6012 -2.4080 0.9762
-1.5029 0.3405 -0.6716 0.9933
-1.5133 0.2035 -0.6654 0.9934
-1.5259 -0.0680 -0.6657 0.9934
-1.5029 -0.3405 -0.6716 0.9933
-4.8746 -2.6012 -2.4080 0.9762
-4.6237 -3.0247 -2.4080 0.9762
-4.3362 -3.4242 -2.4080 0.9762
-4.0142 -3.7966 -2.4080 0.9762
-3.6603 -4.1388 -2.4080 0.9762
-2.8685 -4.7222 -2.4080 0.9762
-2.4368 -4.9588 -2.4080 0.9762
-1.9858 -5.1560 -2.4080 0.9762
-1.0847 -5.6587 -2.5111 0.9752
-0.5767 -5.7328 -2.5111 0.9752
-0.0642 -5.7614 -2.5111 0.9752
0.4489 -5.7442 -2.5111 0.9752
2.4253 -5.2264 -2.5111 0.9752
3.3136 -4.7136 -2.5111 0.9752
4.4411 -3.6707 -2.5111 0.9752
4.7502 -3.2608 -2.5111 0.9752
5.2531 -2.3669 -2.5111 0.9752
5.4429 -1.8900 -2.5111 0.9752
5.6918 -0.8950 -2.5111 0.9752
5.7603 0.1284 -2.5111 0.9752
5.5217 1.6457 -2.5111 0.9752
5.3533 2.1306 -2.5111 0.9752
4.8908 3.0460 -2.5111 0.9752
4.6002 3.4692 -2.5111 0.9752
3.5202 4.5613 -2.5111 0.9752
3.1003 4.8565 -2.5111 0.9752
2.6557 5.1132 -2.5111 0.9752
1.7071 5.5030 -2.5111 0.9752
0.1925 5.7585 -2.5111 0.9752
-0.3208 5.7528 -2.5111 0.9752
-0.8315 5.7014 -2.5111 0.9752
-1.3357 5.6048 -2.5111 0.9752
-1.7705 5.2883 -2.4305 0.9760
-2.2135 5.0624 -2.4080 0.9762
-2.6553 4.8453 -2.4080 0.9762
-3.4723 4.2978 -2.4080 0.9762
-4.4844 3.2277 -2.4080 0.9762
-4.7539 2.8157 -2.4080 0.9762
-1.5001 0.4109 -0.6779 0.9932
-1.5015 0.2705 -0.6649 0.9934
-1.5215 0.1360 -0.6657 0.9934
-1.4172 -0.1266 -0.6586 0.9937
-1.3993 -0.2521 -0.6581 0.9938
-1.3946 -0.3820 -0.6693 0.9936
-4.8750 -1.8155 -2.4080 0.9773
-4.6941 -2.2422 -2.4080 0.9773
-4.4759 -2.6511 -2.4080 0.9773
-4.2222 -3.0389 -2.4080 0.9773
-3.2693 -4.0464 -2.4080 0.9773
-2.8961 -4.3213 -2.4080 0.9773
-2.5000 -4.5620 -2.4080 0.9773
-2.0841 -4.7664 -2.4080 0.9773
-1.6516 -4.9330 -2.4080 0.9773
-1.2576 -5.2770 -2.5111 0.9764
-0.7829 -5.3680 -2.5111 0.9764
1.1397 -5.3037 -2.5111 0.9764
1.6072 -5.1813 -2.5111 0.9764
4.0233 -3.6389 -2.5111 0.9764
4.6048 -2.8679 -2.5111 0.9764
5.0403 -2.0060 -2.5111 0.9764
5.1988 -1.5494 -2.5111 0.9764
5.3161 -1.0805 -2.5111 0.9764
5.3912 -0.6031 -2.5111 0.9764
5.4127 0.3623 -2.5111 0.9764
5.1246 1.7795 -2.5111 0.9764
4.9459 2.2285 -2.5111 0.9764
4.7279 2.6599 -2.5111 0.9764
4.4724 3.0702 -2.5111 0.9764
4.1814 3.4561 -2.5111 0.9764
3.1198 4.4379 -2.5111 0.9764
2.7124 4.6980 -2.5111 0.9764
2.2835 4.9208 -2.5111 0.9764
1.8364 5.1045 -2.5111 0.9764
0.9023 5.3492 -2.5111 0.9764
0.4226 5.4083 -2.5111 0.9764
-1.8697 4.8545 -2.4080 0.9773
-2.7008 4.4461 -2.4080 0.9773
-2.2171 3.0090 -1.7301 0.9837
-3.4463 3.8968 -2.4080 0.9773
-3.7794 3.5746 -2.4080 0.9773
-4.0826 3.2240 -2.4080 0.9773
-4.3533 2.8478 -2.4080 0.9773
-4.5895 2.4491 -2.4080 0.9773
-4.7893 2.0308 -2.4080 0.9773
-1.3890 0.4479 -0.6755 0.9936
-1.3967 0.3165 -0.6629 0.9937
-1.4212 -0.0634 -0.6585 0.9937
-1.4099 -0.1896 -0.6585 0.9937
-1.3967 -0.3165 -0.6629 0.9937
-4.7893 -2.0308 -2.4080 0.9773
-4.5895 -2.4491 -2.4080 0.9773
-4.3533 -2.8478 -2.4080 0.9773
-3.7794 -3.5746 -2.4080 0.9773
-3.0858 -4.1880 -2.4080 0.9773
-1.8697 -4.8545 -2.4080 0.9773
-1.4914 -5.2158 -2.5111 0.9764
-1.0213 -5.3278 -2.5111 0.9764
-0.5430 -5.3976 -2.5111 0.9764
-0.0604 -5.4245 -2.5111 0.9764
0.9023 -5.3492 -2.5111 0.9764
1.8364 -5.1045 -2.5111 0.9764
2.7124 -4.6980 -2.5111 0.9764
3.1198 -4.4379 -2.5111 0.9764
3.5024 -4.1427 -2.5111 0.9764
3.8572 -3.8145 -2.5111 0.9764
4.1814 -3.4560 -2.5111 0.9764
4.7279 -2.6599 -2.5111 0.9764
5.1246 -1.7795 -2.5111 0.9764
5.4127 -0.3623 -2.5111 0.9764
5.3912 0.6031 -2.5111 0.9764
5.3161 1.0805 -2.5111 0.9764
5.1988 1.5494 -2.5111 0.9764
4.8417 2.4466 -2.5111 0.9764
4.3312 3.2663 -2.5111 0.9764
3.3144 4.2946 -2.5111 0.9764
2.5004 4.8142 -2.5111 0.9764
1.1397 5.3037 -2.5111 0.9764
0.6631 5.3841 -2.5111 0.9764
0.1813 5.4218 -2.5111 0.9764
-1.6516 4.9330 -2.4080 0.9773
-2.0808 3.1048 -1.7301 0.9837
-3.6165 3.7394 -2.4080 0.9773
-3.9349 3.4027 -2.4080 0.9773
-4.4759 2.6511 -2.4080 0.9773
-1.4172 0.1266 -0.6586 0.9937
-1.3367 0.0000 -0.6557 0.9941
-1.3061 -0.3578 -0.6642 0.9940
-4.4296 -2.1158 -2.4080 0.9784
-4.2237 -2.5017 -2.4080 0.9784
-3.0851 -3.8184 -2.4080 0.9784
-2.0404 -3.0445 -1.7978 0.9838
-1.9666 -4.4978 -2.4080 0.9784
-1.1867 -4.9797 -2.5111 0.9775
1.0755 -5.0049 -2.5111 0.9775
2.3595 -4.5429 -2.5111 0.9775
3.1276 -4.0526 -2.5111 0.9775
3.4759 -3.7581 -2.5111 0.9775
3.7966 -3.4338 -2.5111 0.9775
4.0872 -3.0823 -2.5111 0.9775
4.3453 -2.7063 -2.5111 0.9775
5.0874 -0.5691 -2.5111 0.9775
5.1077 0.3419 -2.5111 0.9775
4.6672 2.1029 -2.5111 0.9775
3.9458 3.2613 -2.5111 0.9775
3.6399 3.5996 -2.5111 0.9775
3.3051 3.9092 -2.5111 0.9775
1.7330 4.8169 -2.5111 0.9775
1.2974 4.9520 -2.5111 0.9775
0.8515 5.0478 -2.5111 0.9775
0.3988 5.1036 -2.5111 0.9775
-0.5124 5.0934 -2.5111 0.9775
-1.4074 4.9219 -2.5111 0.9775
-2.1819 2.9612 -1.8043 0.9837
-3.2521 3.6772 -2.4080 0.9784
-3.8526 3.0423 -2.4080 0.9784
-4.1081 2.6874 -2.4080 0.9784
-4.3309 2.3111 -2.4080 0.9784
-4.5195 1.9164 -2.4080 0.9784
-4.5195 -1.9164 -2.4080 0.9784
-2.9119 -3.9521 -2.4080 0.9784
-2.1651 -4.4057 -2.4080 0.9784
-1.4074 -4.9219 -2.5111 0.9775
-0.9637 -5.0276 -2.5111 0.9775
-0.5124 -5.0934 -2.5111 0.9775
-0.0570 -5.1188 -2.5111 0.9775
0.3988 -5.1036 -2.5111 0.9775
1.2974 -4.9520 -2.5111 0.9775
1.7330 -4.8169 -2.5111 0.9775
2.9440 -4.1879 -2.5111 0.9775
3.6399 -3.5996 -2.5111 0.9775
4.2204 -2.8972 -2.5111 0.9775
4.4615 -2.5100 -2.5111 0.9775
4.6672 -2.1030 -2.5111 0.9775
4.9662 -1.2421 -2.5111 0.9775
5.1179 0.1140 -2.5111 0.9775
4.9059 1.4621 -2.5111 0.9775
4.7563 1.8929 -2.5111 0.9775
4.5689 2.3088 -2.5111 0.9775
4.3453 2.7063 -2.5111 0.9775
4.0872 3.0823 -2.5111 0.9775
3.7966 3.4338 -2.5111 0.9775
1.9458 4.7349 -2.5111 0.9775
1.5167 4.8893 -2.5111 0.9775
0.6258 5.0807 -2.5111 0.9775
0.1711 5.1163 -2.5111 0.9775
-0.2850 5.1112 -2.5111 0.9775
-1.1867 4.9797 -2.5111 0.9775
-1.5850 4.7342 -2.4489 0.9780
-1.9666 4.4978 -2.4080 0.9784
-2.3592 4.3049 -2.4080 0.9784
-3.0851 3.8184 -2.4080 0.9784
-3.4127 3.5287 -2.4080 0.9784
-3.7132 3.2109 -2.4080 0.9784
-4.2237 2.5017 -2.4080 0.9784
-4.4296 2.1158 -2.4080 0.9784
-1.3159 0.2371 -0.6559 0.9941
-1.3317 0.1190 -0.6558 0.9941
-1.2624 0.0000 -0.6549 0.9943
-1.2576 -0.1124 -0.6550 0.9943
-1.2283 -0.3365 -0.6607 0.9943
-1.2162 -0.4529 -0.6733 0.9942
-3.9936 -2.3654 -2.4080 0.9793
-3.5110 -3.0361 -2.4080 0.9793
-2.9170 -3.6105 -2.4080 0.9793
-1.8595 -4.2528 -2.4080 0.9793
-1.5367 -4.5899 -2.5111 0.9784
-0.6986 -4.7897 -2.5111 0.9784
1.4341 -4.6230 -2.5111 0.9784
2.2310 -4.2955 -2.5111 0.9784
2.6045 -4.0799 -2.5111 0.9784
2.9573 -3.8319 -2.5111 0.9784
3.2866 -3.5534 -2.5111 0.9784
4.3201 -2.1830 -2.5111 0.9784
4.4972 -1.7899 -2.5111 0.9784
4.7816 0.7519 -2.5111 0.9784
4.5725 1.5878 -2.5111 0.9784
3.4416 3.4035 -2.5111 0.9784
2.7837 3.9598 -2.5111 0.9784
2.0375 4.3906 -2.5111 0.9784
0.8051 4.7729 -2.5111 0.9784
-0.0539 4.8400 -2.5111 0.9784
-1.6682 4.3315 -2.4080 0.9793
-2.4098 3.9670 -2.4080 0.9793
-3.3722 3.1895 -2.4080 0.9793
-3.6427 2.8766 -2.4080 0.9793
-3.8843 2.5410 -2.4080 0.9793
-4.0951 2.1852 -2.4080 0.9793
-1.2316 0.2790 -0.6551 0.9943
-1.2613 0.0562 -0.6550 0.9943
-1.2613 -0.0562 -0.6550 0.9943
-1.2514 -0.1683 -0.6551 0.9943
-4.2733 -1.8120 -2.4080 0.9793
-3.8843 -2.5410 -2.4080 0.9793
-3.3722 -3.1894 -2.4080 0.9793
-3.0750 -3.4769 -2.4080 0.9793
-2.4098 -3.9670 -2.4080 0.9793
-1.3307 -4.6538 -2.5111 0.9784
-0.4845 -4.8160 -2.5111 0.9784
0.8051 -4.7729 -2.5111 0.9784
1.2267 -4.6823 -2.5111 0.9784
1.6386 -4.5545 -2.5111 0.9784
2.0375 -4.3906 -2.5111 0.9784
2.7837 -3.9598 -2.5111 0.9784
3.7309 -3.0837 -2.5111 0.9784
4.6957 -1.1745 -2.5111 0.9784
4.7816 -0.7519 -2.5111 0.9784
4.8391 0.1079 -2.5111 0.9784
4.8103 0.5381 -2.5111 0.9784
4.6387 1.3825 -2.5111 0.9784
4.3201 2.1830 -2.5111 0.9784
4.1086 2.5589 -2.5111 0.9784
3.8646 2.9144 -2.5111 0.9784
3.5898 3.2468 -2.5111 0.9784
2.9573 3.8319 -2.5111 0.9784
2.6045 4.0799 -2.5111 0.9784
2.2310 4.2955 -2.5111 0.9784
1.4341 4.6230 -2.5111 0.9784
0.5917 4.8040 -2.5111 0.9784
-0.6986 4.7896 -2.5111 0.9784
-1.1221 4.7085 -2.5111 0.9784
-1.5367 4.5899 -2.5111 0.9784
-2.0372 3.0398 -1.8984 0.9836
-3.2268 3.3365 -2.4080 0.9793
-3.5110 3.0361 -2.4080 0.9793
-1.2576 0.1124 -0.6550 0.9943
-1.1899 -0.1063 -0.6543 0.9946
-1.1464 -0.4269 -0.6700 0.9944
-3.9671 -1.8949 -2.4080 0.9801
-3.5683 -2.5683 -2.4080 0.9801
-2.7630 -3.4198 -2.4080 0.9801
-2.0404 -3.0445 -2.0074 0.9834
-1.4556 -4.3475 -2.5111 0.9793
-1.0628 -4.4598 -2.5111 0.9793
-0.2552 -4.5776 -2.5111 0.9793
2.1132 -4.0686 -2.5111 0.9793
2.4670 -3.8644 -2.5111 0.9793
2.8011 -3.6295 -2.5111 0.9793
3.4003 -3.0754 -2.5111 0.9793
3.6605 -2.7605 -2.5111 0.9793
4.0919 -2.0677 -2.5111 0.9793
4.3937 -1.3095 -2.5111 0.9793
4.4928 -0.9132 -2.5111 0.9793
4.5836 -0.1021 -2.5111 0.9793
3.9958 2.2480 -2.5111 0.9793
3.7798 2.5947 -2.5111 0.9793
3.2599 3.2238 -2.5111 0.9793
2.6366 3.7507 -2.5111 0.9793
2.2924 3.9705 -2.5111 0.9793
0.7626 4.5208 -2.5111 0.9793
-0.0511 4.5844 -2.5111 0.9793
-0.8631 4.5027 -2.5111 0.9793
-1.2604 4.4080 -2.5111 0.9793
-1.5908 4.1303 -2.4242 0.9800
-1.9390 3.9458 -2.4080 0.9801
-2.9126 3.2933 -2.4080 0.9801
-3.1942 3.0210 -2.4080 0.9801
-3.8788 2.0698 -2.4080 0.9801
-1.1515 0.3713 -0.6626 0.9945
-1.1649 0.2639 -0.6542 0.9946
-1.1840 0.1592 -0.6543 0.9946
-1.1933 0.0532 -0.6542 0.9946
-1.1649 -0.2639 -0.6542 0.9946
-1.1515 -0.3713 -0.6626 0.9945
-1.1411 -0.4838 -0.6788 0.9944
-3.8788 -2.0698 -2.4080 0.9801
-2.6079 -3.5395 -2.4080 0.9801
-1.5908 -4.1303 -2.4242 0.9800
-0.0511 -4.5844 -2.5111 0.9793
0.7626 -4.5209 -2.5111 0.9793
1.5521 -4.3140 -2.5111 0.9793
1.9299 -4.1588 -2.5111 0.9793
2.2924 -3.9705 -2.5111 0.9793
2.9600 -3.5011 -2.5111 0.9793
3.9958 -2.2480 -2.5111 0.9793
4.3310 -1.5039 -2.5111 0.9793
4.5291 -0.7122 -2.5111 0.9793
4.5745 -0.3062 -2.5111 0.9793
4.5836 0.1021 -2.5111 0.9793
4.5563 0.5097 -2.5111 0.9793
4.4928 0.9132 -2.5111 0.9793
4.3937 1.3095 -2.5111 0.9793
4.0919 2.0677 -2.5111 0.9793
3.8917 2.4237 -2.5111 0.9793
3.4003 3.0754 -2.5111 0.9793
2.8011 3.6295 -2.5111 0.9793
1.7427 4.2406 -2.5111 0.9793
1.3583 4.3789 -2.5111 0.9793
0.5604 4.5503 -2.5111 0.9793
-0.6617 4.5367 -2.5111 0.9793
-1.0628 4.4598 -2.5111 0.9793
-2.1129 3.8555 -2.4080 0.9801
-2.7630 3.4198 -2.4080 0.9801
-3.3256 2.8757 -2.4080 0.9801
-3.5683 2.5683 -2.4080 0.9801
-3.7827 2.2405 -2.4080 0.9801
-3.9671 1.8949 -2.4080 0.9801
-1.1464 0.4269 -0.6700 0.9944
-1.1899 0.1063 -0.6543 0.9946
-1.1141 -0.2007 -0.6536 0.9948
-1.0934 -0.2995 -0.6545 0.9948
-3.1548 -2.7280 -2.4080 0.9809
-2.8995 -2.9980 -2.4080 0.9809
-2.0404 -3.0445 -2.1160 0.9832
-2.0044 -3.6575 -2.4080 0.9809
-1.6709 -3.8214 -2.4080 0.9809
-1.3808 -4.1243 -2.5111 0.9801
-0.2421 -4.3425 -2.5111 0.9801
0.5316 -4.3167 -2.5111 0.9801
1.2886 -4.1540 -2.5111 0.9801
1.6532 -4.0229 -2.5111 0.9801
2.3403 -3.6660 -2.5111 0.9801
2.6573 -3.4431 -2.5111 0.9801
2.9532 -3.1929 -2.5111 0.9801
3.4725 -2.6187 -2.5111 0.9801
3.6918 -2.2993 -2.5111 0.9801
4.0410 -1.6083 -2.5111 0.9801
4.2621 -0.8663 -2.5111 0.9801
4.3482 -0.0969 -2.5111 0.9801
4.2193 1.0553 -2.5111 0.9801
4.1086 1.4267 -2.5111 0.9801
3.0925 3.0582 -2.5111 0.9801
2.8080 3.3213 -2.5111 0.9801
2.1746 3.7666 -2.5111 0.9801
1.8308 3.9452 -2.5111 0.9801
1.4724 4.0925 -2.5111 0.9801
1.1023 4.2073 -2.5111 0.9801
0.7234 4.2887 -2.5111 0.9801
0.3388 4.3361 -2.5111 0.9801
-0.0485 4.3490 -2.5111 0.9801
-0.4353 4.3274 -2.5111 0.9801
-0.8188 4.2715 -2.5111 0.9801
-1.5632 4.0587 -2.5111 0.9801
-1.8395 3.7432 -2.4080 0.9809
-2.1653 3.5646 -2.4080 0.9809
-2.1722 2.9481 -2.1142 0.9832
-3.2732 2.5848 -2.4080 0.9809
-3.4903 2.2832 -2.4080 0.9809
-3.6796 1.9635 -2.4080 0.9809
-1.0769 0.4566 -0.6753 0.9946
-1.1039 0.2501 -0.6535 0.9948
-1.1220 0.1509 -0.6536 0.9948
-1.1309 -0.0504 -0.6536 0.9948
-1.1039 -0.2501 -0.6535 0.9948
-1.0870 -0.3505 -0.6594 0.9947
-3.0301 -2.8659 -2.4080 0.9809
-2.7630 -3.1242 -2.4080 0.9809
-2.1653 -3.5646 -2.4080 0.9809
-1.1957 -4.1817 -2.5111 0.9801
-0.0485 -4.3490 -2.5111 0.9801
0.3388 -4.3361 -2.5111 0.9801
1.1023 -4.2073 -2.5111 0.9801
1.4724 -4.0925 -2.5111 0.9801
1.8308 -3.9452 -2.5111 0.9801
3.0925 -3.0582 -2.5111 0.9801
3.5857 -2.4615 -2.5111 0.9801
3.7906 -2.1325 -2.5111 0.9801
4.1086 -1.4267 -2.5111 0.9801
4.2193 -1.0553 -2.5111 0.9801
4.2965 -0.6756 -2.5111 0.9801
4.3396 -0.2905 -2.5111 0.9801
4.2621 0.8663 -2.5111 0.9801
3.6918 2.2993 -2.5111 0.9801
1.6532 4.0228 -2.5111 0.9801
0.5316 4.3167 -2.5111 0.9801
0.1453 4.3469 -2.5111 0.9801
-0.2421 4.3425 -2.5111 0.9801
-1.0083 4.2308 -2.5111 0.9801
-1.6709 3.8214 -2.4080 0.9809
-2.0044 3.6575 -2.4080 0.9809
-2.0285 3.0268 -2.1037 0.9833
-2.6211 3.2442 -2.4080 0.9809
-3.3851 2.4364 -2.4080 0.9809
-3.7634 1.7977 -2.4080 0.9809
-1.0827 0.4032 -0.6671 0.9947
-1.0934 0.2995 -0.6545 0.9948
-1.1141 0.2007 -0.6536 0.9948
