ply
format ascii 1.0
element vertex 1429
property float32 x
property float32 y
property float32 z
property float32 I
end_header
12.0285 15.5858 3.4715 0.9231
7.0660 -15.2269 2.5716 0.9343
7.0653 -15.2253 1.8024 0.9347
11.9964 15.5442 1.6622 0.9242
7.0637 -15.2219 0.6617 0.9350
11.4575 16.2986 0.3365 0.9234
-18.7772 6.0549 0.3333 0.9241
7.0629 -15.2202 0.2834 0.9351
12.0353 15.5945 0.3327 0.9242
-18.6345 6.9395 0.3359 0.9235
17.7860 -0.3963 -0.1002 0.9313
11.4575 16.2986 -0.1122 0.9234
-18.5831 5.9922 -0.1099 0.9249
7.0622 -15.2186 -0.0945 0.9351
17.6476 -1.1814 -0.0996 0.9317
-18.4209 6.8600 -0.1107 0.9244
17.7860 -0.3964 -0.5009 0.9313
-18.3670 5.9226 -0.5434 0.9257
7.0614 -15.2170 -0.4724 0.9351
12.0353 15.5945 -0.5547 0.9242
-18.2301 6.7890 -0.5478 0.9251
11.4575 16.2986 -1.0104 0.9233
-18.1077 5.8390 -0.9649 0.9266
17.9263 0.3995 -0.9093 0.9307
17.7860 -0.3964 -1.3044 0.9311
-9.3092 15.3250 -1.3147 0.9306
-11.4566 12.9542 -1.2680 0.9330
-12.6779 11.9907 -1.2795 0.9324
-15.3177 10.0204 -1.3421 0.9292
7.0599 -15.2138 -1.2298 0.9349
12.0353 15.5945 -1.4443 0.9240
-9.1949 16.7785 -1.4029 0.9261
-9.7634 14.5680 -1.2859 0.9321
-13.3740 11.5650 -1.2964 0.9315
-15.1766 10.9235 -1.3711 0.9277
-16.0623 9.5137 -1.3688 0.9279
10.4732 -13.5705 -1.6457 0.9334
17.7860 -0.3963 -1.7080 0.9310
-8.6430 17.5879 -1.8814 0.9243
-9.7386 13.2173 -1.5762 0.9362
-13.5724 10.7180 -1.6603 0.9329
-14.6079 9.5561 -1.6759 0.9323
-16.8162 8.9734 -1.8299 0.9263
-18.0135 7.6383 -1.8784 0.9244
-17.8437 5.7538 -1.8000 0.9274
7.0592 -15.2122 -1.6100 0.9348
10.4649 -14.8866 -1.7470 0.9295
17.6476 -1.1813 -1.6981 0.9314
12.0353 15.5945 -1.8912 0.9239
-10.5810 13.0962 -1.6164 0.9346
-11.1154 11.4933 -1.5350 0.9378
-12.8960 11.1516 -1.6368 0.9338
-15.3765 9.1075 -1.7157 0.9307
-17.6030 8.4082 -1.8729 0.9246
-17.4714 6.5064 -1.7899 0.9278
-5.6582 -10.3248 -1.3985 0.9537
10.4619 -16.3884 -2.3096 0.9247
10.4720 -11.3222 -1.8320 0.9398
10.4757 -9.4747 -1.6778 0.9447
10.5261 -7.9381 -1.5661 0.9483
10.5356 -3.1400 -1.3059 0.9567
17.7860 -0.3963 -2.1133 0.9308
-9.3964 12.7529 -1.8817 0.9382
-11.5269 10.9020 -1.8846 0.9381
-13.0526 10.3075 -1.9756 0.9352
-14.1403 9.2502 -2.0071 0.9342
-16.0803 8.5807 -2.1651 0.9292
-17.7797 7.5392 -2.2940 0.9252
-17.6132 5.6795 -2.1983 0.9282
7.0207 -15.1291 -1.9812 0.9350
10.4997 -8.6783 -1.6181 0.9466
10.5346 -3.6580 -1.3247 0.9561
10.5366 -2.6354 -1.2902 0.9572
17.9284 0.3995 -2.1302 0.9303
-8.7216 13.0135 -1.8609 0.9388
-10.2001 12.6248 -1.9280 0.9367
-10.7571 11.1227 -1.8380 0.9396
-12.4431 10.7599 -1.9541 0.9359
-14.7476 8.7350 -2.0360 0.9333
-17.6144 8.4137 -2.3188 0.9244
-5.6157 -12.8435 -1.9861 0.9449
-3.9427 -16.5444 -2.4098 0.9336
-2.4545 -16.8296 -2.4098 0.9336
-0.9874 -17.7078 -2.5129 0.9309
0.5926 -17.7254 -2.5129 0.9309
2.1679 -17.6022 -2.5129 0.9309
10.3905 -13.4633 -2.4096 0.9336
10.4815 -6.5280 -1.7496 0.9513
10.4840 -5.2978 -1.6644 0.9537
10.7798 -4.2903 -1.6439 0.9542
10.5356 -3.1400 -1.5577 0.9566
17.0646 -1.9090 -2.4330 0.9330
14.1565 9.7179 -2.4330 0.9330
12.2092 12.0739 -2.4330 0.9330
9.7804 13.9128 -2.4096 0.9336
8.5033 14.7281 -2.4096 0.9336
6.0039 16.6881 -2.5129 0.9309
2.9499 17.4882 -2.5129 0.9309
1.3816 17.6814 -2.5129 0.9309
-0.1976 17.7342 -2.5129 0.9309
-4.6758 16.3523 -2.4098 0.9336
-7.8980 16.0719 -2.5373 0.9302
-8.2513 13.5835 -2.2519 0.9378
-9.1139 12.3695 -2.1770 0.9398
-11.1555 10.5508 -2.1756 0.9399
-13.6993 8.9617 -2.3195 0.9360
-15.4029 8.2193 -2.4737 0.9319
-5.6129 -11.4220 -1.8032 0.9499
-4.6758 -16.3523 -2.4098 0.9336
-3.2018 -16.7036 -2.4098 0.9336
-1.7024 -16.9223 -2.4098 0.9336
-0.1976 -17.7342 -2.5129 0.9309
6.0039 -16.6881 -2.5129 0.9309
7.1586 -15.4265 -2.4096 0.9336
8.5033 -14.7281 -2.4096 0.9336
9.7804 -13.9128 -2.4096 0.9336
10.4699 -12.3838 -2.2977 0.9366
10.4828 -5.8975 -1.7042 0.9526
10.5330 -3.6575 -1.5798 0.9560
16.4558 4.9043 -2.4330 0.9330
15.9540 6.3495 -2.4330 0.9330
13.7096 10.3389 -2.4330 0.9330
11.6592 12.6058 -2.4330 0.9330
9.1509 14.3347 -2.4096 0.9336
6.4748 15.7555 -2.4135 0.9335
5.2545 16.9390 -2.5129 0.9309
3.7260 17.3395 -2.5129 0.9309
2.1679 17.6023 -2.5129 0.9309
0.5926 17.7254 -2.5129 0.9309
-0.9874 17.7078 -2.5129 0.9309
-2.4545 16.8296 -2.4098 0.9336
-8.0781 14.7406 -2.3816 0.9343
-9.8438 12.1838 -2.2194 0.9387
-10.4194 10.7736 -2.1236 0.9412
-12.0187 10.3930 -2.2513 0.9378
-14.2055 8.4139 -2.3393 0.9355
-16.8089 8.0289 -2.6394 0.9275
-5.6069 -8.3660 -1.6591 0.9600
-5.6106 -10.2380 -1.9233 0.9538
-5.6157 -12.8436 -2.3092 0.9448
-3.3911 -14.2295 -2.4098 0.9424
1.8646 -15.1394 -2.5129 0.9400
3.2047 -14.9134 -2.5129 0.9400
4.5193 -14.5689 -2.5129 0.9400
6.7420 -12.9806 -2.4096 0.9424
8.9367 -11.5796 -2.4096 0.9424
9.9318 -10.7382 -2.4096 0.9424
10.4815 -6.5280 -2.0342 0.9512
10.4840 -5.2978 -1.9351 0.9535
14.6770 -1.6419 -2.4330 0.9419
14.7649 -0.3290 -2.4330 0.9419
14.7355 0.9864 -2.4330 0.9419
14.3272 3.5835 -2.4330 0.9419
13.9514 4.8444 -2.4330 0.9419
12.8714 7.2413 -2.4330 0.9419
11.3835 9.4087 -2.4330 0.9419
9.4436 11.1700 -2.4096 0.9424
8.4120 11.9662 -2.4096 0.9424
6.4208 13.8366 -2.5129 0.9400
3.8658 14.7558 -2.5129 0.9400
2.5372 15.0413 -2.5129 0.9400
-9.7992 11.0801 -2.4368 0.9418
-10.8098 10.2238 -2.4511 0.9415
-12.2208 9.6506 -2.5653 0.9388
-13.1665 8.6131 -2.5919 0.9382
-14.7800 7.8868 -2.7598 0.9343
-17.3942 5.6089 -3.0108 0.9286
-5.6483 -5.3421 -1.2807 0.9690
-5.9593 -8.0880 -1.6550 0.9601
-5.6086 -9.2330 -1.7797 0.9572
-5.2574 -13.6506 -2.4098 0.9424
-0.1699 -15.2529 -2.5129 0.9400
1.1883 -15.2074 -2.5129 0.9400
5.1638 -14.3532 -2.5129 0.9400
8.4120 -11.9662 -2.4096 0.9424
9.4436 -11.1700 -2.4096 0.9424
10.4003 -10.2851 -2.4096 0.9424
10.4802 -7.1943 -2.0941 0.9498
10.4828 -5.8975 -1.9815 0.9524
10.4851 -4.7244 -1.8945 0.9544
10.4872 -3.6416 -1.8289 0.9560
10.4893 -2.6236 -1.7812 0.9571
14.5893 -2.2941 -2.4330 0.9419
14.7649 0.3290 -2.4330 0.9419
14.6770 1.6419 -2.4330 0.9419
14.1533 4.2181 -2.4330 0.9419
13.7217 5.4611 -2.4330 0.9419
13.1812 6.6607 -2.4330 0.9419
12.5360 7.8075 -2.4330 0.9419
11.7914 8.8923 -2.4330 0.9419
10.9531 9.9065 -2.4330 0.9419
8.9367 11.5796 -2.4096 0.9424
7.8706 12.3290 -2.4096 0.9424
6.7420 12.9806 -2.4096 0.9424
5.7981 14.1089 -2.5129 0.9400
3.2047 14.9134 -2.5129 0.9400
1.8646 15.1394 -2.5129 0.9400
0.5097 15.2453 -2.5129 0.9400
-2.1111 14.4749 -2.4098 0.9424
-8.2264 12.2747 -2.4343 0.9419
-10.1003 10.4436 -2.3935 0.9428
-13.7697 8.1558 -2.6365 0.9372
-16.0789 7.6803 -2.9355 0.9303
-17.0094 6.3343 -2.9901 0.9291
-18.9898 5.2018 -3.2436 0.9233
-5.8650 -5.0716 -1.4574 0.9689
-5.6040 -6.9362 -1.6761 0.9644
-5.6069 -8.3660 -1.8930 0.9598
-5.6106 -10.2380 -2.1944 0.9536
-4.0704 -12.1575 -2.4098 0.9492
-2.9721 -12.4715 -2.4098 0.9492
1.6342 -13.2690 -2.5129 0.9470
2.8088 -13.0709 -2.5129 0.9470
5.0818 -12.3658 -2.5129 0.9470
6.1622 -11.8644 -2.5129 0.9470
7.8326 -10.1490 -2.4096 0.9492
9.5079 -8.5994 -2.4096 0.9492
10.2356 -7.7190 -2.4096 0.9492
10.4815 -6.5280 -2.3210 0.9510
10.4840 -5.2978 -2.2079 0.9533
10.4862 -4.1734 -2.1214 0.9551
10.4883 -3.1259 -2.0571 0.9564
10.4902 -2.1322 -2.0121 0.9574
12.8637 -1.4390 -2.4330 0.9487
12.9150 0.8646 -2.4330 0.9487
12.7868 2.0106 -2.4330 0.9487
12.5571 3.1407 -2.4330 0.9487
12.2277 4.2459 -2.4330 0.9487
11.8013 5.3174 -2.4330 0.9487
11.2812 6.3467 -2.4330 0.9487
10.6715 7.3256 -2.4330 0.9487
7.3727 10.4878 -2.4096 0.9492
-0.1489 13.3684 -2.5129 0.9470
-2.4136 12.5916 -2.4098 0.9492
-4.6079 11.9641 -2.4098 0.9492
-7.6444 12.5843 -2.7676 0.9418
-8.6025 11.6754 -2.7259 0.9427
-11.7045 9.2429 -2.8032 0.9411
-15.3839 6.5234 -3.1408 0.9343
-17.2440 5.5605 -3.4056 0.9289
-5.6483 -5.3421 -1.4613 0.9689
-5.6373 -6.3742 -1.5994 0.9660
-5.6054 -7.6077 -1.7762 0.9623
-5.6086 -9.2330 -2.0305 0.9570
-5.6129 -11.4220 -2.3921 0.9495
-4.6079 -11.9641 -2.4098 0.9492
-0.1489 -13.3684 -2.5129 0.9470
1.0415 -13.3286 -2.5129 0.9470
2.2237 -13.1830 -2.5129 0.9470
4.5259 -12.5799 -2.5129 0.9470
7.3727 -10.4878 -2.4096 0.9492
8.2769 -9.7900 -2.4096 0.9492
9.1154 -9.0144 -2.4096 0.9492
9.8816 -8.1673 -2.4096 0.9492
10.4802 -7.1943 -2.3893 0.9496
10.4828 -5.8975 -2.2608 0.9522
10.4851 -4.7244 -2.1616 0.9543
10.4893 -2.6236 -2.0323 0.9569
12.7868 -2.0106 -2.4330 0.9487
12.9150 -0.8646 -2.4330 0.9487
12.9407 0.2884 -2.4330 0.9487
12.4047 3.6970 -2.4330 0.9487
12.0265 4.7864 -2.4330 0.9487
11.5527 5.8378 -2.4330 0.9487
7.8326 10.1490 -2.4096 0.9492
2.8088 13.0709 -2.5129 0.9470
0.4467 13.3618 -2.5129 0.9470
-0.7443 13.3485 -2.5129 0.9470
-1.8503 12.6866 -2.4098 0.9492
-4.0704 12.1575 -2.4098 0.9492
-7.9970 11.9323 -2.6999 0.9432
-9.7980 10.1310 -2.6491 0.9443
-16.0285 5.9691 -3.2149 0.9328
-5.6017 -5.7922 -1.7033 0.9676
-5.6069 -8.3660 -2.1288 0.9597
-3.6194 -10.8106 -2.4098 0.9545
-2.6428 -11.0898 -2.4098 0.9545
0.3972 -11.8814 -2.5129 0.9526
1.4532 -11.7989 -2.5129 0.9526
2.4976 -11.6227 -2.5129 0.9526
4.5188 -10.9958 -2.5129 0.9526
6.9648 -9.0246 -2.4096 0.9545
7.7404 -8.3688 -2.4096 0.9545
8.4545 -7.6467 -2.4096 0.9545
9.6764 -6.0265 -2.4096 0.9545
10.4862 -4.1734 -2.3857 0.9549
10.4883 -3.1258 -2.3134 0.9562
11.4385 -1.2796 -2.4330 0.9540
11.5070 -0.2564 -2.4330 0.9540
11.3702 1.7879 -2.4330 0.9540
11.1659 2.7928 -2.4330 0.9540
10.8730 3.7755 -2.4330 0.9540
10.3933 4.6830 -2.4096 0.9545
9.9352 5.5895 -2.4096 0.9545
9.3983 6.4516 -2.4096 0.9545
7.3599 8.7053 -2.4096 0.9545
6.5559 9.3259 -2.4096 0.9545
5.9440 10.2954 -2.5129 0.9526
3.0129 11.5000 -2.5129 0.9526
1.9773 11.7225 -2.5129 0.9526
0.9261 11.8519 -2.5129 0.9526
-4.0974 10.6386 -2.4098 0.9545
-5.5006 5.2025 -1.6004 0.9695
-11.0185 8.7012 -2.9677 0.9442
-11.8124 7.7273 -2.9837 0.9439
-12.9037 6.8856 -3.0916 0.9420
-15.5864 5.0260 -3.4617 0.9352
-5.6028 -6.3352 -1.7877 0.9660
-5.6054 -7.6076 -1.9975 0.9621
-5.6086 -9.2330 -2.2835 0.9568
-2.1462 -11.1965 -2.4098 0.9545
-1.1899 -11.8284 -2.5129 0.9526
-0.1324 -11.8873 -2.5129 0.9526
0.9261 -11.8519 -2.5129 0.9526
3.0129 -11.4999 -2.5129 0.9526
4.0245 -11.1861 -2.5129 0.9526
5.0041 -10.7836 -2.5129 0.9526
7.3599 -8.7053 -2.4096 0.9545
8.7868 -7.2625 -2.4096 0.9545
10.3933 -4.6830 -2.4096 0.9545
10.4872 -3.6416 -2.3466 0.9556
11.3702 -1.7879 -2.4330 0.9540
11.4842 -0.7688 -2.4330 0.9540
11.5070 0.2564 -2.4330 0.9540
11.4385 1.2796 -2.4330 0.9540
11.2792 2.2926 -2.4330 0.9540
10.6940 4.2561 -2.4330 0.9540
9.1016 6.8638 -2.4096 0.9545
8.4545 7.6467 -2.4096 0.9545
7.7404 8.3688 -2.4096 0.9545
6.3968 10.0204 -2.5129 0.9526
3.5222 11.3543 -2.5129 0.9526
2.4976 11.6228 -2.5129 0.9526
0.3972 11.8814 -2.5129 0.9526
-0.6618 11.8696 -2.5129 0.9526
-1.6453 11.2810 -2.4098 0.9545
-2.6428 11.0898 -2.4098 0.9545
-4.5672 10.4455 -2.4098 0.9545
-8.4684 10.4814 -2.8483 0.9464
-9.5109 9.8342 -2.8919 0.9456
-10.5858 9.1539 -2.9582 0.9444
-11.4440 8.2369 -2.9805 0.9440
-12.4633 7.3820 -3.0619 0.9425
-13.3419 6.3729 -3.1254 0.9413
-17.6073 4.8231 -3.8589 0.9281
-5.7155 -4.1138 -1.6550 0.9715
-5.6017 -5.7922 -1.8938 0.9674
-5.6040 -6.9362 -2.0957 0.9640
-4.1078 -9.3947 -2.4098 0.9587
-3.2553 -9.7230 -2.4098 0.9587
-2.3770 -9.9742 -2.4098 0.9587
-0.5953 -10.6755 -2.5129 0.9570
0.3573 -10.6862 -2.5129 0.9570
2.2463 -10.4535 -2.5129 0.9570
4.0642 -9.8896 -2.5129 0.9570
4.9283 -9.4886 -2.5129 0.9570
6.4630 -8.3743 -2.4861 0.9575
8.7029 -5.4202 -2.4096 0.9587
9.1508 -4.6241 -2.4096 0.9587
9.5261 -3.7913 -2.4096 0.9587
10.1893 -1.1398 -2.4096 0.9587
10.2299 0.6848 -2.4096 0.9587
10.1284 1.5926 -2.4096 0.9587
9.9464 2.4878 -2.4096 0.9587
9.3477 4.2119 -2.4096 0.9587
8.9358 5.0272 -2.4096 0.9587
7.9028 6.5319 -2.4096 0.9587
7.2901 7.2093 -2.4096 0.9587
6.6195 7.8296 -2.4096 0.9587
3.6196 10.0608 -2.5129 0.9570
2.7098 10.3431 -2.5129 0.9570
1.7784 10.5432 -2.5129 0.9570
-0.1191 10.6915 -2.5129 0.9570
-1.0702 10.6385 -2.5129 0.9570
-1.9303 10.0702 -2.4098 0.9587
-2.8189 9.8584 -2.4098 0.9587
-5.3233 8.7634 -2.4098 0.9587
-7.5590 10.2591 -2.9949 0.9490
-8.5438 9.6607 -3.0310 0.9484
-9.4347 8.9233 -3.0520 0.9480
-10.1487 8.0143 -3.0392 0.9483
-11.0323 7.2170 -3.0984 0.9473
-11.7824 6.2873 -3.1387 0.9466
-12.6310 5.3560 -3.2244 0.9452
-13.9794 4.5078 -3.4521 0.9414
-17.9415 4.0650 -4.3235 0.9272
-5.8931 -3.8551 -1.6550 0.9715
-5.6028 -6.3352 -1.9877 0.9658
-4.5222 -9.2024 -2.4098 0.9587
-2.8189 -9.8584 -2.4098 0.9587
-1.9303 -10.0702 -2.4098 0.9587
-1.0702 -10.6384 -2.5129 0.9570
1.7784 -10.5432 -2.5129 0.9570
4.5007 -9.6987 -2.5129 0.9570
5.3461 -9.2597 -2.5129 0.9570
6.1490 -8.7471 -2.5129 0.9570
7.2901 -7.2093 -2.4096 0.9587
7.9028 -6.5319 -2.4096 0.9587
8.4528 -5.8026 -2.4096 0.9587
8.9358 -5.0272 -2.4096 0.9587
9.9464 -2.4878 -2.4096 0.9587
10.2503 0.2284 -2.4096 0.9587
10.1893 1.1398 -2.4096 0.9587
10.0474 2.0422 -2.4096 0.9587
9.8257 2.9284 -2.4096 0.9587
8.7029 5.4202 -2.4096 0.9587
7.6040 6.8774 -2.4096 0.9587
4.0642 9.8896 -2.5129 0.9570
3.1678 10.2121 -2.5129 0.9570
2.2463 10.4535 -2.5129 0.9570
0.3573 10.6862 -2.5129 0.9570
-0.5953 10.6755 -2.5129 0.9570
-2.3770 9.9742 -2.4098 0.9587
-4.9276 8.9918 -2.4098 0.9587
-7.9811 9.8783 -2.9847 0.9492
-9.0253 9.3321 -3.0512 0.9481
-5.5009 3.9593 -1.5929 0.9725
-11.3916 6.7472 -3.1117 0.9471
-13.2593 4.9378 -3.3253 0.9435
-15.4678 4.2371 -3.7692 0.9362
-5.9902 -2.2308 -1.6550 0.9739
-5.6017 -5.7922 -2.0863 0.9673
-5.6040 -6.9362 -2.3088 0.9638
-4.4729 -8.1620 -2.4098 0.9623
-3.7287 -8.5277 -2.4098 0.9623
0.3243 -9.7000 -2.5129 0.9607
1.1864 -9.6326 -2.5129 0.9607
2.8755 -9.2696 -2.5129 0.9607
3.6891 -8.9769 -2.5129 0.9607
5.9297 -7.6833 -2.5129 0.9607
6.9023 -6.2427 -2.4096 0.9623
8.6469 -3.4414 -2.4096 0.9623
8.9189 -2.6581 -2.4096 0.9623
9.3043 -0.2073 -2.4096 0.9623
9.1936 1.4456 -2.4096 0.9623
9.0285 2.2582 -2.4096 0.9623
8.7917 3.0528 -2.4096 0.9623
7.6728 5.2671 -2.4096 0.9623
7.1735 5.9291 -2.4096 0.9623
6.6173 6.5440 -2.4096 0.9623
6.2661 7.4115 -2.5129 0.9607
4.8527 8.4051 -2.5129 0.9607
4.0853 8.8037 -2.5129 0.9607
0.7561 9.6759 -2.5129 0.9607
-0.1081 9.7048 -2.5129 0.9607
-0.9715 9.6566 -2.5129 0.9607
-2.5588 8.9486 -2.4098 0.9623
-3.3451 8.6854 -2.4098 0.9623
-4.8320 7.9546 -2.4098 0.9623
-5.5209 7.4930 -2.4098 0.9623
-7.8499 8.8760 -3.0680 0.9522
-8.6453 8.1767 -3.0810 0.9520
-10.2249 6.6888 -3.1636 0.9508
-10.8945 5.8135 -3.1973 0.9503
-5.8849 -2.4954 -1.6550 0.9739
-5.5975 -3.6617 -1.7319 0.9727
-5.6008 -5.2972 -1.9960 0.9686
-5.6028 -6.3352 -2.1898 0.9657
-3.3451 -8.6853 -2.4098 0.9623
-2.5588 -8.9486 -2.4098 0.9623
-1.7522 -9.1408 -2.4098 0.9623
-0.1081 -9.7048 -2.5129 0.9607
1.6143 -9.5702 -2.5129 0.9607
3.2856 -9.1323 -2.5129 0.9607
4.0853 -8.8037 -2.5129 0.9607
4.8527 -8.4051 -2.5129 0.9607
5.5815 -7.9398 -2.5129 0.9607
6.2661 -7.4116 -2.5129 0.9607
6.6173 -6.5440 -2.4096 0.9623
6.7779 -3.0540 -1.9248 0.9697
9.0285 -2.2582 -2.4096 0.9623
9.1201 1.8537 -2.4096 0.9623
8.9189 2.6581 -2.4096 0.9623
8.3063 4.1973 -2.4096 0.9623
7.8998 4.9200 -2.4096 0.9623
7.4305 5.6036 -2.4096 0.9623
6.9023 6.2427 -2.4096 0.9623
6.4630 6.9877 -2.4645 0.9614
5.9297 7.6833 -2.5129 0.9607
3.6891 8.9769 -2.5129 0.9607
2.8755 9.2696 -2.5129 0.9607
1.1864 9.6326 -2.5129 0.9607
-0.5403 9.6903 -2.5129 0.9607
-1.4007 9.6038 -2.5129 0.9607
-2.1576 9.0537 -2.4098 0.9623
-2.9549 8.8257 -2.4098 0.9623
-3.7287 8.5277 -2.4098 0.9623
-4.4729 8.1620 -2.4098 0.9623
-7.4297 9.1959 -3.0610 0.9523
-9.0181 7.7982 -3.0869 0.9519
-9.8180 7.0666 -3.1321 0.9512
-10.5788 6.2659 -3.1835 0.9505
-12.2925 4.5778 -3.3963 0.9472
-5.5224 -0.0000 -1.5634 0.9773
-5.5017 -0.4917 -1.5637 0.9773
-5.5018 -0.9912 -1.5826 0.9770
-5.5956 -2.6728 -1.7555 0.9746
-5.5968 -3.3150 -1.8415 0.9733
-4.7391 -7.0712 -2.4098 0.9652
-4.0909 -7.4650 -2.4098 0.9652
-3.4103 -7.7995 -2.4098 0.9652
-2.7025 -8.0721 -2.4098 0.9652
-1.9734 -8.2805 -2.4098 0.9652
-1.2811 -8.7837 -2.5129 0.9638
-0.4942 -8.8628 -2.5129 0.9638
0.2966 -8.8716 -2.5129 0.9638
1.8649 -8.6785 -2.5129 0.9638
2.6299 -8.4780 -2.5129 0.9638
3.3741 -8.2103 -2.5129 0.9638
4.0914 -7.8774 -2.5129 0.9638
6.0272 -6.5166 -2.5129 0.9638
7.2252 -4.4999 -2.4096 0.9652
7.5970 -3.8389 -2.4096 0.9652
8.4591 -0.9463 -2.4096 0.9652
8.5097 -0.1896 -2.4096 0.9652
8.4929 0.5685 -2.4096 0.9652
8.4085 1.3222 -2.4096 0.9652
8.2575 2.0653 -2.4096 0.9652
7.4184 4.1735 -2.4096 0.9652
7.0175 4.8173 -2.4096 0.9652
5.7310 6.7786 -2.5129 0.9638
4.4383 7.6873 -2.5129 0.9638
3.7365 8.0519 -2.5129 0.9638
1.4764 8.7529 -2.5129 0.9638
0.6915 8.8496 -2.5129 0.9638
-0.0989 8.8760 -2.5129 0.9638
-0.8885 8.8320 -2.5129 0.9638
-1.6025 8.3602 -2.4098 0.9652
-3.7543 7.6398 -2.4098 0.9652
-4.4194 7.2753 -2.4098 0.9652
-5.0494 6.8531 -2.4098 0.9652
-7.9664 7.5345 -3.1041 0.9554
-9.5200 6.2277 -3.2205 0.9538
-11.0300 4.6771 -3.3916 0.9514
-11.9711 3.8602 -3.5608 0.9491
-5.5017 -0.7400 -1.5715 0.9772
-5.6915 -1.8353 -1.6929 0.9754
-5.5950 -2.3725 -1.7204 0.9751
-5.6028 -6.3352 -2.3942 0.9655
-5.0494 -6.8531 -2.4098 0.9652
-4.4194 -7.2753 -2.4098 0.9652
-3.7543 -7.6398 -2.4098 0.9652
-3.0594 -7.9436 -2.4098 0.9652
-1.6025 -8.3602 -2.4098 0.9652
-0.8885 -8.8320 -2.5129 0.9638
0.6915 -8.8496 -2.5129 0.9638
2.2496 -8.5868 -2.5129 0.9638
3.0050 -8.3525 -2.5129 0.9638
3.7365 -8.0519 -2.5129 0.9638
4.4383 -7.6873 -2.5129 0.9638
5.7310 -6.7786 -2.5129 0.9638
6.3116 -6.2416 -2.5129 0.9638
6.5609 -5.4227 -2.4096 0.9652
6.7821 -3.0559 -2.1059 0.9695
8.2575 -2.0653 -2.4096 0.9652
8.4085 -1.3222 -2.4096 0.9652
8.5097 0.1896 -2.4096 0.9652
8.4591 0.9463 -2.4096 0.9652
7.5970 3.8389 -2.4096 0.9652
7.2252 4.4998 -2.4096 0.9652
6.7960 5.1251 -2.4096 0.9652
6.0273 6.5166 -2.5129 0.9638
5.4233 7.0272 -2.5129 0.9638
4.0914 7.8774 -2.5129 0.9638
3.3741 8.2103 -2.5129 0.9638
1.8649 8.6785 -2.5129 0.9638
1.0851 8.8100 -2.5129 0.9638
0.2966 8.8716 -2.5129 0.9638
-0.4942 8.8628 -2.5129 0.9638
-2.7025 8.0720 -2.4098 0.9652
-4.0909 7.4650 -2.4098 0.9652
-5.5079 4.7629 -2.0614 0.9702
-9.1610 6.5937 -3.1953 0.9542
-11.4742 4.2730 -3.4662 0.9504
-18.9360 -1.6922 -5.8475 0.9235
-5.5944 -2.0834 -1.8362 0.9753
-5.5956 -2.6728 -1.9073 0.9744
-5.5968 -3.3150 -2.0008 0.9731
-5.5999 -4.8424 -2.2771 0.9695
-5.4467 -5.6318 -2.4098 0.9677
-4.9238 -6.0943 -2.4098 0.9677
-4.3618 -6.5083 -2.4098 0.9677
-3.7652 -6.8707 -2.4098 0.9677
-2.4874 -7.4295 -2.4098 0.9677
0.9987 -8.1087 -2.5129 0.9664
1.7164 -7.9876 -2.5129 0.9664
3.7657 -7.2503 -2.5129 0.9664
4.3961 -6.8864 -2.5129 0.9664
6.0592 -5.4803 -2.5129 0.9664
6.6500 -4.1416 -2.4096 0.9677
6.9922 -3.5333 -2.4096 0.9677
7.5079 -2.2376 -2.4096 0.9677
7.7857 -0.8710 -2.4096 0.9677
7.8323 -0.1745 -2.4096 0.9677
7.1427 3.2183 -2.4096 0.9677
6.8279 3.8413 -2.4096 0.9677
4.6985 6.6837 -2.5129 0.9664
4.0850 7.0754 -2.5129 0.9664
3.4390 7.4109 -2.5129 0.9664
2.7658 7.6876 -2.5129 0.9664
2.0705 7.9032 -2.5129 0.9664
1.3589 8.0561 -2.5129 0.9664
0.6365 8.1451 -2.5129 0.9664
-1.5380 8.0239 -2.5129 0.9664
-2.8159 7.3113 -2.4098 0.9677
-4.6474 6.3075 -2.4098 0.9677
-8.2691 6.5300 -3.2408 0.9569
-11.1978 3.6108 -3.6188 0.9520
-5.5014 1.2464 -1.7350 0.9767
-18.8776 0.8418 -5.8121 0.9240
-5.6915 -1.8353 -1.8393 0.9753
-5.5950 -2.3725 -1.8692 0.9749
-5.5962 -2.9862 -1.9510 0.9738
-5.1904 -5.8689 -2.4098 0.9677
-4.6474 -6.3075 -2.4098 0.9677
-4.0676 -6.6962 -2.4098 0.9677
-3.4554 -7.0316 -2.4098 0.9677
-0.8178 -8.1289 -2.5129 0.9664
3.4390 -7.4109 -2.5129 0.9664
5.2747 -6.2390 -2.5129 0.9664
5.8091 -5.7447 -2.5129 0.9664
6.8279 -3.8413 -2.4096 0.9677
7.4008 -2.5698 -2.4096 0.9677
7.6001 -1.9009 -2.4096 0.9677
7.7392 -1.2169 -2.4096 0.9677
7.7857 0.8710 -2.4096 0.9677
7.6773 1.5605 -2.4096 0.9677
7.5079 2.2376 -2.4096 0.9677
6.9922 3.5333 -2.4096 0.9677
6.6500 4.1416 -2.4096 0.9677
6.4630 4.8740 -2.4898 0.9667
6.0593 5.4803 -2.5129 0.9664
4.9916 6.4678 -2.5129 0.9664
4.3961 6.8864 -2.5129 0.9664
3.7657 7.2503 -2.5129 0.9664
2.4206 7.8031 -2.5129 0.9664
0.2730 8.1654 -2.5129 0.9664
-1.1791 8.0844 -2.5129 0.9664
-1.8163 7.6213 -2.4098 0.9677
-2.4874 7.4295 -2.4098 0.9677
-3.1388 7.1786 -2.4098 0.9677
-3.7652 6.8707 -2.4098 0.9677
-4.3618 6.5083 -2.4098 0.9677
-4.9238 6.0943 -2.4098 0.9677
-9.2525 5.4803 -3.3076 0.9560
-10.0165 4.7845 -3.4143 0.9546
-11.8143 3.2363 -3.7677 0.9500
-18.7796 1.6781 -5.7992 0.9241
-18.5785 0.0000 -6.1756 0.9247
-18.5332 -1.6562 -6.1851 0.9246
-5.5956 -2.6728 -2.0613 0.9742
-5.4837 -4.7419 -2.4098 0.9699
-4.5560 -5.6391 -2.4098 0.9699
-4.0361 -6.0222 -2.4098 0.9699
-3.4840 -6.3575 -2.4098 0.9699
-2.9043 -6.6424 -2.4098 0.9699
-2.3016 -6.8746 -2.4098 0.9699
-0.4209 -7.5480 -2.5129 0.9686
0.2526 -7.5555 -2.5129 0.9686
0.9241 -7.5030 -2.5129 0.9686
3.4845 -6.7088 -2.5129 0.9686
4.0678 -6.3720 -2.5129 0.9686
5.6067 -5.0710 -2.5129 0.9686
6.4170 -3.9965 -2.5129 0.9686
7.1039 -1.4439 -2.4096 0.9699
7.2329 0.4842 -2.4096 0.9699
7.0325 1.7589 -2.4096 0.9699
6.6092 2.9779 -2.4096 0.9699
6.4630 3.6360 -2.4650 0.9692
6.2326 4.2784 -2.5129 0.9686
3.7799 6.5469 -2.5129 0.9686
3.1822 6.8574 -2.5129 0.9686
2.5592 7.1134 -2.5129 0.9686
1.9159 7.3129 -2.5129 0.9686
1.2574 7.4544 -2.5129 0.9686
0.5889 7.5368 -2.5129 0.9686
-1.4232 7.4246 -2.5129 0.9686
-1.9931 6.9703 -2.4098 0.9699
-4.3003 5.8364 -2.4098 0.9699
-4.8027 5.4305 -2.4098 0.9699
-5.2670 4.9815 -2.4098 0.9699
-8.4126 5.5033 -3.3416 0.9585
-9.8347 4.1703 -3.5509 0.9560
-10.5925 3.4156 -3.6995 0.9542
-5.5014 1.2464 -1.8750 0.9765
-15.9324 2.1427 -5.3437 0.9345
-5.5088 0.2456 -1.8330 0.9770
-18.8562 -0.8409 -6.2742 0.9235
-18.8088 -2.5296 -6.3085 0.9231
-5.6915 -1.8353 -1.9878 0.9751
-5.5975 -3.6617 -2.2234 0.9722
-5.2670 -4.9815 -2.4098 0.9699
-4.3003 -5.8364 -2.4098 0.9699
-2.6056 -6.7652 -2.4098 0.9699
-1.9931 -6.9702 -2.4098 0.9699
-1.4232 -7.4246 -2.5129 0.9686
-0.7567 -7.5218 -2.5129 0.9686
0.5889 -7.5368 -2.5129 0.9686
1.2574 -7.4544 -2.5129 0.9686
3.1822 -6.8574 -2.5129 0.9686
4.8808 -5.7730 -2.5129 0.9686
6.4630 -3.6360 -2.4650 0.9692
6.6092 -2.9779 -2.4096 0.9699
6.8480 -2.3779 -2.4096 0.9699
7.0325 -1.7589 -2.4096 0.9699
7.2473 0.1615 -2.4096 0.9699
7.2042 0.8059 -2.4096 0.9699
7.1039 1.4439 -2.4096 0.9699
6.9471 2.0705 -2.4096 0.9699
6.7353 2.6806 -2.4096 0.9699
6.4170 3.9965 -2.5129 0.9686
6.0358 4.5518 -2.5129 0.9686
5.1331 5.5499 -2.5129 0.9686
4.6188 5.9847 -2.5129 0.9686
4.0678 6.3720 -2.5129 0.9686
3.4845 6.7088 -2.5129 0.9686
2.2398 7.2203 -2.5129 0.9686
0.2526 7.5555 -2.5129 0.9686
-0.4209 7.5480 -2.5129 0.9686
-2.3016 6.8746 -2.4098 0.9699
-2.9043 6.6424 -2.4098 0.9699
-3.4840 6.3576 -2.4098 0.9699
-5.0399 5.2112 -2.4098 0.9699
-8.1061 5.8344 -3.3199 0.9588
-8.7719 5.1956 -3.3889 0.9579
-9.4839 4.5301 -3.4937 0.9567
-5.5944 -2.0834 -2.1348 0.9750
-5.5968 -3.3150 -2.3262 0.9727
-5.4693 -3.9366 -2.4098 0.9718
-3.7516 -5.5978 -2.4098 0.9718
-3.2385 -5.9095 -2.4098 0.9718
-2.6997 -6.1743 -2.4098 0.9718
-2.1394 -6.3901 -2.4098 0.9718
-1.0141 -6.9534 -2.5129 0.9706
-0.3912 -7.0161 -2.5129 0.9706
0.8590 -6.9743 -2.5129 0.9706
2.0819 -6.7115 -2.5129 0.9706
2.6710 -6.4995 -2.5129 0.9706
3.2389 -6.2360 -2.5129 0.9706
4.7714 -5.1588 -2.5129 0.9706
5.2116 -4.7136 -2.5129 0.9706
5.9647 -3.7149 -2.5129 0.9706
6.2717 -3.1692 -2.5129 0.9706
6.4742 -1.9295 -2.4159 0.9717
6.6032 -1.3422 -2.4096 0.9718
6.6965 -0.7491 -2.4096 0.9718
6.7366 -0.1501 -2.4096 0.9718
6.7232 0.4501 -2.4096 0.9718
6.6748 1.0496 -2.4163 0.9717
6.5369 1.6350 -2.4096 0.9718
6.4660 2.2453 -2.4477 0.9713
5.4164 4.4768 -2.5129 0.9706
4.9964 4.9411 -2.5129 0.9706
4.0412 5.7487 -2.5129 0.9706
3.5135 6.0855 -2.5129 0.9706
2.9579 6.3741 -2.5129 0.9706
2.3788 6.6121 -2.5129 0.9706
1.1688 6.9291 -2.5129 0.9706
-0.0783 7.0265 -2.5129 0.9706
-0.7034 6.9917 -2.5129 0.9706
-1.3229 6.9013 -2.5129 0.9706
-2.4219 6.2884 -2.4098 0.9718
-4.8958 4.6304 -2.4098 0.9718
-5.2885 4.1763 -2.4098 0.9718
-10.0760 3.2491 -3.7860 0.9560
-5.5014 1.2464 -2.0172 0.9763
-13.1288 1.7657 -4.7372 0.9453
-18.4340 0.8220 -6.5987 0.9246
-18.6310 -2.5057 -6.7226 0.9232
-5.6915 -1.8353 -2.1385 0.9749
-5.5950 -2.3725 -2.1732 0.9745
-5.5962 -2.9862 -2.2683 0.9734
-5.5975 -3.6617 -2.3920 0.9720
-5.2885 -4.1763 -2.4098 0.9718
-3.4985 -5.7594 -2.4098 0.9718
-2.4219 -6.2884 -2.4098 0.9718
-1.3229 -6.9013 -2.5129 0.9706
-0.0783 -7.0265 -2.5129 0.9706
1.1688 -6.9291 -2.5129 0.9706
2.3788 -6.6121 -2.5129 0.9706
3.5135 -6.0855 -2.5129 0.9706
4.0412 -5.7487 -2.5129 0.9706
4.5368 -5.3662 -2.5129 0.9706
4.9964 -4.9411 -2.5129 0.9706
5.7933 -3.9769 -2.5129 0.9706
6.4660 -2.2453 -2.4477 0.9713
6.5369 -1.6350 -2.4096 0.9718
6.6748 -1.0496 -2.4163 0.9717
6.7232 -0.4501 -2.4096 0.9718
6.6965 0.7491 -2.4096 0.9718
6.4742 1.9295 -2.4159 0.9717
5.2116 4.7136 -2.5129 0.9706
3.7811 5.9230 -2.5129 0.9706
3.2389 6.2360 -2.5129 0.9706
1.4763 6.8702 -2.5129 0.9706
0.8590 6.9743 -2.5129 0.9706
0.2348 7.0230 -2.5129 0.9706
-0.3912 7.0161 -2.5129 0.9706
-1.0141 6.9534 -2.5129 0.9706
-1.5860 6.6552 -2.4466 0.9714
-2.1394 6.3901 -2.4098 0.9718
-3.7516 5.5978 -2.4098 0.9718
-4.2350 5.2417 -2.4098 0.9718
-5.0972 4.4078 -2.4098 0.9718
-5.5078 3.2622 -2.2892 0.9732
-8.9958 4.2969 -3.5651 0.9585
-11.7910 2.1243 -4.2844 0.9504
-5.5163 0.4929 -1.9805 0.9767
-5.5944 -2.0834 -2.2877 0.9748
-5.5956 -2.6728 -2.3764 0.9738
-5.4105 -3.2046 -2.4098 0.9734
-4.7566 -4.1132 -2.4098 0.9734
-3.9519 -4.8914 -2.4098 0.9734
-3.5009 -5.2237 -2.4098 0.9734
-3.0221 -5.5146 -2.4098 0.9734
-2.5192 -5.7617 -2.4098 0.9734
-1.9964 -5.9630 -2.4098 0.9734
-1.5201 -6.3787 -2.5129 0.9723
0.8016 -6.5082 -2.5129 0.9723
1.3776 -6.4110 -2.5129 0.9723
3.0224 -5.8193 -2.5129 0.9723
3.5284 -5.5271 -2.5129 0.9723
4.0063 -5.1912 -2.5129 0.9723
4.4525 -4.8140 -2.5129 0.9723
4.8633 -4.3986 -2.5129 0.9723
5.5661 -3.4666 -2.5129 0.9723
6.0926 -2.4248 -2.5129 0.9723
6.4630 0.4327 -2.4823 0.9726
6.3614 1.5911 -2.5129 0.9723
6.1945 2.1510 -2.5129 0.9723
5.0544 4.1776 -2.5129 0.9723
4.6625 4.6109 -2.5129 0.9723
3.2787 5.6788 -2.5129 0.9723
1.6619 6.3433 -2.5129 0.9723
1.0907 6.4660 -2.5129 0.9723
0.5108 6.5374 -2.5129 0.9723
-1.7288 6.0460 -2.4098 0.9734
-2.2601 5.8682 -2.4098 0.9734
-3.2647 5.3745 -2.4098 0.9734
-3.7301 5.0626 -2.4098 0.9734
-4.1659 4.7105 -2.4098 0.9734
-5.5479 2.9604 -2.4098 0.9734
-18.5116 -0.8255 -7.1010 0.9237
-5.6915 -1.8353 -2.2917 0.9747
-5.5950 -2.3725 -2.3289 0.9743
-5.5479 -2.9604 -2.4098 0.9734
-5.2624 -3.4425 -2.4098 0.9734
-4.9351 -3.8972 -2.4098 0.9734
-3.7301 -5.0625 -2.4098 0.9734
-3.2647 -5.3745 -2.4098 0.9734
-2.2601 -5.8682 -2.4098 0.9734
-1.7288 -6.0460 -2.4098 0.9734
-1.2345 -6.4401 -2.5129 0.9723
-0.0730 -6.5570 -2.5129 0.9723
0.5108 -6.5374 -2.5129 0.9723
3.7711 -5.3645 -2.5129 0.9723
4.2336 -5.0075 -2.5129 0.9723
4.6625 -4.6109 -2.5129 0.9723
5.7150 -3.2152 -2.5129 0.9723
5.9785 -2.6938 -2.5129 0.9723
6.3614 -1.5911 -2.5129 0.9723
6.4630 -1.0163 -2.5072 0.9724
6.4630 -0.4326 -2.4823 0.9726
6.2842 1.8729 -2.5129 0.9723
6.0926 2.4248 -2.5129 0.9723
5.2355 3.9483 -2.5129 0.9723
4.8633 4.3986 -2.5129 0.9723
3.0225 5.8193 -2.5129 0.9723
2.4925 6.0652 -2.5129 0.9723
1.9428 6.2629 -2.5129 0.9723
1.3776 6.4110 -2.5129 0.9723
0.2191 6.5537 -2.5129 0.9723
-1.9964 5.9630 -2.4098 0.9734
-3.5009 5.2237 -2.4098 0.9734
-3.9519 4.8914 -2.4098 0.9734
-4.7566 4.1132 -2.4098 0.9734
-5.1038 3.6735 -2.4098 0.9734
-5.4105 3.2047 -2.4098 0.9734
-8.5479 4.0830 -3.6302 0.9602
-9.1695 3.4148 -3.7497 0.9590
-10.0355 2.7490 -3.9875 0.9564
-11.1070 2.0010 -4.3249 0.9528
-14.2618 1.2744 -5.4871 0.9405
-17.9713 0.0000 -7.3552 0.9253
-1.6200 -0.2919 -0.6737 0.9929
-1.6035 -0.4392 -0.6804 0.9928
-5.0660 -3.0006 -2.4098 0.9749
-4.7789 -3.4396 -2.4098 0.9749
-4.0933 -4.2324 -2.4098 0.9749
-3.7003 -4.5800 -2.4098 0.9749
-3.2780 -4.8911 -2.4098 0.9749
-2.8297 -5.1635 -2.4098 0.9749
-2.3589 -5.3948 -2.4098 0.9749
0.2052 -6.1365 -2.5129 0.9738
2.8300 -5.4488 -2.5129 0.9738
3.7513 -4.8607 -2.5129 0.9738
4.1690 -4.5075 -2.5129 0.9738
4.9022 -3.6969 -2.5129 0.9738
5.7047 -2.2704 -2.5129 0.9738
6.0168 -1.2230 -2.5129 0.9738
6.1384 -0.1368 -2.5129 0.9738
6.0654 0.9537 -2.5129 0.9738
5.8002 2.0140 -2.5129 0.9738
5.3512 3.0105 -2.5129 0.9738
5.0620 3.4748 -2.5129 0.9738
4.3657 4.3173 -2.5129 0.9738
3.5310 5.0229 -2.5129 0.9738
1.5561 5.9394 -2.5129 0.9738
1.0212 6.0544 -2.5129 0.9738
-0.0684 6.1395 -2.5129 0.9738
-0.6146 6.1090 -2.5129 0.9738
-1.6187 5.6611 -2.4098 0.9749
-2.1162 5.4946 -2.4098 0.9749
-4.6209 3.6491 -2.4098 0.9749
-4.9273 3.2233 -2.4098 0.9749
-5.4208 2.2986 -2.4098 0.9749
-1.6146 0.3658 -0.6776 0.9929
-1.6301 0.2192 -0.6732 0.9929
-5.5089 -0.2457 -2.2569 0.9764
-1.6146 -0.3658 -0.6776 0.9929
-1.5889 -0.5124 -0.6833 0.9928
-4.9273 -3.2233 -2.4098 0.9749
-3.9007 -4.4106 -2.4098 0.9749
-2.5968 -5.2844 -2.4098 0.9749
-0.6146 -6.1090 -2.5129 0.9738
0.4783 -6.1212 -2.5129 0.9738
1.5561 -5.9394 -2.5129 0.9738
3.0699 -5.3173 -2.5129 0.9738
4.3657 -4.3173 -2.5129 0.9738
5.0620 -3.4749 -2.5129 0.9738
5.8002 -2.0140 -2.5129 0.9738
5.9564 -1.4898 -2.5129 0.9738
6.1384 0.1368 -2.5129 0.9738
6.1018 0.6826 -2.5129 0.9738
6.0168 1.2230 -2.5129 0.9738
5.8841 1.7537 -2.5129 0.9738
5.7047 2.2704 -2.5129 0.9738
5.4800 2.7691 -2.5129 0.9738
4.9022 3.6969 -2.5129 0.9738
4.5537 4.1185 -2.5129 0.9738
3.7513 4.8607 -2.5129 0.9738
3.3038 5.1753 -2.5129 0.9738
1.2899 6.0029 -2.5129 0.9738
-0.8861 6.0756 -2.5129 0.9738
-1.4233 5.9726 -2.5129 0.9738
-1.8693 5.5834 -2.4098 0.9749
-2.3589 5.3948 -2.4098 0.9749
-2.8297 5.1635 -2.4098 0.9749
-3.7003 4.5800 -2.4098 0.9749
-4.7789 3.4396 -2.4098 0.9749
-5.0660 3.0006 -2.4098 0.9749
-5.3130 2.5378 -2.4098 0.9749
-1.6035 0.4392 -0.6804 0.9928
-1.5266 0.0000 -0.6653 0.9934
-1.5215 -0.1360 -0.6657 0.9934
-1.5015 -0.2705 -0.6649 0.9934
-5.1818 -1.9297 -2.4098 0.9762
-4.9894 -2.3832 -2.4098 0.9762
-4.4878 -3.2301 -2.4098 0.9762
-4.1825 -3.6168 -2.4098 0.9762
-3.8440 -3.9747 -2.4098 0.9762
-3.4750 -4.3010 -2.4098 0.9762
-2.6573 -4.8490 -2.4098 0.9762
-2.2152 -5.0663 -2.4098 0.9762
-1.7709 -5.2893 -2.4309 0.9760
0.1927 -5.7627 -2.5129 0.9752
0.7048 -5.7227 -2.5129 0.9752
1.2114 -5.6373 -2.5129 0.9752
2.6577 -5.1169 -2.5129 0.9752
3.1026 -4.8601 -2.5129 0.9752
4.6036 -3.4718 -2.5129 0.9752
5.1462 -2.6005 -2.5129 0.9752
5.7302 -0.6410 -2.5129 0.9752
5.7531 0.3851 -2.5129 0.9752
5.6960 0.8956 -2.5129 0.9752
5.5936 1.3991 -2.5129 0.9752
5.4469 1.8914 -2.5129 0.9752
5.2570 2.3687 -2.5129 0.9752
5.0253 2.8272 -2.5129 0.9752
4.7537 3.2632 -2.5129 0.9752
3.7227 4.4032 -2.5129 0.9752
2.8830 4.9935 -2.5129 0.9752
2.4271 5.2303 -2.5129 0.9752
0.9590 5.6856 -2.5129 0.9752
-0.0642 5.7656 -2.5129 0.9752
-1.5829 5.5359 -2.5093 0.9752
-1.9873 5.1599 -2.4098 0.9762
-2.4387 4.9626 -2.4098 0.9762
-3.2799 4.4516 -2.4098 0.9762
-3.6631 4.1420 -2.4098 0.9762
-4.6273 3.0270 -2.4098 0.9762
-4.8783 2.6031 -2.4098 0.9762
-5.0906 2.1586 -2.4098 0.9762
-1.4861 0.4792 -0.6805 0.9932
-1.5029 0.3405 -0.6716 0.9933
-1.5029 -0.3405 -0.6716 0.9933
-5.0907 -2.1586 -2.4098 0.9762
-4.6273 -3.0270 -2.4098 0.9762
-4.3395 -3.4269 -2.4098 0.9762
-2.8707 -4.7258 -2.4098 0.9762
-2.4387 -4.9626 -2.4098 0.9762
-1.9873 -5.1599 -2.4098 0.9762
-1.5829 -5.5359 -2.5093 0.9752
-1.0855 -5.6629 -2.5129 0.9752
-0.5771 -5.7370 -2.5129 0.9752
-0.0642 -5.7656 -2.5129 0.9752
1.9519 -5.4255 -2.5129 0.9752
2.4271 -5.2302 -2.5129 0.9752
3.7227 -4.4032 -2.5129 0.9752
4.0998 -4.0544 -2.5129 0.9752
4.7537 -3.2632 -2.5129 0.9752
5.4469 -1.8914 -2.5129 0.9752
5.6960 -0.8956 -2.5129 0.9752
5.7302 0.6410 -2.5129 0.9752
5.6504 1.1485 -2.5129 0.9752
4.2763 3.8677 -2.5129 0.9752
3.1026 4.8601 -2.5129 0.9752
2.6577 5.1169 -2.5129 0.9752
2.1917 5.3332 -2.5129 0.9752
1.7083 5.5071 -2.5129 0.9752
1.2114 5.6373 -2.5129 0.9752
0.1927 5.7628 -2.5129 0.9752
-0.8321 5.7056 -2.5129 0.9752
-1.7709 5.2893 -2.4309 0.9760
-2.6573 4.8490 -2.4098 0.9762
-3.0784 4.5932 -2.4098 0.9762
-3.4750 4.3010 -2.4098 0.9762
-4.4878 3.2301 -2.4098 0.9762
-4.7575 2.8179 -2.4098 0.9762
-4.9894 2.3833 -2.4098 0.9762
-5.1818 1.9297 -2.4098 0.9762
-1.5015 0.2705 -0.6649 0.9934
-1.5215 0.1360 -0.6657 0.9934
-1.3946 -0.3820 -0.6693 0.9936
-4.6977 -2.2439 -2.4098 0.9773
-4.4793 -2.6531 -2.4098 0.9773
-3.9379 -3.4053 -2.4098 0.9773
-3.2718 -4.0495 -2.4098 0.9773
-2.5019 -4.5655 -2.4098 0.9773
-2.0857 -4.7700 -2.4098 0.9773
-1.6528 -4.9367 -2.4098 0.9773
-0.3022 -5.4204 -2.5129 0.9764
0.1814 -5.4257 -2.5129 0.9764
1.1405 -5.3076 -2.5129 0.9764
1.6084 -5.1850 -2.5129 0.9764
2.0635 -5.0213 -2.5129 0.9764
2.5023 -4.8177 -2.5129 0.9764
2.9211 -4.5759 -2.5129 0.9764
3.3168 -4.2977 -2.5129 0.9764
3.6862 -3.9854 -2.5129 0.9764
4.0263 -3.6415 -2.5129 0.9764
4.3344 -3.2687 -2.5129 0.9764
4.8453 -2.4484 -2.5129 0.9764
5.0440 -2.0075 -2.5129 0.9764
5.2026 -1.5506 -2.5129 0.9764
5.4274 -0.1210 -2.5129 0.9764
5.4167 0.3626 -2.5129 0.9764
5.3629 0.8433 -2.5129 0.9764
5.1284 1.7808 -2.5129 0.9764
3.8600 3.8173 -2.5129 0.9764
3.5050 4.1457 -2.5129 0.9764
2.2852 4.9244 -2.5129 0.9764
1.8378 5.1082 -2.5129 0.9764
1.3758 5.2515 -2.5129 0.9764
0.9030 5.3531 -2.5129 0.9764
0.4229 5.4123 -2.5129 0.9764
-0.5434 5.4015 -2.5129 0.9764
-1.4925 5.2196 -2.5129 0.9764
-2.2961 4.6724 -2.4098 0.9773
-3.4489 3.8998 -2.4098 0.9773
-3.7823 3.5773 -2.4098 0.9773
-4.0857 3.2265 -2.4098 0.9773
-4.5930 2.4509 -2.4098 0.9773
-4.7930 2.0324 -2.4098 0.9773
-1.3890 0.4479 -0.6755 0.9936
-1.4099 0.1896 -0.6585 0.9937
-1.4212 -0.0634 -0.6585 0.9937
-1.4099 -0.1896 -0.6585 0.9937
-1.3967 -0.3165 -0.6629 0.9937
-1.3890 -0.4479 -0.6755 0.9936
-4.5930 -2.4509 -2.4098 0.9773
-3.4489 -3.8998 -2.4098 0.9773
-3.0881 -4.1912 -2.4098 0.9773
-2.2961 -4.6724 -2.4098 0.9773
-1.4925 -5.2196 -2.5129 0.9764
-0.5434 -5.4015 -2.5129 0.9764
-0.0605 -5.4284 -2.5129 0.9764
0.4229 -5.4123 -2.5129 0.9764
1.8378 -5.1082 -2.5129 0.9764
3.1221 -4.4412 -2.5129 0.9764
3.8600 -3.8173 -2.5129 0.9764
4.1845 -3.4586 -2.5129 0.9764
4.4757 -3.0724 -2.5129 0.9764
4.7314 -2.6619 -2.5129 0.9764
5.3629 -0.8433 -2.5129 0.9764
5.4274 0.1209 -2.5129 0.9764
5.3200 1.0813 -2.5129 0.9764
5.2026 1.5505 -2.5129 0.9764
4.6081 2.8700 -2.5129 0.9764
4.0263 3.6415 -2.5129 0.9764
3.3168 4.2977 -2.5129 0.9764
2.9211 4.5759 -2.5129 0.9764
1.6084 5.1850 -2.5129 0.9764
1.1405 5.3076 -2.5129 0.9764
0.6636 5.3881 -2.5129 0.9764
0.1814 5.4257 -2.5129 0.9764
-0.7835 5.3719 -2.5129 0.9764
-1.2585 5.2809 -2.5129 0.9764
-2.5019 4.5654 -2.4098 0.9773
-4.2254 3.0412 -2.4098 0.9773
-4.6977 2.2439 -2.4098 0.9773
-4.8787 1.8169 -2.4098 0.9773
-1.3946 0.3820 -0.6693 0.9936
-1.3993 0.2521 -0.6581 0.9938
-1.4172 0.1266 -0.6586 0.9937
-1.3159 -0.2371 -0.6559 0.9941
-1.2931 -0.4815 -0.6768 0.9939
-3.9873 -2.8699 -2.4098 0.9784
-3.4153 -3.5314 -2.4098 0.9784
-3.0874 -3.8214 -2.4098 0.9783
-2.0404 -3.0445 -1.7978 0.9838
-1.5853 -4.7352 -2.4494 0.9780
-1.1876 -4.9833 -2.5129 0.9774
-0.7393 -5.0693 -2.5129 0.9774
0.1712 -5.1200 -2.5129 0.9774
0.6262 -5.0845 -2.5129 0.9774
1.9473 -4.7384 -2.5129 0.9774
2.7565 -4.3180 -2.5129 0.9774
3.1299 -4.0556 -2.5129 0.9774
3.7994 -3.4364 -2.5129 0.9774
4.0902 -3.0846 -2.5129 0.9774
4.5723 -2.3105 -2.5129 0.9774
5.0202 -1.0204 -2.5129 0.9774
5.0911 -0.5695 -2.5129 0.9774
5.1216 -0.1141 -2.5129 0.9774
5.1115 0.3422 -2.5129 0.9774
5.0607 0.7958 -2.5129 0.9774
4.9698 1.2430 -2.5129 0.9774
4.6707 2.1045 -2.5129 0.9774
2.9462 4.1910 -2.5129 0.9774
2.5614 4.4366 -2.5129 0.9774
2.1564 4.6469 -2.5129 0.9774
1.7342 4.8204 -2.5129 0.9774
0.8521 5.0515 -2.5129 0.9774
-0.0571 5.1226 -2.5129 0.9774
-0.9644 5.0313 -2.5129 0.9774
-1.4084 4.9255 -2.5129 0.9774
-2.1819 2.9613 -1.8043 0.9837
-3.2546 3.6800 -2.4098 0.9784
-1.3003 0.4193 -0.6702 0.9939
-1.3089 0.2966 -0.6583 0.9940
-1.3355 -0.0596 -0.6558 0.9941
-1.3251 -0.1782 -0.6559 0.9941
-1.3089 -0.2966 -0.6583 0.9940
-4.1112 -2.6894 -2.4098 0.9784
-3.2546 -3.6800 -2.4098 0.9784
-2.9141 -3.9551 -2.4098 0.9784
-2.1667 -4.4091 -2.4098 0.9784
-1.7734 -4.6045 -2.4203 0.9783
-1.4084 -4.9255 -2.5129 0.9774
-0.9644 -5.0313 -2.5129 0.9774
-0.5128 -5.0972 -2.5129 0.9774
-0.0571 -5.1226 -2.5129 0.9774
1.2983 -4.9556 -2.5129 0.9774
2.5614 -4.4365 -2.5129 0.9774
3.6426 -3.6022 -2.5129 0.9774
3.9487 -3.2637 -2.5129 0.9774
4.4648 -2.5119 -2.5129 0.9774
4.6707 -2.1045 -2.5129 0.9774
5.0607 -0.7958 -2.5129 0.9774
4.5723 2.3105 -2.5129 0.9774
4.3485 2.7082 -2.5129 0.9774
4.0902 3.0846 -2.5129 0.9774
3.7994 3.4364 -2.5129 0.9774
3.4785 3.7609 -2.5129 0.9774
2.7565 4.3180 -2.5129 0.9774
2.3613 4.5462 -2.5129 0.9774
0.6262 5.0845 -2.5129 0.9774
-0.2852 5.1149 -2.5129 0.9774
-0.7393 5.0693 -2.5129 0.9774
-1.9681 4.5012 -2.4098 0.9784
-3.4153 3.5314 -2.4098 0.9783
-3.7160 3.2134 -2.4098 0.9784
-4.4330 2.1175 -2.4098 0.9784
-1.2931 0.4815 -0.6768 0.9939
-1.3317 0.1190 -0.6558 0.9941
-1.2576 -0.1124 -0.6550 0.9943
-1.2426 -0.2239 -0.6550 0.9943
-1.2162 -0.4529 -0.6733 0.9942
-4.1915 -2.0021 -2.4098 0.9793
-3.7701 -2.7136 -2.4098 0.9793
-3.2293 -3.3390 -2.4098 0.9793
-2.0470 -3.0543 -1.9075 0.9836
-2.2324 -4.0736 -2.4098 0.9793
-1.1229 -4.7119 -2.5129 0.9784
-0.6991 -4.7931 -2.5129 0.9784
0.1619 -4.8412 -2.5129 0.9784
0.5921 -4.8075 -2.5129 0.9784
1.0177 -4.7358 -2.5129 0.9784
1.8412 -4.4803 -2.5129 0.9784
2.2327 -4.2986 -2.5129 0.9784
3.5925 -3.2492 -2.5129 0.9784
3.8674 -2.9166 -2.5129 0.9784
4.3232 -2.1846 -2.5129 0.9784
4.5005 -1.7912 -2.5129 0.9784
4.7468 -0.9648 -2.5129 0.9784
4.8138 -0.5385 -2.5129 0.9784
4.8331 0.3235 -2.5129 0.9784
4.7851 0.7524 -2.5129 0.9784
4.5759 1.5889 -2.5129 0.9784
4.2216 2.3750 -2.5129 0.9784
3.7336 3.0859 -2.5129 0.9784
3.4442 3.4060 -2.5129 0.9784
3.1273 3.6990 -2.5129 0.9784
2.7857 3.9627 -2.5129 0.9784
2.4219 4.1949 -2.5129 0.9784
1.6398 4.5579 -2.5129 0.9784
1.2276 4.6857 -2.5129 0.9784
0.8057 4.7764 -2.5129 0.9784
0.3774 4.8291 -2.5129 0.9784
-0.4848 4.8195 -2.5129 0.9784
-1.3317 4.6572 -2.5129 0.9784
-1.6695 4.3348 -2.4098 0.9793
-2.0487 4.1690 -2.4098 0.9793
-2.1787 2.9570 -1.9055 0.9836
-3.0773 3.4796 -2.4098 0.9793
-3.3748 3.1919 -2.4098 0.9793
-4.0982 2.1869 -2.4098 0.9793
-4.2766 1.8134 -2.4098 0.9793
-1.2222 0.3941 -0.6662 0.9942
-1.2316 0.2790 -0.6551 0.9943
-1.2514 0.1683 -0.6551 0.9943
-1.2613 -0.0562 -0.6550 0.9943
-1.2514 -0.1683 -0.6551 0.9943
-1.2222 -0.3941 -0.6662 0.9942
-4.2766 -1.8134 -2.4098 0.9793
-4.0982 -2.1869 -2.4098 0.9793
-3.8873 -2.5429 -2.4098 0.9793
-3.3748 -3.1919 -2.4098 0.9793
-1.3317 -4.6572 -2.5129 0.9784
-0.4849 -4.8195 -2.5129 0.9784
-0.0540 -4.8436 -2.5129 0.9784
0.3774 -4.8291 -2.5129 0.9784
1.2276 -4.6857 -2.5129 0.9784
1.6398 -4.5579 -2.5129 0.9784
2.0389 -4.3938 -2.5129 0.9784
3.1273 -3.6990 -2.5129 0.9784
4.4163 -1.9899 -2.5129 0.9784
4.6991 -1.1753 -2.5129 0.9784
4.7851 -0.7524 -2.5129 0.9784
4.8331 -0.3235 -2.5129 0.9784
4.7468 0.9648 -2.5129 0.9784
4.1116 2.5607 -2.5129 0.9784
3.2890 3.5560 -2.5129 0.9784
2.9595 3.8346 -2.5129 0.9784
2.6064 4.0829 -2.5129 0.9784
2.2327 4.2986 -2.5129 0.9784
1.8412 4.4803 -2.5129 0.9784
1.4351 4.6264 -2.5129 0.9784
0.5921 4.8075 -2.5129 0.9784
0.1619 4.8412 -2.5129 0.9784
-0.2697 4.8363 -2.5129 0.9784
-0.6991 4.7932 -2.5129 0.9784
-1.1229 4.7119 -2.5129 0.9784
-1.5378 4.5933 -2.5129 0.9784
-2.9193 3.6132 -2.4098 0.9793
-3.2293 3.3391 -2.4098 0.9793
-3.5136 3.0384 -2.4098 0.9793
-3.9967 2.3672 -2.4098 0.9793
-1.2162 0.4529 -0.6733 0.9942
-1.2283 0.3365 -0.6607 0.9943
-1.1944 0.0000 -0.6542 0.9946
-1.1899 -0.1063 -0.6543 0.9946
-1.1577 -0.3171 -0.6575 0.9945
-1.1464 -0.4269 -0.6700 0.9944
-3.3281 -2.8779 -2.4098 0.9801
-3.0587 -3.1627 -2.4098 0.9801
-2.7651 -3.4224 -2.4098 0.9801
-1.0636 -4.4631 -2.5129 0.9793
-0.6621 -4.5400 -2.5129 0.9793
-0.2554 -4.5810 -2.5129 0.9793
0.1533 -4.5855 -2.5129 0.9793
0.5608 -4.5537 -2.5129 0.9793
0.9639 -4.4857 -2.5129 0.9793
2.1148 -4.0716 -2.5129 0.9793
2.4688 -3.8673 -2.5129 0.9793
2.8032 -3.6322 -2.5129 0.9793
3.1153 -3.3682 -2.5129 0.9793
3.6632 -2.7625 -2.5129 0.9793
3.8945 -2.4255 -2.5129 0.9793
4.0949 -2.0693 -2.5129 0.9793
4.2629 -1.6966 -2.5129 0.9793
4.4961 -0.9139 -2.5129 0.9793
4.5869 -0.1022 -2.5129 0.9793
4.3342 1.5050 -2.5129 0.9793
4.1830 1.8848 -2.5129 0.9793
3.2623 3.2261 -2.5129 0.9793
1.5532 4.3172 -2.5129 0.9793
1.1628 4.4383 -2.5129 0.9793
0.7631 4.5242 -2.5129 0.9793
-0.0511 4.5878 -2.5129 0.9793
-0.4592 4.5650 -2.5129 0.9793
-1.5911 4.1311 -2.4246 0.9800
-1.9405 3.9488 -2.4098 0.9801
-2.2843 3.7604 -2.4098 0.9801
-2.9148 3.2958 -2.4098 0.9801
-3.8818 2.0714 -2.4098 0.9801
-1.1411 0.4838 -0.6788 0.9944
-1.1515 0.3713 -0.6626 0.9945
-1.1840 -0.1592 -0.6543 0.9946
-3.6820 -2.4086 -2.4098 0.9801
-3.4530 -2.7268 -2.4098 0.9801
-3.1966 -3.0233 -2.4098 0.9801
-2.9148 -3.2958 -2.4098 0.9801
-1.9405 -3.9488 -2.4098 0.9801
-1.2614 -4.4113 -2.5129 0.9793
-0.8637 -4.5060 -2.5129 0.9793
-0.4592 -4.5650 -2.5129 0.9793
0.3574 -4.5741 -2.5129 0.9793
0.7631 -4.5241 -2.5129 0.9793
1.1628 -4.4383 -2.5129 0.9793
1.5532 -4.3172 -2.5129 0.9793
1.9313 -4.1618 -2.5129 0.9793
2.2940 -3.9734 -2.5129 0.9793
2.6386 -3.7534 -2.5129 0.9793
3.2623 -3.2261 -2.5129 0.9793
3.5365 -2.9230 -2.5129 0.9793
3.9987 -2.2496 -2.5129 0.9793
4.3342 -1.5050 -2.5129 0.9793
4.4510 -1.1133 -2.5129 0.9793
4.5324 -0.7127 -2.5129 0.9793
4.5778 -0.3064 -2.5129 0.9793
4.5596 0.5101 -2.5129 0.9793
4.4961 0.9139 -2.5129 0.9793
4.3969 1.3104 -2.5129 0.9793
3.8945 2.4255 -2.5129 0.9793
3.6632 2.7625 -2.5129 0.9793
3.4027 3.0776 -2.5129 0.9793
2.1148 4.0716 -2.5129 0.9793
1.3593 4.3821 -2.5129 0.9793
0.5608 4.5537 -2.5129 0.9793
0.1533 4.5855 -2.5129 0.9793
-0.2554 4.5809 -2.5129 0.9793
-0.6621 4.5400 -2.5129 0.9793
-1.0636 4.4631 -2.5129 0.9793
-1.4566 4.3507 -2.5129 0.9793
-2.0330 3.0334 -2.0000 0.9835
-2.7651 3.4224 -2.4098 0.9801
-3.0587 3.1627 -2.4098 0.9801
-3.7856 2.2422 -2.4098 0.9801
-1.1464 0.4269 -0.6700 0.9944
-1.1756 0.2118 -0.6543 0.9946
-1.1319 0.0000 -0.6535 0.9948
-1.1276 -0.1008 -0.6536 0.9948
-1.1141 -0.2007 -0.6536 0.9948
-1.0827 -0.4032 -0.6671 0.9947
-3.7663 -1.7990 -2.4098 0.9809
-2.9017 -3.0003 -2.4098 0.9809
-2.0059 -3.6603 -2.4098 0.9809
-1.6722 -3.8243 -2.4098 0.9809
-1.0090 -4.2339 -2.5129 0.9801
0.1454 -4.3500 -2.5129 0.9801
0.9144 -4.2553 -2.5129 0.9801
1.2895 -4.1570 -2.5129 0.9801
1.6544 -4.0258 -2.5129 0.9801
2.3420 -3.6687 -2.5129 0.9801
2.9553 -3.1953 -2.5129 0.9801
3.2280 -2.9196 -2.5129 0.9801
4.0440 -1.6095 -2.5129 0.9801
4.1712 -1.2431 -2.5129 0.9801
4.3255 -0.4839 -2.5129 0.9801
4.3514 -0.0970 -2.5129 0.9801
4.3427 0.2907 -2.5129 0.9801
3.7934 2.1341 -2.5129 0.9801
3.5884 2.4633 -2.5129 0.9801
3.3549 2.7729 -2.5129 0.9801
2.5031 3.5607 -2.5129 0.9801
1.1031 4.2104 -2.5129 0.9801
0.3391 4.3393 -2.5129 0.9801
-0.0485 4.3522 -2.5129 0.9801
-0.4357 4.3306 -2.5129 0.9801
-0.8194 4.2747 -2.5129 0.9801
-1.1966 4.1848 -2.5129 0.9801
-1.5643 4.0616 -2.5129 0.9801
-2.7651 3.1266 -2.4098 0.9809
-1.0769 0.4566 -0.6753 0.9946
-1.0870 0.3505 -0.6594 0.9947
-1.1309 0.0504 -0.6536 0.9948
-1.1309 -0.0504 -0.6536 0.9948
-1.1039 -0.2501 -0.6535 0.9948
-1.0870 -0.3505 -0.6594 0.9947
-1.0769 -0.4566 -0.6753 0.9946
-3.4929 -2.2850 -2.4098 0.9809
-3.2757 -2.5868 -2.4098 0.9809
-3.0324 -2.8681 -2.4098 0.9809
-2.4759 -3.3603 -2.4098 0.9809
-1.8409 -3.7460 -2.4098 0.9809
-1.1966 -4.1847 -2.5129 0.9801
-0.4357 -4.3306 -2.5129 0.9801
0.7239 -4.2918 -2.5129 0.9801
1.8321 -3.9481 -2.5129 0.9801
2.1762 -3.7693 -2.5129 0.9801
3.5884 -2.4633 -2.5129 0.9801
3.7934 -2.1341 -2.5129 0.9801
3.9683 -1.7880 -2.5129 0.9801
4.1116 -1.4277 -2.5129 0.9801
4.2224 -1.0561 -2.5129 0.9801
4.2996 -0.6761 -2.5129 0.9801
4.3427 -0.2907 -2.5129 0.9801
4.1712 1.2431 -2.5129 0.9801
4.0440 1.6095 -2.5129 0.9801
3.6945 2.3010 -2.5129 0.9801
2.9554 3.1953 -2.5129 0.9801
2.6592 3.4456 -2.5129 0.9801
2.3420 3.6687 -2.5129 0.9801
1.2895 4.1571 -2.5129 0.9801
0.1454 4.3500 -2.5129 0.9801
-0.2423 4.3457 -2.5129 0.9801
-0.6281 4.3069 -2.5129 0.9801
-1.3818 4.1273 -2.5129 0.9801
-1.6722 3.8243 -2.4098 0.9809
-2.0059 3.6603 -2.4098 0.9809
-2.0286 3.0269 -2.1037 0.9833
-2.6231 3.2467 -2.4098 0.9809
-3.3877 2.4383 -2.4098 0.9809
-3.5912 2.1271 -2.4098 0.9809
-3.7663 1.7990 -2.4098 0.9809
-1.0827 0.4032 -0.6671 0.9947
-1.1276 0.1008 -0.6536 0.9948
