ply
format ascii 1.0
element vertex 1378
property float32 x
property float32 y
property float32 z
property float32 I
end_header
7.0664 -15.2277 2.9601 0.9341
12.0285 15.5858 3.4715 0.9231
12.8629 15.2144 1.6866 0.9231
11.4502 16.2882 1.6854 0.9232
7.0649 -15.2245 1.4208 0.9348
7.0644 -15.2233 1.0407 0.9350
12.0353 15.5945 1.2215 0.9241
7.0636 -15.2217 0.6617 0.9350
17.9263 0.3995 0.7070 0.9307
12.0353 15.5945 0.7767 0.9242
17.7860 -0.3963 0.3005 0.9313
7.0629 -15.2201 0.2834 0.9351
17.9263 0.3995 0.3029 0.9308
-18.6179 6.9334 0.3356 0.9236
11.4575 16.2986 -0.1122 0.9234
-18.5687 5.9876 -0.1099 0.9249
12.0353 15.5945 -0.1109 0.9242
-18.4063 6.8546 -0.1106 0.9244
17.7860 -0.3964 -0.5009 0.9313
11.4575 16.2986 -0.5610 0.9234
7.0614 -15.2169 -0.4724 0.9351
17.6476 -1.1814 -0.4980 0.9317
17.9263 0.3995 -0.5049 0.9308
12.0353 15.5945 -0.5547 0.9242
-18.2175 6.7843 -0.5474 0.9252
17.7860 -0.3963 -0.9022 0.9312
17.9263 0.3995 -0.9093 0.9307
-9.2766 15.2714 -1.3101 0.9308
-10.1150 13.7282 -1.2503 0.9339
-12.4654 11.7897 -1.2580 0.9335
-14.3521 11.3337 -1.3409 0.9293
-17.8253 7.5586 -1.4196 0.9253
17.6476 -1.1814 -1.2969 0.9315
17.9263 0.3995 -1.3147 0.9306
12.0353 15.5945 -1.4443 0.9240
-9.1624 16.7193 -1.3979 0.9264
-9.5863 14.3037 -1.2625 0.9333
-10.9538 13.5577 -1.2780 0.9325
-11.9767 12.3837 -1.2632 0.9332
-17.6692 8.4398 -1.4358 0.9245
10.4619 -16.3884 -1.8666 0.9248
10.4675 -13.5632 -1.6448 0.9335
17.7860 -0.3963 -1.7080 0.9310
-8.8987 14.6493 -1.6455 0.9334
-9.7068 13.1742 -1.5710 0.9364
-11.8935 11.2488 -1.5716 0.9363
-13.5039 10.6639 -1.6519 0.9332
-16.7568 8.9417 -1.8235 0.9265
-17.8304 5.7495 -1.7986 0.9275
7.0274 -15.1438 -1.6028 0.9351
10.5246 -8.6988 -1.3109 0.9466
17.9263 0.3995 -1.7214 0.9305
12.0353 15.5945 -1.8912 0.9239
-8.7618 15.9882 -1.7503 0.9294
-9.0297 13.4732 -1.5571 0.9369
-10.5465 13.0535 -1.6111 0.9348
-11.0813 11.4580 -1.5303 0.9380
-12.8555 11.1166 -1.6316 0.9340
-15.3225 9.0755 -1.7097 0.9309
-17.5940 8.4039 -1.8719 0.9246
-5.6157 -12.8436 -1.6651 0.9451
10.4619 -16.3884 -2.3096 0.9247
10.4757 -9.4747 -1.6778 0.9447
10.5136 -7.9287 -1.5642 0.9483
18.7753 -2.1003 -2.2442 0.9267
-8.2255 16.7385 -2.2154 0.9276
-8.5489 14.0734 -1.9560 0.9358
-9.3657 12.7112 -1.8755 0.9384
-10.4468 11.8124 -1.8732 0.9385
-11.4907 10.8678 -1.8787 0.9383
-13.0137 10.2768 -1.9697 0.9354
-14.1008 9.2244 -2.0015 0.9344
-5.6192 -14.5899 -1.8572 0.9390
10.4699 -12.3838 -1.9263 0.9368
10.4739 -10.3579 -1.7498 0.9424
10.4811 -8.6629 -1.6152 0.9467
10.8505 -7.4485 -1.5634 0.9484
10.5346 -3.6580 -1.3247 0.9561
10.5366 -2.6354 -1.2902 0.9572
17.6476 -1.1814 -2.1010 0.9312
12.0353 15.5945 -2.3399 0.9237
-8.6972 12.9770 -1.8557 0.9390
-10.1668 12.5836 -1.9217 0.9369
-10.7241 11.0886 -1.8324 0.9398
-5.6157 -12.8435 -1.9861 0.9449
-5.3245 -15.9034 -2.3763 0.9345
-3.8879 -16.3142 -2.3763 0.9345
5.1844 -16.7130 -2.4794 0.9317
7.7297 -14.8823 -2.3761 0.9345
10.4720 -11.3222 -2.1852 0.9396
10.4757 -9.4747 -2.0013 0.9445
10.4788 -7.9024 -1.8596 0.9484
10.4815 -6.5280 -1.7496 0.9513
10.4986 -4.1784 -1.6010 0.9554
10.5278 -3.1376 -1.5565 0.9566
16.9302 -0.3773 -2.3994 0.9339
16.4284 4.1090 -2.3994 0.9339
15.9974 5.5549 -2.3994 0.9339
14.7591 8.3033 -2.3994 0.9339
12.0410 11.9076 -2.3994 0.9339
9.6443 13.7192 -2.3761 0.9345
8.3850 14.5232 -2.3761 0.9345
7.0590 15.2119 -2.3761 0.9345
5.9238 16.4655 -2.4794 0.9317
-3.1573 16.4712 -2.3763 0.9345
-4.6108 16.1248 -2.3763 0.9345
-7.8701 16.0151 -2.5284 0.9304
-8.2215 13.5344 -2.2438 0.9380
-9.0883 12.3348 -2.1709 0.9400
-12.5867 9.9396 -2.2724 0.9373
-13.6611 8.9367 -2.3130 0.9362
-15.3488 8.1904 -2.4650 0.9321
-4.6108 -16.1248 -2.3763 0.9345
2.9105 -17.2549 -2.4794 0.9317
4.4348 -16.9274 -2.4794 0.9317
10.4739 -10.3579 -2.0872 0.9422
10.4773 -8.6597 -1.9260 0.9466
10.4802 -7.1943 -1.8011 0.9499
10.4851 -4.7244 -1.6295 0.9546
10.5143 -3.6510 -1.5770 0.9560
10.5366 -2.6354 -1.5389 0.9571
13.3337 -2.0966 -1.9125 0.9469
16.8966 -1.1311 -2.3994 0.9339
16.9302 0.3773 -2.3994 0.9339
16.8295 1.8826 -2.3994 0.9339
11.4986 12.4321 -2.3994 0.9339
9.0236 14.1352 -2.3761 0.9345
3.6763 17.1081 -2.4794 0.9317
0.5847 17.4889 -2.4794 0.9317
-5.5066 12.5940 -1.9476 0.9460
-11.9810 10.3603 -2.2442 0.9380
-13.0551 9.3965 -2.2791 0.9371
-5.8650 -5.0716 -1.2773 0.9691
-5.6493 -5.8413 -1.3387 0.9676
-5.6106 -10.2380 -1.9233 0.9538
-5.6157 -12.8436 -2.3092 0.9448
-4.5795 -13.6783 -2.3763 0.9432
-2.0817 -14.2735 -2.3763 0.9432
0.5029 -15.0419 -2.4794 0.9408
7.7611 -12.1575 -2.3761 0.9432
9.7937 -10.5888 -2.3761 0.9432
10.4788 -7.9024 -2.1621 0.9482
10.4815 -6.5280 -2.0342 0.9512
10.4840 -5.2978 -1.9351 0.9535
10.4862 -4.1734 -1.8593 0.9553
14.4747 -1.6193 -2.3994 0.9427
14.5325 0.9728 -2.3994 0.9427
14.1298 3.5341 -2.3994 0.9427
13.7591 4.7777 -2.3994 0.9427
13.2793 5.9834 -2.3994 0.9427
12.0080 8.2430 -2.3994 0.9427
10.2556 10.1420 -2.3761 0.9432
9.3122 11.0146 -2.3761 0.9432
8.2949 11.7997 -2.3761 0.9432
7.2118 12.4912 -2.3761 0.9432
6.3352 13.6520 -2.4794 0.9408
3.8143 14.5589 -2.4794 0.9408
-2.7155 14.1666 -2.3763 0.9432
-5.1843 13.4607 -2.3763 0.9432
-5.5183 7.4895 -1.5325 0.9630
-9.7691 11.0461 -2.4293 0.9420
-13.0976 8.5680 -2.5784 0.9385
-17.0099 7.2128 -3.0437 0.9278
-5.6483 -5.3421 -1.2807 0.9690
-5.6086 -9.2330 -1.7797 0.9572
-5.1843 -13.4607 -2.3763 0.9432
-3.9656 -13.8687 -2.3763 0.9432
-2.7155 -14.1666 -2.3763 0.9432
1.1725 -15.0045 -2.4794 0.9408
2.5033 -14.8406 -2.4794 0.9408
5.0950 -14.1617 -2.4794 0.9408
7.2118 -12.4911 -2.3761 0.9432
8.2949 -11.7997 -2.3761 0.9432
10.2556 -10.1420 -2.3761 0.9432
10.4773 -8.6597 -2.2393 0.9464
10.4802 -7.1943 -2.0941 0.9498
10.4828 -5.8975 -1.9815 0.9524
10.4851 -4.7244 -1.8945 0.9544
10.4872 -3.6416 -1.8289 0.9560
10.4893 -2.6236 -1.7812 0.9571
14.5325 -0.9729 -2.3994 0.9427
14.4747 1.6192 -2.3994 0.9427
13.5326 5.3859 -2.3994 0.9427
12.3633 7.6999 -2.3994 0.9427
9.7937 10.5888 -2.3761 0.9432
8.8123 11.4185 -2.3761 0.9432
7.7611 12.1575 -2.3761 0.9432
5.7208 13.9206 -2.4794 0.9408
1.8397 14.9374 -2.4794 0.9408
0.5029 15.0419 -2.4794 0.9408
-0.8379 15.0269 -2.4794 0.9408
-5.5061 12.5928 -2.2642 0.9458
-7.7317 14.1086 -2.6504 0.9369
-5.8650 -5.0716 -1.4574 0.9689
-5.6493 -5.8413 -1.5274 0.9675
-5.6040 -6.9362 -1.6761 0.9644
-5.6069 -8.3660 -1.8930 0.9598
-5.6106 -10.2380 -2.1944 0.9536
-0.7344 -13.1704 -2.4794 0.9477
0.4408 -13.1835 -2.4794 0.9477
1.6124 -13.0920 -2.4794 0.9477
5.0140 -12.2008 -2.4794 0.9477
6.8022 -10.6555 -2.3761 0.9498
9.3756 -8.4798 -2.3761 0.9498
10.0932 -7.6116 -2.3761 0.9498
10.4840 -5.2978 -2.2079 0.9533
10.4862 -4.1734 -2.1214 0.9551
10.4883 -3.1259 -2.0571 0.9564
10.4902 -2.1322 -2.0121 0.9574
12.6864 -1.4192 -2.3994 0.9494
9.7441 8.0537 -2.3761 0.9498
8.1618 9.6537 -2.3761 0.9498
5.5525 11.9654 -2.4794 0.9477
4.4655 12.4121 -2.4794 0.9477
3.3430 12.7602 -2.4794 0.9477
2.1940 13.0072 -2.4794 0.9477
1.0276 13.1508 -2.4794 0.9477
-3.4757 12.1553 -2.3763 0.9498
-7.6167 12.5388 -2.7576 0.9420
-11.6537 9.2028 -2.7911 0.9414
-12.3904 8.1054 -2.7830 0.9415
-14.1211 7.5353 -3.0085 0.9369
-15.2298 6.4580 -3.1093 0.9349
-17.0734 5.5054 -3.3718 0.9296
-5.6483 -5.3421 -1.4613 0.9689
-5.6194 -6.3540 -1.5944 0.9661
-5.6086 -9.2330 -2.0305 0.9570
-4.5438 -11.7977 -2.3763 0.9498
-3.4757 -12.1553 -2.3763 0.9498
-1.3204 -13.1246 -2.4794 0.9477
-0.1469 -13.1901 -2.4794 0.9477
1.0276 -13.1508 -2.4794 0.9477
3.3430 -12.7602 -2.4794 0.9477
4.4655 -12.4121 -2.4794 0.9477
6.4630 -11.1942 -2.4296 0.9488
7.2701 -10.3419 -2.3761 0.9498
8.1618 -9.6538 -2.3761 0.9498
8.9886 -8.8890 -2.3761 0.9498
10.4828 -5.8975 -2.2608 0.9522
10.4872 -3.6416 -2.0866 0.9558
12.6106 -1.9829 -2.3994 0.9494
12.7371 -0.8526 -2.3994 0.9494
12.7624 0.2844 -2.3994 0.9494
12.6864 1.4192 -2.3994 0.9494
12.5098 2.5427 -2.3994 0.9494
11.8607 4.7204 -2.3994 0.9494
10.8359 6.7486 -2.3994 0.9494
8.5837 9.2806 -2.3761 0.9498
6.8022 10.6555 -2.3761 0.9498
2.7713 12.8965 -2.4794 0.9477
0.4408 13.1836 -2.4794 0.9477
-1.8245 12.5101 -2.3763 0.9498
-5.0648 11.5836 -2.3763 0.9498
-8.9556 11.0845 -2.6785 0.9437
-11.2149 9.6979 -2.7868 0.9414
-18.8399 5.1608 -3.6716 0.9236
-5.6040 -6.9362 -1.8849 0.9642
-5.6069 -8.3660 -2.1288 0.9597
-5.4026 -9.8585 -2.3763 0.9551
-3.5690 -10.6602 -2.3763 0.9551
-2.6061 -10.9355 -2.3763 0.9551
-1.6224 -11.1241 -2.3763 0.9551
1.4338 -11.6415 -2.4794 0.9532
2.4643 -11.4677 -2.4794 0.9532
4.4585 -10.8491 -2.4794 0.9532
6.3114 -9.8867 -2.4794 0.9532
6.8679 -8.8990 -2.3761 0.9551
7.6327 -8.2524 -2.3761 0.9551
8.3369 -7.5403 -2.3761 0.9551
8.9750 -6.7683 -2.3761 0.9551
9.5417 -5.9427 -2.3761 0.9551
10.4442 -4.1567 -2.3761 0.9551
10.4883 -3.1258 -2.3134 0.9562
11.2809 -1.2620 -2.3994 0.9547
11.3259 0.7582 -2.3994 0.9547
11.2135 1.7632 -2.3994 0.9547
10.7232 3.7235 -2.3994 0.9547
10.2487 4.6179 -2.3761 0.9551
9.7970 5.5117 -2.3761 0.9551
5.8647 10.1580 -2.4794 0.9532
4.9373 10.6397 -2.4794 0.9532
3.9708 11.0369 -2.4794 0.9532
1.9510 11.5661 -2.4794 0.9532
0.9138 11.6938 -2.4794 0.9532
-1.1741 11.6706 -2.4794 0.9532
-5.5235 9.0930 -2.2489 0.9574
-8.0171 10.8808 -2.8569 0.9462
-9.0158 10.1943 -2.8767 0.9459
-10.1367 9.5872 -2.9492 0.9446
-11.7506 7.6869 -2.9681 0.9442
-12.7841 6.8218 -3.0630 0.9425
-13.6392 5.7835 -3.1315 0.9412
-5.6008 -5.2972 -1.6295 0.9690
-5.6054 -7.6076 -1.9975 0.9621
-4.9581 -10.0893 -2.3763 0.9551
-2.1163 -11.0408 -2.3763 0.9551
-1.1741 -11.6706 -2.4794 0.9532
-0.1307 -11.7287 -2.4794 0.9532
2.9727 -11.3465 -2.4794 0.9532
3.9708 -11.0369 -2.4794 0.9532
4.9373 -10.6397 -2.4794 0.9532
5.8647 -10.1580 -2.4794 0.9532
6.4748 -9.2106 -2.3799 0.9550
7.2575 -8.5842 -2.3761 0.9551
10.2487 -4.6178 -2.3761 0.9551
10.4872 -3.6416 -2.3466 0.9556
10.4893 -2.6236 -2.2855 0.9568
11.2135 -1.7632 -2.3994 0.9547
11.3259 -0.7582 -2.3994 0.9547
11.2809 1.2620 -2.3994 0.9547
10.8784 3.2421 -2.3994 0.9547
10.4442 4.1567 -2.3761 0.9551
10.0328 5.0698 -2.3761 0.9551
9.5418 5.9427 -2.3761 0.9551
8.9750 6.7683 -2.3761 0.9551
6.8679 8.8990 -2.3761 0.9551
6.3114 9.8867 -2.4794 0.9532
5.4064 10.4092 -2.4794 0.9532
3.4752 11.2028 -2.4794 0.9532
2.4643 11.4677 -2.4794 0.9532
0.3919 11.7229 -2.4794 0.9532
-4.5037 10.3002 -2.3763 0.9551
-8.4140 10.4141 -2.8300 0.9467
-9.4817 9.8040 -2.8830 0.9458
-12.3486 7.3141 -3.0337 0.9430
-14.3060 5.3276 -3.2269 0.9395
-17.5098 4.7964 -3.8376 0.9285
-5.9362 -3.5160 -1.6215 0.9720
-5.5997 -4.0304 -1.6215 0.9720
-5.6040 -6.9362 -2.0957 0.9640
-5.6069 -8.3660 -2.3669 0.9595
-4.8591 -8.8667 -2.3763 0.9593
-4.0506 -9.2640 -2.3763 0.9593
-3.2100 -9.5878 -2.3763 0.9593
-2.3439 -9.8354 -2.3763 0.9593
1.2896 -10.4704 -2.4794 0.9576
2.2163 -10.3140 -2.4794 0.9576
3.1256 -10.0758 -2.4794 0.9576
4.0100 -9.7577 -2.4794 0.9576
5.6765 -8.8921 -2.4794 0.9576
6.4454 -8.3515 -2.4794 0.9576
6.8649 -7.4222 -2.3761 0.9593
7.4982 -6.7818 -2.3761 0.9593
9.0235 -4.5598 -2.3761 0.9593
9.6890 -2.8876 -2.3761 0.9593
9.9076 -2.0138 -2.3761 0.9593
10.1077 -0.2253 -2.3761 0.9593
9.9875 1.5704 -2.3761 0.9593
9.8080 2.4532 -2.3761 0.9593
8.8114 4.9572 -2.3761 0.9593
8.3352 5.7218 -2.3761 0.9593
7.7929 6.4410 -2.3761 0.9593
7.1887 7.1090 -2.3761 0.9593
6.0670 8.6304 -2.4794 0.9576
4.4406 9.5693 -2.4794 0.9576
3.5713 9.9266 -2.4794 0.9576
0.8218 10.5174 -2.4794 0.9576
-0.1175 10.5488 -2.4794 0.9576
-1.9034 9.9301 -2.3763 0.9593
-2.7797 9.7212 -2.3763 0.9593
-4.4593 9.0744 -2.3763 0.9593
-5.5091 7.4770 -2.1828 0.9626
-8.4890 9.5986 -3.0116 0.9487
-10.0608 7.9450 -3.0129 0.9487
-17.8422 4.0425 -4.2996 0.9276
-5.5990 -4.4215 -1.6767 0.9711
-5.6008 -5.2972 -1.8118 0.9688
-5.6028 -6.3352 -1.9877 0.9658
-5.2493 -8.6415 -2.3763 0.9593
-2.7797 -9.7212 -2.3763 0.9593
-1.9034 -9.9301 -2.3763 0.9593
1.7547 -10.4025 -2.4794 0.9576
2.6736 -10.2051 -2.4794 0.9576
3.5713 -9.9266 -2.4794 0.9576
5.2747 -9.1361 -2.4794 0.9576
6.0670 -8.6304 -2.4794 0.9576
7.1887 -7.1090 -2.3761 0.9593
8.3352 -5.7218 -2.3761 0.9593
6.7851 -3.0572 -1.7491 0.9699
10.1077 0.2252 -2.3761 0.9593
10.0475 1.1240 -2.3761 0.9593
9.3936 3.7386 -2.3761 0.9593
9.0235 4.5598 -2.3761 0.9593
8.5819 5.3448 -2.3761 0.9593
6.4454 8.3515 -2.4794 0.9576
5.6765 8.8921 -2.4794 0.9576
4.8625 9.3620 -2.4794 0.9576
3.1256 10.0759 -2.4794 0.9576
-0.5873 10.5331 -2.4794 0.9576
-3.2100 9.5878 -2.3763 0.9593
-4.0506 9.2640 -2.3763 0.9593
-8.9347 9.2384 -3.0205 0.9486
-11.2981 6.6919 -3.0861 0.9475
-13.1544 4.8987 -3.2990 0.9440
-15.2764 4.1846 -3.7226 0.9370
-5.5982 -4.0294 -1.7859 0.9719
-5.6017 -5.7922 -2.0863 0.9673
-5.6040 -6.9362 -2.3088 0.9638
-1.3820 -9.4757 -2.4794 0.9612
0.3200 -9.5706 -2.4794 0.9612
2.8371 -9.1460 -2.4794 0.9612
4.4138 -8.4980 -2.4794 0.9612
5.1526 -8.0714 -2.4794 0.9612
5.8506 -7.5808 -2.4794 0.9612
6.4630 -6.9877 -2.4645 0.9614
6.8062 -6.1559 -2.3761 0.9628
7.3271 -5.5257 -2.3761 0.9628
8.5266 -3.3935 -2.3761 0.9628
8.9932 -1.8280 -2.3761 0.9628
9.1748 -0.2045 -2.3761 0.9628
9.1566 0.6130 -2.3761 0.9628
8.9029 2.2268 -2.3761 0.9628
8.6693 3.0103 -2.3761 0.9628
8.3670 3.7700 -2.3761 0.9628
7.9983 4.4997 -2.3761 0.9628
7.0737 5.8466 -2.3761 0.9628
6.5253 6.4530 -2.3761 0.9628
4.7880 8.2930 -2.4794 0.9612
3.2417 9.0105 -2.4794 0.9612
2.4269 9.2633 -2.4794 0.9612
1.5928 9.4425 -2.4794 0.9612
-0.1067 9.5753 -2.4794 0.9612
-0.9585 9.5278 -2.4794 0.9612
-1.7278 9.0137 -2.3763 0.9628
-2.5232 8.8241 -2.3763 0.9628
-3.2986 8.5645 -2.3763 0.9628
-4.0477 8.2369 -2.3763 0.9628
-4.7648 7.8440 -2.3763 0.9628
-5.4441 7.3887 -2.3763 0.9628
-5.5079 5.2093 -1.9629 0.9692
-10.1390 6.6326 -3.1370 0.9512
-5.5083 2.9393 -1.6165 0.9745
-5.5012 2.3327 -1.5471 0.9756
-12.7951 4.1259 -3.4809 0.9460
-5.7657 -2.4449 -1.6215 0.9745
-5.5962 -2.9862 -1.6423 0.9741
-5.5990 -4.4215 -1.8472 0.9710
-4.7648 -7.8440 -2.3763 0.9628
-4.0477 -8.2369 -2.3763 0.9628
-2.5232 -8.8241 -2.3763 0.9628
-1.7278 -9.0136 -2.3763 0.9628
-0.1067 -9.5753 -2.4794 0.9612
0.7460 -9.5468 -2.4794 0.9612
4.0308 -8.6862 -2.4794 0.9612
4.7880 -8.2930 -2.4794 0.9612
6.1825 -7.3127 -2.4794 0.9612
8.6693 -3.0103 -2.3761 0.9628
9.1566 -0.6130 -2.3761 0.9628
9.1748 0.2045 -2.3761 0.9628
9.1202 1.0203 -2.3761 0.9628
8.7948 2.6211 -2.3761 0.9628
8.5266 3.3935 -2.3761 0.9628
5.1526 8.0715 -2.4794 0.9612
1.1705 9.5041 -2.4794 0.9612
-0.5331 9.5611 -2.4794 0.9612
-2.1276 8.9277 -2.3763 0.9628
-5.1095 7.6239 -2.3763 0.9628
-8.1747 8.4526 -3.0446 0.9526
-8.9275 7.7199 -3.0559 0.9524
-9.7355 7.0072 -3.1057 0.9516
-10.4928 6.2149 -3.1576 0.9509
-11.1783 5.3394 -3.2075 0.9501
-12.1998 4.5433 -3.3707 0.9476
-13.4307 3.6791 -3.6056 0.9441
-5.5017 -0.4917 -1.5637 0.9773
-5.5956 -2.6728 -1.7555 0.9746
-5.5968 -3.3150 -1.8415 0.9733
-5.5999 -4.8424 -2.0958 0.9697
-4.6732 -6.9729 -2.3763 0.9657
-4.0340 -7.3611 -2.3763 0.9657
-2.6649 -7.9597 -2.3763 0.9657
0.2927 -8.7533 -2.4794 0.9642
1.8400 -8.5627 -2.4794 0.9642
4.0368 -7.7723 -2.4794 0.9642
5.3510 -6.9334 -2.4794 0.9642
6.4630 -5.8454 -2.4670 0.9644
6.7014 -5.0538 -2.3761 0.9657
7.1246 -4.4373 -2.3761 0.9657
7.4913 -3.7855 -2.3761 0.9657
8.0438 -2.3973 -2.3761 0.9657
8.2252 -1.6719 -2.3761 0.9657
8.2916 1.3038 -2.3761 0.9657
8.1426 2.0366 -2.3761 0.9657
6.9199 4.7502 -2.3761 0.9657
6.2274 6.1584 -2.4794 0.9642
4.3791 7.5848 -2.4794 0.9642
3.6866 7.9445 -2.4794 0.9642
2.9649 8.2411 -2.4794 0.9642
2.2196 8.4722 -2.4794 0.9642
1.4567 8.6362 -2.4794 0.9642
-0.0976 8.7576 -2.4794 0.9642
-2.3077 8.0705 -2.3763 0.9657
-3.0169 7.8331 -2.3763 0.9657
-3.7021 7.5335 -2.3763 0.9657
-5.5609 6.2878 -2.3763 0.9657
-7.9029 7.4745 -3.0794 0.9558
-8.7353 6.8982 -3.1510 0.9548
-11.8763 3.8296 -3.5326 0.9494
-5.5016 0.2453 -1.5590 0.9774
-5.5950 -2.3725 -1.7204 0.9751
-5.5962 -2.9862 -1.7957 0.9740
-5.5990 -4.4215 -2.0197 0.9708
-5.6008 -5.2972 -2.1824 0.9685
-5.5609 -6.2878 -2.3763 0.9657
-3.0169 -7.8331 -2.3763 0.9657
-2.3077 -8.0706 -2.3763 0.9657
-1.5908 -8.2992 -2.3922 0.9655
-0.8767 -8.7142 -2.4794 0.9642
-0.0976 -8.7576 -2.4794 0.9642
1.4567 -8.6362 -2.4794 0.9642
2.2196 -8.4722 -2.4794 0.9642
6.4753 -5.3520 -2.3782 0.9657
6.9199 -4.7503 -2.3761 0.9657
7.3152 -4.1155 -2.3761 0.9657
6.7821 -3.0559 -2.1059 0.9695
8.1426 -2.0366 -2.3761 0.9657
8.3414 0.9331 -2.3761 0.9657
8.2252 1.6718 -2.3761 0.9657
7.7985 3.1037 -2.3761 0.9657
7.4913 3.7855 -2.3761 0.9657
6.4630 5.8454 -2.4670 0.9644
5.9468 6.4296 -2.4794 0.9642
4.7126 7.3822 -2.4794 0.9642
4.0369 7.7723 -2.4794 0.9642
3.3291 8.1008 -2.4794 0.9642
1.0706 8.6925 -2.4794 0.9642
0.2927 8.7533 -2.4794 0.9642
-1.2640 8.6665 -2.4794 0.9642
-1.9459 8.1654 -2.3763 0.9657
-2.6649 7.9597 -2.3763 0.9657
-3.3628 7.6910 -2.3763 0.9657
-4.0340 7.3611 -2.3763 0.9657
-5.2752 6.5293 -2.3763 0.9657
-8.3222 7.1965 -3.1147 0.9553
-9.0892 6.5420 -3.1703 0.9545
-9.7870 5.7969 -3.2202 0.9538
-10.5313 5.0304 -3.3040 0.9526
-11.3877 4.2408 -3.4401 0.9507
-12.4839 3.4197 -3.6643 0.9476
-16.6726 3.0037 -4.7959 0.9320
-5.5088 -0.0000 -1.6944 0.9772
-5.5944 -2.0834 -1.8362 0.9753
-5.5982 -4.0294 -2.1215 0.9715
-5.3709 -5.5535 -2.3763 0.9682
-1.7910 -7.5153 -2.3763 0.9682
-1.1634 -7.9766 -2.4794 0.9668
0.9854 -8.0005 -2.4794 0.9668
4.3375 -6.7945 -2.4794 0.9668
4.9250 -6.3815 -2.4794 0.9668
5.4734 -5.9178 -2.4794 0.9668
5.9784 -5.4072 -2.4794 0.9668
6.4360 -4.8536 -2.4794 0.9668
6.5575 -4.0840 -2.3761 0.9682
6.8949 -3.4842 -2.3761 0.9682
7.1777 -2.8566 -2.3761 0.9682
7.5705 -1.5388 -2.3761 0.9682
7.6774 -0.8588 -2.3761 0.9682
7.7233 -0.1721 -2.3761 0.9682
7.7080 0.5160 -2.3761 0.9682
7.6315 1.2000 -2.3761 0.9682
7.4944 1.8745 -2.3761 0.9682
7.0433 3.1736 -2.3761 0.9682
4.0305 6.9810 -2.4794 0.9668
2.7289 7.5850 -2.4794 0.9668
0.6280 8.0364 -2.4794 0.9668
-0.0898 8.0604 -2.4794 0.9668
-0.8069 8.0204 -2.4794 0.9668
-2.1240 7.4281 -2.3763 0.9682
-2.7767 7.2095 -2.3763 0.9682
-4.0110 6.6030 -2.3763 0.9682
-5.1182 5.7872 -2.3763 0.9682
-7.4289 7.0262 -3.1451 0.9581
-8.2032 6.4780 -3.2150 0.9572
-8.8578 5.7945 -3.2557 0.9567
-9.5696 5.1065 -3.3362 0.9556
-10.3277 4.3793 -3.4504 0.9541
-5.5211 1.7803 -1.7843 0.9760
-18.8502 0.8405 -5.8037 0.9241
-5.6915 -1.8353 -1.8393 0.9753
-5.5950 -2.3725 -1.8692 0.9749
-5.5962 -2.9862 -1.9510 0.9738
-5.6008 -5.2972 -2.3711 0.9683
-4.0110 -6.6030 -2.3763 0.9682
-2.7767 -7.2096 -2.3763 0.9682
-2.1240 -7.4281 -2.3763 0.9682
-0.8069 -8.0204 -2.4794 0.9668
-0.0898 -8.0604 -2.4794 0.9668
0.6280 -8.0364 -2.4794 0.9668
1.3408 -7.9487 -2.4794 0.9668
2.7289 -7.5850 -2.4794 0.9668
5.2044 -6.1557 -2.4794 0.9668
6.2134 -5.1355 -2.4794 0.9668
6.7329 -3.7879 -2.3761 0.9682
6.7821 -3.0559 -2.2880 0.9693
7.4944 -1.8745 -2.3761 0.9682
7.7080 -0.5160 -2.3761 0.9682
7.4034 2.2065 -2.3761 0.9682
7.1777 2.8567 -2.3761 0.9682
6.5575 4.0840 -2.3761 0.9682
5.9784 5.4071 -2.4794 0.9668
5.4734 5.9178 -2.4794 0.9668
3.0640 7.4559 -2.4794 0.9668
0.2694 8.0564 -2.4794 0.9668
-1.1633 7.9766 -2.4794 0.9668
-3.0951 7.0787 -2.3763 0.9682
-4.3012 6.4178 -2.3763 0.9682
-5.3709 5.5535 -2.3763 0.9682
-7.8177 6.7603 -3.1789 0.9577
-5.5081 3.9645 -2.0874 0.9720
-9.9481 4.7518 -3.3910 0.9549
-10.7237 3.9936 -3.5197 0.9532
-11.7351 3.2146 -3.7424 0.9504
-14.0418 2.5297 -4.3885 0.9420
-18.5495 0.0000 -6.1660 0.9248
-18.5210 -1.6551 -6.1810 0.9246
-5.5944 -2.0834 -1.9844 0.9752
-5.5956 -2.6728 -2.0613 0.9742
-5.4074 -4.6760 -2.3763 0.9703
-4.9698 -5.1387 -2.3763 0.9703
-3.4356 -6.2691 -2.3763 0.9703
-2.2696 -6.7789 -2.3763 0.9703
-1.6572 -6.9540 -2.3763 0.9703
-0.4153 -7.4473 -2.4794 0.9690
0.2492 -7.4547 -2.4794 0.9690
2.8352 -6.8990 -2.4794 0.9690
3.4380 -6.6193 -2.4794 0.9690
4.0135 -6.2870 -2.4794 0.9690
4.5571 -5.9048 -2.4794 0.9690
5.0646 -5.4758 -2.4794 0.9690
5.5319 -5.0033 -2.4794 0.9690
6.4674 -3.2682 -2.4087 0.9699
6.6416 -2.6433 -2.3761 0.9703
6.8505 -2.0417 -2.3761 0.9703
7.0050 -1.4238 -2.3761 0.9703
7.1039 -0.7947 -2.3761 0.9703
6.9346 1.7345 -2.3761 0.9703
6.7527 2.3448 -2.3761 0.9703
6.5172 2.9365 -2.3761 0.9703
6.4630 3.6360 -2.4650 0.9692
5.7493 4.7519 -2.4794 0.9690
4.2896 6.1020 -2.4794 0.9690
3.7294 6.4596 -2.4794 0.9690
3.1397 6.7659 -2.4794 0.9690
2.5250 7.0185 -2.4794 0.9690
1.2406 7.3550 -2.4794 0.9690
-0.7466 7.4214 -2.4794 0.9690
-1.4042 7.3255 -2.4794 0.9690
-1.9654 6.8733 -2.3763 0.9703
-3.7114 6.1098 -2.3763 0.9703
-4.2405 5.7552 -2.3763 0.9703
-4.7359 5.3550 -2.3763 0.9703
-5.1937 4.9122 -2.3763 0.9703
-8.3547 5.4654 -3.3186 0.9588
-9.0665 4.8380 -3.4160 0.9576
-9.7675 4.1418 -3.5266 0.9563
-10.5276 3.3947 -3.6769 0.9544
-18.7686 -2.5242 -6.2950 0.9233
-5.6915 -1.8353 -1.9878 0.9751
-5.5962 -2.9862 -2.1085 0.9736
-5.5975 -3.6617 -2.2234 0.9722
-4.7359 -5.3550 -2.3763 0.9703
-4.2405 -5.7552 -2.3763 0.9703
-3.7114 -6.1098 -2.3763 0.9703
-2.5693 -6.6711 -2.3763 0.9703
-1.4042 -7.3255 -2.4794 0.9690
-0.7466 -7.4214 -2.4794 0.9690
0.5811 -7.4362 -2.4794 0.9690
3.7294 -6.4596 -2.4794 0.9690
4.2896 -6.1020 -2.4794 0.9690
4.8157 -5.6960 -2.4794 0.9690
5.3035 -5.2448 -2.4794 0.9690
5.7493 -4.7519 -2.4794 0.9690
6.4630 -3.6360 -2.4650 0.9692
7.1039 0.7947 -2.3761 0.9703
7.0050 1.4238 -2.3761 0.9703
6.8505 2.0417 -2.3761 0.9703
6.6416 2.6433 -2.3761 0.9703
6.3314 3.9432 -2.4794 0.9690
5.9553 4.4911 -2.4794 0.9690
5.0646 5.4758 -2.4794 0.9690
2.2099 7.1240 -2.4794 0.9690
1.5670 7.2924 -2.4794 0.9690
0.2492 7.4547 -2.4794 0.9690
-0.4153 7.4473 -2.4794 0.9690
-1.0765 7.3808 -2.4794 0.9690
-1.6572 6.9540 -2.3763 0.9703
-2.2696 6.7789 -2.3763 0.9703
-2.8639 6.5500 -2.3763 0.9703
-3.4356 6.2691 -2.3763 0.9703
-3.9799 5.9384 -2.3763 0.9703
-4.4927 5.5606 -2.3763 0.9703
-4.9698 5.1387 -2.3763 0.9703
-5.4074 4.6760 -2.3763 0.9703
-8.7115 5.1598 -3.3656 0.9582
-5.5087 0.4922 -1.8384 0.9770
-18.4474 0.0000 -6.5969 0.9246
-18.4633 -1.6499 -6.6290 0.9243
-5.5956 -2.6728 -2.2176 0.9740
-5.0263 -4.3464 -2.3763 0.9722
-4.6195 -4.7766 -2.3763 0.9722
-4.1760 -5.1687 -2.3763 0.9722
-2.6621 -6.0884 -2.3763 0.9722
-2.1096 -6.3012 -2.3763 0.9722
-1.0006 -6.8606 -2.4794 0.9710
-0.3860 -6.9225 -2.4794 0.9710
2.0541 -6.6220 -2.4794 0.9710
2.6354 -6.4128 -2.4794 0.9710
3.1957 -6.1528 -2.4794 0.9710
3.7306 -5.8440 -2.4794 0.9710
4.7077 -5.0899 -2.4794 0.9710
5.1420 -4.6507 -2.4794 0.9710
5.5356 -4.1746 -2.4794 0.9710
6.1880 -3.1270 -2.4794 0.9710
6.4418 -2.5638 -2.4794 0.9710
6.4664 -1.9272 -2.4129 0.9717
6.6033 -0.7387 -2.3761 0.9722
6.5638 1.0321 -2.3761 0.9722
5.3441 4.4170 -2.4794 0.9710
4.9298 4.8752 -2.4794 0.9710
2.9184 6.2891 -2.4794 0.9710
1.7571 6.7069 -2.4794 0.9710
1.1532 6.8366 -2.4794 0.9710
-0.0772 6.9328 -2.4794 0.9710
-0.6940 6.8984 -2.4794 0.9710
-2.9307 5.9638 -2.3763 0.9722
-3.9416 5.3496 -2.3763 0.9722
-5.2150 4.1182 -2.3763 0.9722
-9.2589 3.9261 -3.5964 0.9582
-10.0143 3.2292 -3.7628 0.9563
-12.9933 1.7474 -4.6883 0.9458
-5.5950 -2.3725 -2.1732 0.9745
-5.5962 -2.9862 -2.2683 0.9734
-4.8277 -4.5660 -2.3763 0.9722
-3.9417 -5.3496 -2.3763 0.9722
-3.4499 -5.6792 -2.3763 0.9722
-2.9307 -5.9638 -2.3763 0.9722
-2.3882 -6.2010 -2.3763 0.9722
-1.3052 -6.8093 -2.4794 0.9710
1.1532 -6.8366 -2.4794 0.9710
2.3471 -6.5239 -2.4794 0.9710
2.9184 -6.2891 -2.4794 0.9710
3.4666 -6.0044 -2.4794 0.9710
4.4763 -5.2946 -2.4794 0.9710
4.9298 -4.8752 -2.4794 0.9710
6.0426 -3.3995 -2.4794 0.9710
6.3212 -2.8482 -2.4794 0.9710
6.4732 -1.6191 -2.3862 0.9721
6.5639 -1.0321 -2.3761 0.9722
6.6297 -0.4438 -2.3761 0.9722
6.6429 0.1480 -2.3761 0.9722
6.6033 0.7387 -2.3761 0.9722
6.5114 1.3235 -2.3761 0.9722
6.4664 1.9272 -2.4129 0.9717
6.4418 2.5638 -2.4794 0.9710
5.8852 3.6653 -2.4794 0.9710
5.1420 4.6507 -2.4794 0.9710
3.7307 5.8440 -2.4794 0.9710
3.1957 6.1528 -2.4794 0.9710
2.0542 6.6219 -2.4794 0.9710
0.2317 6.9294 -2.4794 0.9710
-1.0006 6.8606 -2.4794 0.9710
-1.5829 6.6423 -2.4419 0.9714
-2.1096 6.3012 -2.3763 0.9722
-2.6621 6.0884 -2.3763 0.9722
-3.1934 5.8273 -2.3763 0.9722
-3.6994 5.5199 -2.3763 0.9722
-4.1760 5.1687 -2.3763 0.9722
-5.0263 4.3464 -2.3763 0.9722
-18.5046 1.6536 -6.6438 0.9241
-5.5953 -2.6726 -2.3763 0.9738
-5.3352 -3.1601 -2.3763 0.9738
-4.3108 -4.4573 -2.3763 0.9738
-3.8970 -4.8233 -2.3763 0.9738
-3.4522 -5.1510 -2.3763 0.9738
-2.9800 -5.4379 -2.3763 0.9738
-2.4842 -5.6815 -2.3763 0.9738
-1.9687 -5.8801 -2.3763 0.9738
-1.4998 -6.2936 -2.4794 0.9727
-0.9337 -6.4021 -2.4794 0.9727
-0.3602 -6.4598 -2.4794 0.9727
0.7909 -6.4213 -2.4794 0.9727
1.9169 -6.1794 -2.4794 0.9727
2.9821 -5.7416 -2.4794 0.9727
4.7984 -4.3399 -2.4794 0.9727
5.1656 -3.8956 -2.4794 0.9727
5.4919 -3.4204 -2.4794 0.9727
6.2004 -1.8479 -2.4794 0.9727
6.3402 -1.2887 -2.4794 0.9727
6.4298 -0.7193 -2.4794 0.9727
6.4554 0.4321 -2.4794 0.9727
6.3913 1.0050 -2.4794 0.9727
6.2765 1.5699 -2.4794 0.9727
6.1119 2.1223 -2.4794 0.9727
5.8987 2.6578 -2.4794 0.9727
5.6388 3.1723 -2.4794 0.9727
5.3340 3.6616 -2.4794 0.9727
4.9870 4.1218 -2.4794 0.9727
4.1771 4.9407 -2.4794 0.9727
2.1902 6.0879 -2.4794 0.9727
-0.6476 6.4374 -2.4794 0.9727
-1.2180 6.3542 -2.4794 0.9727
-1.7048 5.9619 -2.3763 0.9738
-2.2286 5.7865 -2.3763 0.9738
-3.6782 4.9921 -2.3763 0.9738
-4.1080 4.6449 -2.3763 0.9738
-4.5051 4.2609 -2.3763 0.9738
-5.4707 2.9193 -2.3763 0.9738
-8.7910 3.7277 -3.6592 0.9599
-11.7639 1.5821 -4.5487 0.9504
-18.4019 0.8205 -7.0589 0.9241
-18.5236 -0.8260 -7.1057 0.9236
-5.5091 -1.7765 -2.2183 0.9755
-4.8664 -3.8430 -2.3763 0.9738
-4.5051 -4.2609 -2.3763 0.9738
-3.6782 -4.9921 -2.3763 0.9738
-2.7348 -5.5652 -2.3763 0.9738
-1.7048 -5.9619 -2.3763 0.9738
-0.0721 -6.4695 -2.4794 0.9727
1.6397 -6.2586 -2.4794 0.9727
2.1902 -6.0879 -2.4794 0.9727
2.7234 -5.8688 -2.4794 0.9727
3.7208 -5.2929 -2.4794 0.9727
4.9870 -4.1218 -2.4794 0.9727
5.8987 -2.6579 -2.4794 0.9727
6.1119 -2.1223 -2.4794 0.9727
6.4554 -0.4321 -2.4794 0.9727
6.4630 0.1440 -2.4773 0.9727
6.4298 0.7193 -2.4794 0.9727
6.3402 1.2887 -2.4794 0.9727
5.1656 3.8956 -2.4794 0.9727
4.3931 4.7497 -2.4794 0.9727
2.9821 5.7416 -2.4794 0.9727
2.4593 5.9843 -2.4794 0.9727
1.3593 6.3255 -2.4794 0.9727
0.7909 6.4213 -2.4794 0.9727
-0.3602 6.4598 -2.4794 0.9727
-0.9337 6.4021 -2.4794 0.9727
-2.4842 5.6815 -2.3763 0.9738
-4.3108 4.4573 -2.3763 0.9738
-5.0328 3.6224 -2.3763 0.9738
-5.5953 2.6727 -2.3763 0.9738
-9.9740 2.7322 -3.9630 0.9567
-13.8257 1.2354 -5.3194 0.9423
-1.6390 -0.1465 -0.6735 0.9929
-1.6200 -0.2919 -0.6737 0.9929
-5.4410 -2.0262 -2.3763 0.9752
-4.9956 -2.9589 -2.3763 0.9752
-4.7124 -3.3918 -2.3763 0.9752
-3.2324 -4.8231 -2.3763 0.9752
-2.7903 -5.0917 -2.3763 0.9752
-1.8433 -5.5057 -2.3763 0.9752
-1.4044 -5.8929 -2.4794 0.9742
-0.8743 -5.9946 -2.4794 0.9742
-0.3373 -6.0486 -2.4794 0.9742
0.2024 -6.0546 -2.4794 0.9742
2.3027 -5.6033 -2.4794 0.9742
2.7923 -5.3761 -2.4794 0.9742
3.7012 -4.7958 -2.4794 0.9742
4.4929 -4.0636 -2.4794 0.9742
5.1422 -3.2026 -2.4794 0.9742
5.4068 -2.7322 -2.4794 0.9742
5.6286 -2.2401 -2.4794 0.9742
6.0565 -0.1349 -2.4794 0.9742
6.0444 0.4046 -2.4794 0.9742
5.8769 1.4699 -2.4794 0.9742
5.2798 2.9704 -2.4794 0.9742
4.6695 3.8594 -2.4794 0.9742
4.3074 4.2597 -2.4794 0.9742
3.9112 4.6262 -2.4794 0.9742
3.4839 4.9559 -2.4794 0.9742
3.0290 5.2464 -2.4794 0.9742
2.0508 5.7003 -2.4794 0.9742
1.5353 5.8602 -2.4794 0.9742
-0.6064 6.0276 -2.4794 0.9742
-1.1405 5.9496 -2.4794 0.9742
-1.5962 5.5823 -2.3763 0.9752
-2.5607 5.2109 -2.3763 0.9752
-3.0143 4.9623 -2.3763 0.9752
-3.4440 4.6743 -2.3763 0.9752
-3.8464 4.3492 -2.3763 0.9752
-1.6146 0.3658 -0.6776 0.9929
-5.5083 0.2456 -2.2567 0.9765
-5.5084 -0.2457 -2.2567 0.9765
-4.2183 -3.9896 -2.3763 0.9752
-2.5607 -5.2109 -2.3763 0.9752
-2.0868 -5.4181 -2.3763 0.9752
-1.1405 -5.9496 -2.4794 0.9742
-0.6064 -6.0275 -2.4794 0.9742
-0.0675 -6.0576 -2.4794 0.9742
0.4719 -6.0396 -2.4794 0.9742
1.0076 -5.9736 -2.4794 0.9742
2.5500 -5.4951 -2.4794 0.9742
3.0290 -5.2463 -2.4794 0.9742
3.4839 -4.9559 -2.4794 0.9742
4.9944 -3.4285 -2.4794 0.9742
5.2798 -2.9704 -2.4794 0.9742
5.9844 -0.9410 -2.4794 0.9742
6.0444 -0.4046 -2.4794 0.9742
6.0565 0.1350 -2.4794 0.9742
6.0204 0.6735 -2.4794 0.9742
5.8056 1.7303 -2.4794 0.9742
5.4068 2.7322 -2.4794 0.9742
4.8368 3.6476 -2.4794 0.9742
4.4929 4.0636 -2.4794 0.9742
4.1134 4.4474 -2.4794 0.9742
3.2597 5.1062 -2.4794 0.9742
2.3027 5.6033 -2.4794 0.9742
0.7405 6.0125 -2.4794 0.9742
-1.8433 5.5057 -2.3763 0.9752
-2.3260 5.3198 -2.3763 0.9752
-2.7903 5.0916 -2.3763 0.9752
-3.6489 4.5163 -2.3763 0.9752
-4.0363 4.1736 -2.3763 0.9752
-4.7124 3.3918 -2.3763 0.9752
-5.2391 2.5025 -2.3763 0.9752
-1.6390 0.1465 -0.6735 0.9929
-1.5266 0.0000 -0.6653 0.9934
-5.1097 -1.9029 -2.3763 0.9765
-4.9200 -2.3501 -2.3763 0.9765
-3.7905 -3.9194 -2.3763 0.9765
-3.4266 -4.2412 -2.3763 0.9765
-2.6204 -4.7816 -2.3763 0.9765
-2.1844 -4.9958 -2.3763 0.9765
-1.3188 -5.5341 -2.4794 0.9755
-0.3167 -5.6802 -2.4794 0.9755
0.1901 -5.6858 -2.4794 0.9755
1.1952 -5.5621 -2.4794 0.9755
1.6855 -5.4336 -2.4794 0.9755
3.0612 -4.7952 -2.4794 0.9755
3.8629 -4.1765 -2.4794 0.9755
4.8290 -3.0076 -2.4794 0.9755
5.0776 -2.5658 -2.4794 0.9755
5.2858 -2.1037 -2.4794 0.9755
5.4520 -1.6249 -2.4794 0.9755
5.5750 -1.1332 -2.4794 0.9755
5.6200 0.8837 -2.4794 0.9755
5.5190 1.3804 -2.4794 0.9755
4.3851 3.6244 -2.4794 0.9755
3.6730 4.3444 -2.4794 0.9755
2.3947 5.1605 -2.4794 0.9755
-0.0634 5.6887 -2.4794 0.9755
-1.9597 5.0882 -2.3763 0.9765
-2.4048 4.8935 -2.3763 0.9765
-2.8308 4.6601 -2.3763 0.9765
-4.5629 2.9849 -2.3763 0.9765
-5.0198 2.1286 -2.3763 0.9765
-1.4861 0.4792 -0.6805 0.9932
-1.5259 0.0680 -0.6657 0.9934
-1.5259 -0.0680 -0.6657 0.9934
-1.5133 -0.2035 -0.6654 0.9934
-1.4861 -0.4792 -0.6805 0.9932
-5.0198 -2.1286 -2.3763 0.9765
-4.5629 -2.9849 -2.3763 0.9765
-3.2343 -4.3896 -2.3763 0.9765
-2.8308 -4.6601 -2.3763 0.9765
-2.4048 -4.8935 -2.3763 0.9765
-1.9597 -5.0881 -2.3763 0.9765
0.4432 -5.6717 -2.4794 0.9755
0.9463 -5.6098 -2.4794 0.9755
1.9259 -5.3531 -2.4794 0.9755
2.3947 -5.1605 -2.4794 0.9755
3.6730 -4.3444 -2.4794 0.9755
4.9582 -2.7895 -2.4794 0.9755
5.6200 -0.8837 -2.4794 0.9755
5.6876 0.1268 -2.4794 0.9755
5.5750 1.1332 -2.4794 0.9755
5.0776 2.5658 -2.4794 0.9755
4.8290 3.0076 -2.4794 0.9755
4.5422 3.4254 -2.4794 0.9755
4.2193 3.8161 -2.4794 0.9755
3.8629 4.1765 -2.4794 0.9755
2.6222 5.0487 -2.4794 0.9755
1.1952 5.5621 -2.4794 0.9755
0.6954 5.6464 -2.4794 0.9755
-2.1844 4.9958 -2.3763 0.9765
-2.6204 4.7816 -2.3763 0.9765
-3.0355 4.5294 -2.3763 0.9765
-3.4266 4.2412 -2.3763 0.9765
-3.7905 3.9194 -2.3763 0.9765
-4.6913 2.7787 -2.3763 0.9765
-5.1097 1.9029 -2.3763 0.9765
-1.3993 -0.2521 -0.6581 0.9938
-1.3946 -0.3820 -0.6693 0.9936
-4.8109 -1.7916 -2.3763 0.9776
-4.6323 -2.2127 -2.3763 0.9776
-3.2263 -3.9932 -2.3763 0.9776
-2.0566 -4.7037 -2.3763 0.9776
-1.6298 -4.8680 -2.3763 0.9776
-0.7730 -5.3003 -2.4794 0.9767
-0.2982 -5.3480 -2.4794 0.9767
0.1790 -5.3534 -2.4794 0.9767
3.2726 -4.2404 -2.4794 0.9767
3.6370 -3.9323 -2.4794 0.9767
3.9725 -3.5929 -2.4794 0.9767
4.9767 -1.9807 -2.4794 0.9767
5.3231 -0.5955 -2.4794 0.9767
5.1963 1.2997 -2.4794 0.9767
4.1287 3.4124 -2.4794 0.9767
3.4582 4.0904 -2.4794 0.9767
2.2547 4.8587 -2.4794 0.9767
1.3575 5.1815 -2.4794 0.9767
0.8909 5.2817 -2.4794 0.9767
-0.0597 5.3560 -2.4794 0.9767
-0.5361 5.3295 -2.4794 0.9767
-2.6652 4.3876 -2.3763 0.9776
-2.1840 2.9641 -1.7043 0.9839
-3.4009 3.8455 -2.3763 0.9776
-3.7297 3.5275 -2.3763 0.9776
-4.0289 3.1816 -2.3763 0.9776
-4.7263 2.0041 -2.3763 0.9776
-1.3890 0.4479 -0.6755 0.9936
-1.3967 0.3165 -0.6629 0.9937
-1.4099 0.1896 -0.6585 0.9937
-1.4212 0.0634 -0.6585 0.9937
-1.4212 -0.0634 -0.6585 0.9937
-4.5292 -2.4168 -2.3763 0.9776
-4.0289 -3.1816 -2.3763 0.9776
-3.7297 -3.5275 -2.3763 0.9776
-2.2641 -4.6074 -2.3763 0.9776
-1.4726 -5.1500 -2.4794 0.9767
-0.0597 -5.3560 -2.4794 0.9767
0.8909 -5.2817 -2.4794 0.9767
1.8133 -5.0401 -2.4794 0.9767
2.6782 -4.6387 -2.4794 0.9767
3.0804 -4.3820 -2.4794 0.9767
3.4582 -4.0904 -2.4794 0.9767
3.8085 -3.7664 -2.4794 0.9767
4.1287 -3.4124 -2.4794 0.9767
4.6683 -2.6263 -2.4794 0.9767
4.8835 -2.2004 -2.4794 0.9767
5.0600 -1.7570 -2.4794 0.9767
5.2913 -0.8320 -2.4794 0.9767
5.3231 0.5955 -2.4794 0.9767
5.2490 1.0669 -2.4794 0.9767
4.9767 1.9807 -2.4794 0.9767
4.7806 2.4157 -2.4794 0.9767
4.5467 2.8317 -2.4794 0.9767
3.9725 3.5929 -2.4794 0.9767
2.8822 4.5148 -2.4794 0.9767
2.4689 4.7534 -2.4794 0.9767
1.5870 5.1159 -2.4794 0.9767
1.1253 5.2368 -2.4794 0.9767
-0.2982 5.3480 -2.4794 0.9767
-0.7730 5.3003 -2.4794 0.9767
-2.0566 4.7037 -2.3763 0.9776
-2.4671 4.5020 -2.3763 0.9776
-3.2263 3.9932 -2.3763 0.9776
-3.5689 3.6902 -2.3763 0.9776
-3.8831 3.3579 -2.3763 0.9776
-4.4170 2.6162 -2.3763 0.9776
-1.3993 0.2521 -0.6581 0.9938
-1.3367 0.0000 -0.6557 0.9941
-1.3061 -0.3578 -0.6642 0.9940
-1.2931 -0.4815 -0.6768 0.9939
-4.3713 -2.0880 -2.3763 0.9786
-4.1681 -2.4688 -2.3763 0.9786
-3.9318 -2.8300 -2.3763 0.9786
-3.6644 -3.1687 -2.3763 0.9786
-3.3678 -3.4822 -2.3763 0.9786
-2.3281 -4.2483 -2.3763 0.9786
-1.9408 -4.4386 -2.3763 0.9786
-0.2814 -5.0467 -2.4794 0.9777
0.6179 -5.0166 -2.4794 0.9777
1.9213 -4.6752 -2.4794 0.9777
2.3298 -4.4856 -2.4794 0.9777
3.4321 -3.7107 -2.4794 0.9777
3.7487 -3.3905 -2.4794 0.9777
4.6963 -1.8691 -2.4794 0.9777
4.9533 -1.0068 -2.4794 0.9777
5.0232 -0.5619 -2.4794 0.9777
5.0433 0.3376 -2.4794 0.9777
4.7749 1.6580 -2.4794 0.9777
4.6084 2.0764 -2.4794 0.9777
4.4052 2.4784 -2.4794 0.9777
4.1672 2.8606 -2.4794 0.9777
3.8960 3.2202 -2.4794 0.9777
3.5940 3.5541 -2.4794 0.9777
2.9069 4.1350 -2.4794 0.9777
1.7111 4.7561 -2.4794 0.9777
1.2810 4.8895 -2.4794 0.9777
0.8407 4.9841 -2.4794 0.9777
-0.5059 5.0292 -2.4794 0.9777
-0.9516 4.9642 -2.4794 0.9777
-1.7411 4.5207 -2.3763 0.9786
-3.5196 3.3288 -2.3763 0.9786
-3.8019 3.0023 -2.3763 0.9786
-4.2740 2.2807 -2.3763 0.9786
-4.4600 1.8912 -2.3763 0.9786
-1.3089 0.2966 -0.6583 0.9940
-1.3355 0.0596 -0.6558 0.9941
-1.3251 -0.1782 -0.6559 0.9941
-4.2740 -2.2806 -2.3763 0.9786
-3.2093 -3.6288 -2.3763 0.9786
-2.1366 -4.3478 -2.3763 0.9786
-0.0563 -5.0542 -2.4794 0.9777
0.8407 -4.9841 -2.4794 0.9777
1.2810 -4.8895 -2.4794 0.9777
2.1276 -4.5849 -2.4794 0.9777
3.5940 -3.5541 -2.4794 0.9777
3.8960 -3.2201 -2.4794 0.9777
4.6084 -2.0764 -2.4794 0.9777
4.7749 -1.6580 -2.4794 0.9777
4.9035 -1.2264 -2.4794 0.9777
5.0433 -0.3376 -2.4794 0.9777
4.9533 1.0068 -2.4794 0.9777
4.8440 1.4437 -2.4794 0.9777
4.0356 3.0434 -2.4794 0.9777
3.7487 3.3905 -2.4794 0.9777
3.4321 3.7107 -2.4794 0.9777
2.7198 4.2604 -2.4794 0.9777
1.9213 4.6752 -2.4794 0.9777
1.0619 4.9417 -2.4794 0.9777
0.1689 5.0517 -2.4794 0.9777
-0.2814 5.0467 -2.4794 0.9777
-0.7295 5.0016 -2.4794 0.9777
-1.1717 4.9168 -2.4794 0.9777
-1.9408 4.4387 -2.3763 0.9786
-2.3281 4.2483 -2.3763 0.9786
-2.0402 3.0442 -1.7976 0.9838
-3.3678 3.4823 -2.3763 0.9786
-3.9318 2.8300 -2.3763 0.9786
-4.1681 2.4688 -2.3763 0.9786
-1.2931 0.4815 -0.6768 0.9939
-1.3061 0.3578 -0.6642 0.9940
-1.2576 -0.1124 -0.6550 0.9943
-1.2162 -0.4529 -0.6733 0.9942
-3.9411 -2.3343 -2.3763 0.9796
-3.7177 -2.6758 -2.3763 0.9796
-2.8787 -3.5629 -2.3763 0.9796
-2.2013 -4.0169 -2.3763 0.9796
-1.5173 -4.5320 -2.4794 0.9787
-1.1079 -4.6491 -2.4794 0.9787
-0.6897 -4.7292 -2.4794 0.9787
-0.2661 -4.7718 -2.4794 0.9787
0.5842 -4.7434 -2.4794 0.9787
1.4160 -4.5647 -2.4794 0.9787
1.8166 -4.4205 -2.4794 0.9787
3.2451 -3.5086 -2.4794 0.9787
4.0568 -2.5266 -2.4794 0.9787
4.2656 -2.1555 -2.4794 0.9787
4.4405 -1.7673 -2.4794 0.9787
4.7496 -0.5313 -2.4794 0.9787
4.7686 0.3192 -2.4794 0.9787
4.6364 1.1596 -2.4794 0.9787
4.5148 1.5677 -2.4794 0.9787
4.3574 1.9633 -2.4794 0.9787
4.1653 2.3434 -2.4794 0.9787
3.9402 2.7048 -2.4794 0.9787
3.3982 3.3605 -2.4794 0.9787
2.7485 3.9098 -2.4794 0.9787
2.3896 4.1389 -2.4794 0.9787
1.6179 4.4971 -2.4794 0.9787
0.7949 4.7127 -2.4794 0.9787
-0.8997 4.6938 -2.4794 0.9787
-1.3139 4.5951 -2.4794 0.9787
-2.3781 3.9148 -2.3763 0.9796
-2.1777 2.9556 -1.9046 0.9836
-3.3279 3.1475 -2.3763 0.9796
-3.5948 2.8388 -2.3763 0.9796
-1.2316 0.2790 -0.6551 0.9943
-1.2514 0.1683 -0.6551 0.9943
-1.2613 0.0562 -0.6550 0.9943
-1.2613 -0.0562 -0.6550 0.9943
-1.2514 -0.1683 -0.6551 0.9943
-1.2316 -0.2790 -0.6551 0.9943
-1.2222 -0.3941 -0.6662 0.9942
-4.0412 -2.1564 -2.3763 0.9796
-3.3279 -3.1475 -2.3763 0.9796
-2.0202 -4.1110 -2.3763 0.9796
-1.3139 -4.5951 -2.4794 0.9787
-0.4784 -4.7552 -2.4794 0.9787
0.7949 -4.7127 -2.4794 0.9787
1.2112 -4.6232 -2.4794 0.9787
1.6179 -4.4971 -2.4794 0.9787
2.0117 -4.3352 -2.4794 0.9787
2.3896 -4.1389 -2.4794 0.9787
3.3982 -3.3606 -2.4794 0.9787
3.6838 -3.0448 -2.4794 0.9787
4.5148 -1.5677 -2.4794 0.9787
4.6364 -1.1596 -2.4794 0.9787
4.7686 -0.3192 -2.4794 0.9787
4.7781 0.1065 -2.4794 0.9787
4.7496 0.5313 -2.4794 0.9787
4.6835 0.9520 -2.4794 0.9787
4.0568 2.5266 -2.4794 0.9787
3.8158 2.8776 -2.4794 0.9787
3.5445 3.2058 -2.4794 0.9787
2.5716 4.0284 -2.4794 0.9787
2.2029 4.2413 -2.4794 0.9787
1.8166 4.4205 -2.4794 0.9787
1.4160 4.5647 -2.4794 0.9787
0.1597 4.7766 -2.4794 0.9787
-0.2661 4.7718 -2.4794 0.9787
-0.6897 4.7292 -2.4794 0.9787
-1.1079 4.6490 -2.4794 0.9787
-2.0359 3.0379 -1.8972 0.9837
-2.8786 3.5629 -2.3763 0.9796
-3.4648 2.9961 -2.3763 0.9796
-3.9411 2.3343 -2.3763 0.9796
-1.2426 0.2239 -0.6550 0.9943
-1.2576 0.1124 -0.6550 0.9943
-1.1944 0.0000 -0.6542 0.9946
-1.1899 -0.1063 -0.6543 0.9946
-1.1756 -0.2118 -0.6543 0.9946
-1.1464 -0.4269 -0.6700 0.9944
-3.9149 -1.8700 -2.3763 0.9804
-3.7330 -2.2111 -2.3763 0.9804
-3.5214 -2.5345 -2.3763 0.9804
-3.2818 -2.8379 -2.3763 0.9804
-1.7381 -3.9752 -2.3763 0.9804
-1.4372 -4.2927 -2.4794 0.9796
-1.0494 -4.4035 -2.4794 0.9796
-0.6533 -4.4795 -2.4794 0.9796
-0.2520 -4.5198 -2.4794 0.9796
0.1513 -4.5243 -2.4794 0.9796
1.7207 -4.1871 -2.4794 0.9796
2.4358 -3.8156 -2.4794 0.9796
3.3573 -3.0365 -2.4794 0.9796
3.8425 -2.3932 -2.4794 0.9796
4.2060 -1.6739 -2.4794 0.9796
4.3383 -1.2929 -2.4794 0.9796
4.5257 -0.1009 -2.4794 0.9796
4.4719 0.7032 -2.4794 0.9796
4.1272 1.8596 -2.4794 0.9796
3.9453 2.2196 -2.4794 0.9796
3.4893 2.8840 -2.4794 0.9796
3.2187 3.1831 -2.4794 0.9796
2.9227 3.4569 -2.4794 0.9796
2.6034 3.7034 -2.4794 0.9796
2.2634 3.9204 -2.4794 0.9796
1.9055 4.1063 -2.4794 0.9796
1.5325 4.2596 -2.4794 0.9796
1.1473 4.3791 -2.4794 0.9796
0.3527 4.5131 -2.4794 0.9796
-0.4531 4.5041 -2.4794 0.9796
-0.8522 4.4459 -2.4794 0.9796
-1.5853 4.1163 -2.4159 0.9801
-1.9135 3.8939 -2.3763 0.9804
-2.2525 3.7081 -2.3763 0.9804
-3.1521 2.9813 -2.3763 0.9804
-1.1411 0.4838 -0.6788 0.9944
-1.1649 -0.2639 -0.6542 0.9946
-1.1515 -0.3713 -0.6626 0.9945
-3.8278 -2.0426 -2.3763 0.9804
-3.4050 -2.6889 -2.3763 0.9804
-2.2525 -3.7081 -2.3763 0.9804
-1.9135 -3.8939 -2.3763 0.9804
-1.5853 -4.1162 -2.4159 0.9801
-0.8522 -4.4459 -2.4794 0.9796
-0.4531 -4.5041 -2.4794 0.9796
-0.0504 -4.5266 -2.4794 0.9796
0.3527 -4.5131 -2.4794 0.9796
0.7529 -4.4638 -2.4794 0.9796
1.1473 -4.3791 -2.4794 0.9796
1.5325 -4.2596 -2.4794 0.9796
2.6034 -3.7034 -2.4794 0.9796
3.4893 -2.8840 -2.4794 0.9796
3.7321 -2.5620 -2.4794 0.9796
3.9453 -2.2196 -2.4794 0.9796
4.1272 -1.8596 -2.4794 0.9796
4.2764 -1.4849 -2.4794 0.9796
4.3916 -1.0984 -2.4794 0.9796
4.4719 -0.7032 -2.4794 0.9796
4.4988 0.5033 -2.4794 0.9796
4.0403 2.0417 -2.4794 0.9796
3.6143 2.7257 -2.4794 0.9796
2.7658 3.5837 -2.4794 0.9796
2.4358 3.8156 -2.4794 0.9796
2.0865 4.0173 -2.4794 0.9796
1.7207 4.1871 -2.4794 0.9796
1.3412 4.3236 -2.4794 0.9796
0.9511 4.4258 -2.4794 0.9796
0.5534 4.4929 -2.4794 0.9796
0.1513 4.5243 -2.4794 0.9796
-0.6533 4.4795 -2.4794 0.9796
-1.0494 4.4035 -2.4794 0.9796
-2.0851 3.8048 -2.3763 0.9804
-2.0316 3.0314 -1.9987 0.9835
-2.7266 3.3748 -2.3763 0.9804
-3.0162 3.1187 -2.3763 0.9804
-3.2818 2.8379 -2.3763 0.9804
-3.5214 2.5345 -2.3763 0.9804
-3.7330 2.2111 -2.3763 0.9804
-3.9149 1.8700 -2.3763 0.9804
-1.1577 0.3171 -0.6575 0.9945
-1.1756 0.2118 -0.6543 0.9946
-1.1319 0.0000 -0.6535 0.9948
-1.0827 -0.4032 -0.6671 0.9947
-3.7139 -1.7740 -2.3763 0.9812
-3.5413 -2.0975 -2.3763 0.9812
-3.3405 -2.4044 -2.3763 0.9812
-2.8613 -2.9586 -2.3763 0.9812
-1.9780 -3.6094 -2.3763 0.9812
-1.6489 -3.7711 -2.3763 0.9812
-0.2391 -4.2877 -2.4794 0.9804
0.1435 -4.2920 -2.4794 0.9804
1.2723 -4.1016 -2.4794 0.9804
1.6323 -3.9721 -2.4794 0.9804
1.9794 -3.8110 -2.4794 0.9804
2.9159 -3.1527 -2.4794 0.9804
3.1849 -2.8806 -2.4794 0.9804
3.4287 -2.5857 -2.4794 0.9804
3.8328 -1.9368 -2.4794 0.9804
3.9900 -1.5880 -2.4794 0.9804
4.1155 -1.2266 -2.4794 0.9804
4.2678 -0.4774 -2.4794 0.9804
4.2848 0.2868 -2.4794 0.9804
4.2423 0.6671 -2.4794 0.9804
4.1661 1.0420 -2.4794 0.9804
3.9153 1.7642 -2.4794 0.9804
3.7428 2.1056 -2.4794 0.9804
3.5405 2.4304 -2.4794 0.9804
3.3101 2.7359 -2.4794 0.9804
2.7726 3.2794 -2.4794 0.9804
2.4697 3.5132 -2.4794 0.9804
2.1472 3.7191 -2.4794 0.9804
1.4538 4.0409 -2.4794 0.9804
1.0884 4.1542 -2.4794 0.9804
0.3346 4.2814 -2.4794 0.9804
-0.4298 4.2729 -2.4794 0.9804
-1.1806 4.1289 -2.4794 0.9804
-1.8152 3.6939 -2.3763 0.9812
-2.7267 3.0831 -2.3763 0.9812
-2.9903 2.8282 -2.3763 0.9812
-3.2301 2.5508 -2.3763 0.9812
-3.4443 2.2532 -2.3763 0.9812
-1.0769 0.4566 -0.6753 0.9946
-1.0870 0.3505 -0.6594 0.9947
-1.1039 0.2501 -0.6535 0.9948
-1.1220 0.1509 -0.6536 0.9948
-1.1220 -0.1509 -0.6536 0.9948
-1.0870 -0.3505 -0.6594 0.9947
-3.6312 -1.9377 -2.3763 0.9812
-3.4443 -2.2532 -2.3763 0.9812
-2.9903 -2.8282 -2.3763 0.9812
-2.4414 -3.3135 -2.3763 0.9812
-1.8152 -3.6939 -2.3763 0.9812
-1.5434 -4.0074 -2.4794 0.9804
-1.1806 -4.1289 -2.4794 0.9804
-0.8085 -4.2176 -2.4794 0.9804
-0.4299 -4.2728 -2.4794 0.9804
-0.0478 -4.2941 -2.4794 0.9804
0.3346 -4.2814 -2.4794 0.9804
1.0884 -4.1542 -2.4794 0.9804
2.4697 -3.5132 -2.4794 0.9804
2.7726 -3.2794 -2.4794 0.9804
3.0535 -3.0196 -2.4794 0.9804
3.7427 -2.1056 -2.4794 0.9804
3.9153 -1.7641 -2.4794 0.9804
4.0568 -1.4087 -2.4794 0.9804
4.1661 -1.0420 -2.4794 0.9804
4.2423 -0.6671 -2.4794 0.9804
4.2848 -0.2868 -2.4794 0.9804
4.2933 0.0957 -2.4794 0.9804
4.2678 0.4774 -2.4794 0.9804
4.2083 0.8554 -2.4794 0.9804
4.1155 1.2265 -2.4794 0.9804
3.9900 1.5880 -2.4794 0.9804
2.9159 3.1527 -2.4794 0.9804
2.6237 3.3997 -2.4794 0.9804
2.3107 3.6197 -2.4794 0.9804
1.2723 4.1016 -2.4794 0.9804
0.9022 4.1986 -2.4794 0.9804
0.1435 4.2920 -2.4794 0.9804
-0.2391 4.2877 -2.4794 0.9804
-1.3634 4.0722 -2.4794 0.9804
-1.6489 3.7711 -2.3763 0.9812
-1.9780 3.6094 -2.3763 0.9812
-2.5866 3.2015 -2.3763 0.9812
-2.8613 2.9586 -2.3763 0.9812
-3.1133 2.6921 -2.3763 0.9812
-3.3405 2.4044 -2.3763 0.9812
-3.5413 2.0975 -2.3763 0.9812
-3.7139 1.7740 -2.3763 0.9812
-1.0827 0.4032 -0.6671 0.9947
-1.0934 0.2995 -0.6545 0.9948
-1.1141 0.2007 -0.6536 0.9948
-1.1276 0.1008 -0.6536 0.9948
