ply
format ascii 1.0
element vertex 1470
property float32 x
property float32 y
property float32 z
property float32 I
end_header
7.0663 -15.2276 2.9601 0.9341
12.0285 15.5858 3.4715 0.9231
12.0285 15.5858 3.0160 0.9234
12.0285 15.5858 2.5637 0.9237
7.0652 -15.2252 1.8024 0.9347
11.4502 16.2882 1.6854 0.9232
7.0649 -15.2244 1.4208 0.9348
7.0643 -15.2232 1.0407 0.9350
12.0353 15.5945 1.2215 0.9241
11.4575 16.2986 0.7856 0.9233
12.0353 15.5945 0.7767 0.9242
17.7860 -0.3963 0.3005 0.9313
7.0628 -15.2200 0.2834 0.9351
17.6476 -1.1814 0.2988 0.9317
-18.6029 6.9278 0.3353 0.9237
17.7860 -0.3963 -0.1002 0.9313
11.4575 16.2986 -0.1122 0.9234
7.0621 -15.2184 -0.0945 0.9351
17.6476 -1.1814 -0.0996 0.9317
12.0353 15.5945 -0.1109 0.9242
17.7860 -0.3964 -0.5009 0.9313
11.4575 16.2986 -0.5610 0.9234
-18.3237 5.9086 -0.5421 0.9259
7.0613 -15.2167 -0.4724 0.9351
17.9263 0.3995 -0.5049 0.9308
-18.2129 6.7825 -0.5472 0.9252
17.7860 -0.3963 -0.9022 0.9312
12.8821 15.2371 -1.0119 0.9232
-18.0858 5.8319 -0.9637 0.9267
7.0606 -15.2151 -0.8507 0.9350
17.6476 -1.1814 -0.8970 0.9316
12.0353 15.5945 -0.9990 0.9241
10.5148 -13.6245 -1.2619 0.9333
17.7860 -0.3964 -1.3044 0.9311
-9.2472 15.2230 -1.3060 0.9311
-10.0423 13.6295 -1.2413 0.9344
-11.3198 12.7995 -1.2529 0.9338
-15.1990 9.9428 -1.3317 0.9297
-5.9478 -15.4432 -1.2134 0.9358
7.0598 -15.2135 -1.2297 0.9349
10.7015 -12.6578 -1.2153 0.9357
-9.4266 14.0654 -1.2415 0.9343
-10.9215 13.5177 -1.2742 0.9327
-11.7935 12.1944 -1.2439 0.9342
-13.2981 11.4993 -1.2890 0.9319
-15.0590 10.8388 -1.3604 0.9283
-15.9544 9.4498 -1.3596 0.9283
-17.6682 8.4393 -1.4357 0.9245
-5.6236 -16.7968 -1.7006 0.9313
10.4619 -16.3884 -1.8666 0.9248
-8.5849 17.4698 -1.8688 0.9248
-10.8476 12.2656 -1.5720 0.9363
-11.8598 11.2169 -1.5672 0.9365
-13.4421 10.6151 -1.6444 0.9335
-14.5305 9.5054 -1.6670 0.9326
-5.7528 -14.9367 -1.5367 0.9377
7.0269 -15.1425 -1.6027 0.9351
10.4649 -14.8866 -1.7470 0.9295
10.5246 -8.6988 -1.3109 0.9466
12.0353 15.5945 -1.8912 0.9239
-10.5153 13.0150 -1.6064 0.9350
-12.8190 11.0850 -1.6270 0.9342
-17.5860 8.4000 -1.8711 0.9247
-17.4340 6.4925 -1.7860 0.9280
-5.6157 -12.8436 -1.6651 0.9451
-5.6236 -16.7968 -2.1041 0.9311
9.1028 -17.5261 -2.3459 0.9235
10.4619 -16.3884 -2.3096 0.9247
10.4675 -13.5632 -2.0351 0.9333
10.4720 -11.3222 -1.8320 0.9398
10.4757 -9.4747 -1.6778 0.9447
10.4968 -7.9160 -1.5617 0.9484
10.5356 -3.1400 -1.3059 0.9567
17.7860 -0.3963 -2.1133 0.9308
9.8745 17.1032 -2.3459 0.9235
8.3131 17.9142 -2.3459 0.9235
-5.4298 18.9893 -2.3461 0.9235
-5.5062 14.2966 -1.8198 0.9402
-9.3401 12.6765 -1.8704 0.9385
-10.4115 11.7724 -1.8668 0.9387
-11.4580 10.8369 -1.8734 0.9384
-12.9786 10.2490 -1.9644 0.9356
-15.9723 8.5231 -2.1505 0.9297
-17.5679 5.6649 -2.1926 0.9283
-5.6192 -14.5899 -1.8572 0.9390
-1.9769 -19.6512 -2.3461 0.9235
7.0194 -15.1264 -1.9808 0.9350
9.8745 -17.1032 -2.3459 0.9235
10.4699 -12.3838 -1.9263 0.9368
10.4739 -10.3579 -1.7498 0.9424
10.4773 -8.6597 -1.6146 0.9467
10.5346 -3.6580 -1.3247 0.9561
10.5366 -2.6354 -1.2902 0.9572
12.0353 15.5945 -2.3399 0.9237
9.1028 17.5261 -2.3459 0.9235
7.5068 18.2667 -2.3459 0.9235
-2.8504 19.5436 -2.3461 0.9235
-4.5785 19.2124 -2.3461 0.9235
-8.6751 12.9442 -1.8510 0.9392
-10.1368 12.5464 -1.9160 0.9371
-12.3688 10.6957 -1.9424 0.9363
-14.6492 8.6767 -2.0224 0.9337
-17.4846 8.3517 -2.3017 0.9249
-17.3318 6.4544 -2.1969 0.9282
-5.9535 -6.1559 -1.2134 0.9660
-5.6106 -10.2380 -1.6542 0.9539
-5.2568 -15.7012 -2.3461 0.9353
-3.8384 -16.1068 -2.3461 0.9353
-2.3896 -16.3845 -2.3461 0.9353
0.5776 -17.2758 -2.4492 0.9326
6.4630 -15.7268 -2.4091 0.9336
10.4720 -11.3222 -2.1852 0.9396
10.4788 -7.9024 -1.8596 0.9484
10.4815 -6.5280 -1.7496 0.9513
10.4840 -5.2978 -1.6644 0.9537
10.5110 -3.1326 -1.5540 0.9567
16.6175 -1.8590 -2.3692 0.9347
16.7170 -0.3725 -2.3692 0.9347
16.5182 2.5974 -2.3692 0.9347
15.2451 6.8691 -2.3692 0.9347
13.7856 9.4633 -2.3692 0.9347
12.8887 10.6527 -2.3692 0.9347
11.8893 11.7576 -2.3692 0.9347
8.2783 14.3385 -2.3459 0.9353
5.8516 16.2648 -2.4492 0.9326
2.8751 17.0446 -2.4492 0.9326
1.3466 17.2329 -2.4492 0.9326
-3.1171 16.2618 -2.3461 0.9353
-4.5521 15.9198 -2.3461 0.9353
-7.8449 15.9640 -2.5203 0.9307
-9.0653 12.3036 -2.1654 0.9401
-11.0913 10.4901 -2.1631 0.9402
-15.3001 8.1644 -2.4572 0.9323
-17.4456 5.6255 -2.5972 0.9286
-5.6192 -14.5899 -2.2153 0.9388
-4.5521 -15.9198 -2.3461 0.9353
-3.1171 -16.2618 -2.3461 0.9353
1.3466 -17.2329 -2.4492 0.9326
4.3807 -16.7211 -2.4492 0.9326
5.8516 -16.2648 -2.4492 0.9326
6.9693 -15.0184 -2.3459 0.9353
10.4773 -8.6597 -1.9260 0.9466
10.4828 -5.8975 -1.7042 0.9526
10.4851 -4.7244 -1.6295 0.9546
16.6839 -1.1169 -2.3692 0.9347
16.6175 1.8589 -2.3692 0.9347
15.5360 6.1832 -2.3692 0.9347
14.9240 7.5414 -2.3692 0.9347
14.1935 8.8398 -2.3692 0.9347
13.3504 10.0680 -2.3692 0.9347
11.3538 12.2756 -2.3692 0.9347
10.1156 13.1072 -2.3459 0.9353
7.6314 14.6930 -2.3459 0.9353
3.6315 16.8996 -2.4492 0.9326
0.5776 17.2758 -2.4492 0.9326
-0.9623 17.2586 -2.4492 0.9326
-2.3896 16.3845 -2.3461 0.9353
-5.2568 15.7012 -2.3461 0.9353
-5.5065 12.5938 -1.9475 0.9460
-8.4224 12.5671 -2.1435 0.9407
-10.3586 10.7108 -2.1112 0.9416
-11.9469 10.3309 -2.2379 0.9382
-13.0038 9.3596 -2.2701 0.9373
-16.6956 7.9748 -2.6216 0.9280
-5.8650 -5.0716 -1.2773 0.9691
-5.6493 -5.8413 -1.3387 0.9676
-5.6069 -8.3660 -1.6591 0.9600
-5.6106 -10.2380 -1.9233 0.9538
-5.6157 -12.8436 -2.3092 0.9448
-4.5213 -13.5043 -2.3461 0.9439
-2.0553 -14.0920 -2.3461 0.9439
0.4968 -14.8586 -2.4492 0.9415
3.1234 -14.5351 -2.4492 0.9415
5.6510 -13.7510 -2.4492 0.9415
7.6624 -12.0029 -2.3459 0.9439
8.7003 -11.2733 -2.3459 0.9439
10.4757 -9.4747 -2.3269 0.9443
10.4788 -7.9024 -2.1621 0.9482
10.4815 -6.5280 -2.0342 0.9512
10.4862 -4.1734 -1.8593 0.9553
10.4883 -3.1259 -1.8029 0.9566
10.4902 -2.1322 -1.7635 0.9575
14.3780 -0.3204 -2.3692 0.9434
13.9518 3.4896 -2.3692 0.9434
13.5859 4.7175 -2.3692 0.9434
12.5342 7.0516 -2.3692 0.9434
11.8568 8.1392 -2.3692 0.9434
11.0853 9.1622 -2.3692 0.9434
10.1252 10.0130 -2.3459 0.9439
9.1938 10.8745 -2.3459 0.9439
7.1201 12.3323 -2.3459 0.9439
6.2580 13.4856 -2.4492 0.9415
5.0329 13.9891 -2.4492 0.9415
2.4728 14.6598 -2.4492 0.9415
1.1582 14.8217 -2.4492 0.9415
-0.1656 14.8660 -2.4492 0.9415
-1.4881 14.7922 -2.4492 0.9415
-2.6810 13.9865 -2.3461 0.9439
-3.9152 13.6923 -2.3461 0.9439
-9.7420 11.0155 -2.4226 0.9421
-12.1514 9.5959 -2.5507 0.9392
-16.8720 7.1544 -3.0191 0.9284
-5.6483 -5.3421 -1.2807 0.9690
-5.7298 -7.7765 -1.5913 0.9616
-5.6086 -9.2330 -1.7797 0.9572
-5.6129 -11.4220 -2.0966 0.9497
-5.1184 -13.2895 -2.3461 0.9439
-3.9152 -13.6923 -2.3461 0.9439
-1.4881 -14.7922 -2.4492 0.9415
1.1582 -14.8217 -2.4492 0.9415
5.0329 -13.9891 -2.4492 0.9415
7.1201 -12.3323 -2.3459 0.9439
8.1894 -11.6496 -2.3459 0.9439
10.4773 -8.6597 -2.2393 0.9464
10.4828 -5.8975 -1.9815 0.9524
10.4851 -4.7244 -1.8945 0.9544
10.4893 -2.6236 -1.7812 0.9571
14.3780 0.3204 -2.3692 0.9434
14.2925 1.5988 -2.3692 0.9434
13.7825 4.1076 -2.3692 0.9434
12.8359 6.4862 -2.3692 0.9434
11.4825 8.6593 -2.3692 0.9434
10.6662 9.6470 -2.3692 0.9434
6.5636 12.6372 -2.3459 0.9439
-0.8277 14.8438 -2.4492 0.9415
-4.5213 13.5043 -2.3461 0.9439
-7.2368 16.5511 -2.9758 0.9294
-11.5505 9.9881 -2.5156 0.9400
-12.4057 8.9291 -2.5180 0.9399
-13.6967 8.1126 -2.6225 0.9375
-19.0228 5.2109 -3.2493 0.9232
-5.8650 -5.0716 -1.4574 0.9689
-5.6420 -5.8337 -1.5254 0.9675
-5.6040 -6.9362 -1.6761 0.9644
-5.6106 -10.2380 -2.1944 0.9536
-5.0004 -11.4363 -2.3461 0.9505
-3.9627 -11.8359 -2.3461 0.9505
-2.8935 -12.1417 -2.3461 0.9505
-1.8014 -12.3510 -2.3461 0.9505
-0.7254 -13.0099 -2.4492 0.9483
1.5928 -12.9324 -2.4492 0.9483
2.7375 -12.7393 -2.4492 0.9483
3.8605 -12.4451 -2.4492 0.9483
4.9529 -12.0521 -2.4492 0.9483
6.0059 -11.5635 -2.4492 0.9483
6.7157 -10.5200 -2.3459 0.9505
7.6254 -9.8805 -2.3459 0.9505
9.2564 -8.3720 -2.3459 0.9505
10.4815 -6.5280 -2.3210 0.9510
10.4862 -4.1734 -2.1214 0.9551
10.4902 -2.1322 -2.0121 0.9574
12.5267 -1.4013 -2.3692 0.9500
12.6017 -0.2808 -2.3692 0.9500
12.5767 0.8419 -2.3692 0.9500
12.4518 1.9579 -2.3692 0.9500
11.4921 5.1781 -2.3692 0.9500
10.2897 7.0635 -2.3459 0.9505
9.6202 7.9513 -2.3459 0.9505
8.8743 8.7760 -2.3459 0.9505
7.1777 10.2104 -2.3459 0.9505
5.4848 11.8195 -2.4492 0.9483
4.4111 12.2608 -2.4492 0.9483
3.3023 12.6047 -2.4492 0.9483
2.1673 12.8487 -2.4492 0.9483
1.0151 12.9905 -2.4492 0.9483
-1.3043 12.9647 -2.4492 0.9483
-2.3498 12.2585 -2.3461 0.9505
-4.4860 11.6477 -2.3461 0.9505
-7.5918 12.4977 -2.7485 0.9422
-8.5423 11.5938 -2.7068 0.9431
-12.3316 8.0670 -2.7698 0.9418
-14.0021 7.4717 -2.9831 0.9374
-15.0908 6.3991 -3.0810 0.9355
-16.9450 5.4641 -3.3465 0.9301
-5.6037 -6.3362 -1.5899 0.9662
-5.6086 -9.2330 -2.0305 0.9570
-5.5049 -11.2021 -2.3461 0.9505
-4.4860 -11.6477 -2.3461 0.9505
-2.3498 -12.2585 -2.3461 0.9505
-1.3043 -12.9647 -2.4492 0.9483
-0.1452 -13.0293 -2.4492 0.9483
1.0151 -12.9905 -2.4492 0.9483
2.1673 -12.8487 -2.4492 0.9483
3.3023 -12.6047 -2.4492 0.9483
4.4111 -12.2608 -2.4492 0.9483
5.4848 -11.8195 -2.4492 0.9483
6.4630 -11.1942 -2.4296 0.9488
7.1777 -10.2104 -2.3459 0.9505
8.0580 -9.5310 -2.3459 0.9505
8.8743 -8.7760 -2.3459 0.9505
10.2897 -7.0635 -2.3459 0.9505
10.4828 -5.8975 -2.2608 0.9522
10.4851 -4.7244 -2.1616 0.9543
10.4872 -3.6416 -2.0866 0.9558
10.4893 -2.6236 -2.0323 0.9569
12.5767 -0.8419 -2.3692 0.9500
12.6017 0.2808 -2.3692 0.9500
12.3522 2.5107 -2.3692 0.9500
11.7114 4.6610 -2.3692 0.9500
9.9648 7.5148 -2.3459 0.9505
9.2564 8.3719 -2.3459 0.9505
8.4746 9.1626 -2.3459 0.9505
6.7157 10.5200 -2.3459 0.9505
6.0059 11.5635 -2.4492 0.9483
2.7375 12.7393 -2.4492 0.9483
0.4354 13.0229 -2.4492 0.9483
-0.7254 13.0099 -2.4492 0.9483
-2.8935 12.1417 -2.3461 0.9505
-3.9627 11.8359 -2.3461 0.9505
-5.0004 11.4363 -2.3461 0.9505
-7.9544 11.8687 -2.6855 0.9435
-8.9034 11.0198 -2.6629 0.9440
-9.7408 10.0720 -2.6337 0.9446
-11.8564 8.5337 -2.7458 0.9423
-13.1719 7.8018 -2.8775 0.9396
-18.7454 5.1349 -3.6532 0.9239
-5.6136 -4.8543 -1.5687 0.9701
-5.6017 -5.7922 -1.7033 0.9676
-5.6069 -8.3660 -2.1288 0.9597
-5.3339 -9.7331 -2.3461 0.9556
-4.4464 -10.1692 -2.3461 0.9556
-2.5729 -10.7965 -2.3461 0.9556
-1.6018 -10.9826 -2.3461 0.9556
1.4163 -11.4996 -2.4492 0.9537
2.4342 -11.3279 -2.4492 0.9537
4.4041 -10.7169 -2.4492 0.9537
5.3405 -10.2823 -2.4492 0.9537
6.2345 -9.7662 -2.4492 0.9537
6.7806 -8.7858 -2.3459 0.9556
7.5356 -8.1474 -2.3459 0.9556
8.2309 -7.4444 -2.3459 0.9556
8.8608 -6.6823 -2.3459 0.9556
10.4883 -3.1258 -2.3134 0.9562
10.4902 -2.1322 -2.2628 0.9572
11.1388 -1.2461 -2.3692 0.9552
11.2055 -0.2497 -2.3692 0.9552
11.1833 0.7486 -2.3692 0.9552
10.5882 3.6766 -2.3692 0.9552
9.6724 5.4416 -2.3459 0.9556
6.4678 9.2005 -2.3773 0.9551
5.7933 10.0342 -2.4492 0.9537
4.8772 10.5100 -2.4492 0.9537
2.9364 11.2082 -2.4492 0.9537
-1.1598 11.5283 -2.4492 0.9537
-2.0894 10.9004 -2.3461 0.9556
-3.0513 10.6711 -2.3461 0.9556
-5.5067 9.0653 -2.2421 0.9576
-7.9654 10.8107 -2.8385 0.9466
-8.9633 10.1349 -2.8599 0.9462
-10.8372 8.5580 -2.9189 0.9451
-11.6948 7.6504 -2.9540 0.9445
-13.5242 5.7348 -3.1051 0.9417
-5.8140 -4.5912 -1.5660 0.9702
-5.6008 -5.2972 -1.6295 0.9690
-5.6028 -6.3352 -1.7877 0.9660
-5.6054 -7.6076 -1.9975 0.9621
-5.6086 -9.2330 -2.2835 0.9568
-4.8950 -9.9611 -2.3461 0.9556
-3.9890 -10.3572 -2.3461 0.9556
-3.0513 -10.6711 -2.3461 0.9556
-1.1598 -11.5283 -2.4492 0.9537
0.9026 -11.5513 -2.4492 0.9537
1.9272 -11.4251 -2.4492 0.9537
2.9364 -11.2083 -2.4492 0.9537
4.8772 -10.5100 -2.4492 0.9537
5.7933 -10.0342 -2.4492 0.9537
6.4678 -9.2005 -2.3773 0.9551
7.8911 -7.8037 -2.3459 0.9556
9.1497 -6.2809 -2.3459 0.9556
9.6724 -5.4416 -2.3459 0.9556
10.1184 -4.5591 -2.3459 0.9556
11.0723 -1.7410 -2.3692 0.9552
11.1833 -0.7486 -2.3692 0.9552
10.7414 3.2013 -2.3692 0.9552
10.3114 4.1038 -2.3459 0.9556
9.9052 5.0053 -2.3459 0.9556
8.2309 7.4444 -2.3459 0.9556
7.5356 8.1474 -2.3459 0.9556
6.7806 8.7858 -2.3459 0.9556
6.2345 9.7662 -2.4492 0.9537
5.3405 10.2823 -2.4492 0.9537
4.4041 10.7169 -2.4492 0.9537
-4.4464 10.1692 -2.3461 0.9556
-7.6531 11.4192 -2.9058 0.9453
-8.3649 10.3534 -2.8135 0.9470
-9.4554 9.7768 -2.8750 0.9459
-5.5007 4.7567 -1.5372 0.9707
-11.3141 8.1434 -2.9466 0.9446
-12.2451 7.2528 -3.0083 0.9435
-14.2005 5.2883 -3.2031 0.9399
-5.8256 -3.4505 -1.5913 0.9726
-5.5999 -4.8424 -1.7399 0.9700
-5.6040 -6.9362 -2.0957 0.9640
-5.5574 -8.2923 -2.3461 0.9598
-3.1692 -9.4659 -2.3461 0.9598
-2.3141 -9.7104 -2.3461 0.9598
-1.5039 -10.3118 -2.4492 0.9581
-0.5802 -10.4048 -2.4492 0.9581
0.3482 -10.4151 -2.4492 0.9581
1.2738 -10.3428 -2.4492 0.9581
3.0875 -9.9530 -2.4492 0.9581
3.9611 -9.6388 -2.4492 0.9581
6.3669 -8.2498 -2.4492 0.9581
6.7776 -7.3278 -2.3459 0.9598
7.4029 -6.6955 -2.3459 0.9598
8.4727 -5.2769 -2.3459 0.9598
8.9088 -4.5018 -2.3459 0.9598
9.2741 -3.6910 -2.3459 0.9598
9.7816 -1.9882 -2.3459 0.9598
9.8604 1.5505 -2.3459 0.9598
9.6833 2.4220 -2.3459 0.9598
9.1005 4.1005 -2.3459 0.9598
8.2292 5.6491 -2.3459 0.9598
6.4731 7.6564 -2.3564 0.9596
5.2105 9.0248 -2.4492 0.9581
4.3865 9.4527 -2.4492 0.9581
1.7333 10.2758 -2.4492 0.9581
-1.0431 10.3686 -2.4492 0.9581
-1.8792 9.8038 -2.3461 0.9598
-4.4026 8.9590 -2.3461 0.9598
-8.4139 9.5137 -2.9849 0.9492
-11.5761 6.1772 -3.0838 0.9475
-12.4500 5.2793 -3.1782 0.9459
-13.7637 4.4382 -3.3988 0.9423
-17.7527 4.0222 -4.2780 0.9279
-5.9735 -3.1876 -1.5913 0.9726
-5.6008 -5.2972 -1.8118 0.9688
-5.6028 -6.3352 -1.9877 0.9658
-5.6054 -7.6076 -2.2209 0.9619
-5.1825 -8.5316 -2.3461 0.9598
-2.7444 -9.5976 -2.3461 0.9598
-1.0431 -10.3686 -2.4492 0.9581
-0.1161 -10.4203 -2.4492 0.9581
1.7333 -10.2758 -2.4492 0.9581
3.5278 -9.8056 -2.4492 0.9581
5.9930 -8.5252 -2.4492 0.9581
7.0973 -7.0186 -2.3459 0.9598
7.6938 -6.3591 -2.3459 0.9598
8.2292 -5.6491 -2.3459 0.9598
8.6994 -4.8942 -2.3459 0.9598
9.4293 -3.2742 -2.3459 0.9598
9.6833 -2.4220 -2.3459 0.9598
7.9694 6.0100 -2.3459 0.9598
7.4029 6.6955 -2.3459 0.9598
6.3669 8.2498 -2.4492 0.9581
4.8033 9.2479 -2.4492 0.9581
3.0875 9.9530 -2.4492 0.9581
1.2738 10.3428 -2.4492 0.9581
-1.5039 10.3118 -2.4492 0.9581
-3.1692 9.4659 -2.3461 0.9598
-4.7973 8.7540 -2.3461 0.9598
-8.8530 9.1539 -2.9929 0.9490
-10.4159 7.4969 -3.0161 0.9486
-5.5010 3.2582 -1.5026 0.9741
-11.9519 5.7089 -3.1130 0.9470
-13.0598 4.8635 -3.2753 0.9443
-15.0942 4.1347 -3.6782 0.9377
-5.7595 -2.1449 -1.5913 0.9749
-5.5956 -2.6728 -1.6056 0.9747
-5.5968 -3.3150 -1.6842 0.9735
-5.5982 -4.0294 -1.7859 0.9719
-5.5999 -4.8424 -1.9168 0.9699
-5.0445 -7.5270 -2.3461 0.9633
-4.3546 -7.9461 -2.3461 0.9633
-3.6300 -8.3021 -2.3461 0.9633
0.3161 -9.4539 -2.4492 0.9617
1.1563 -9.3883 -2.4492 0.9617
2.8025 -9.0345 -2.4492 0.9617
3.5955 -8.7492 -2.4492 0.9617
4.3600 -8.3945 -2.4492 0.9617
5.7793 -7.4884 -2.4492 0.9617
6.4229 -6.9443 -2.4492 0.9617
6.7197 -6.0776 -2.3459 0.9633
7.6908 -4.7899 -2.3459 0.9633
8.0866 -4.0863 -2.3459 0.9633
8.4182 -3.3504 -2.3459 0.9633
8.6830 -2.5878 -2.3459 0.9633
8.8789 -1.8047 -2.3459 0.9633
9.0582 -0.2019 -2.3459 0.9633
9.0402 0.6052 -2.3459 0.9633
8.9505 1.4074 -2.3459 0.9633
8.7897 2.1984 -2.3459 0.9633
8.2606 3.7221 -2.3459 0.9633
7.8965 4.4425 -2.3459 0.9633
6.9838 5.7722 -2.3459 0.9633
6.4729 6.4012 -2.3571 0.9631
6.1071 7.2236 -2.4492 0.9617
5.4400 7.7384 -2.4492 0.9617
2.3973 9.1504 -2.4492 0.9617
0.7369 9.4305 -2.4492 0.9617
-0.1054 9.4586 -2.4492 0.9617
-0.9468 9.4117 -2.4492 0.9617
-1.7058 8.8990 -2.3461 0.9633
-2.4911 8.7119 -2.3461 0.9633
-8.4802 8.0205 -3.0221 0.9529
-10.0615 6.5820 -3.1130 0.9515
-11.5952 4.9168 -3.2609 0.9493
-5.5100 -1.7768 -1.4990 0.9764
-5.6583 -2.3993 -1.5913 0.9749
-5.5962 -2.9862 -1.6423 0.9741
-5.6008 -5.2972 -1.9960 0.9686
-5.3748 -7.2948 -2.3461 0.9633
-3.9963 -8.1322 -2.3461 0.9633
-3.2566 -8.4556 -2.3461 0.9633
-0.1054 -9.4586 -2.4492 0.9617
1.5733 -9.3274 -2.4492 0.9617
2.3973 -9.1504 -2.4492 0.9617
3.2022 -8.9007 -2.4492 0.9617
4.7296 -8.1919 -2.4492 0.9617
7.8965 -4.4425 -2.3459 0.9633
6.7821 -3.0559 -1.9260 0.9697
8.7897 -2.1984 -2.3459 0.9633
8.8789 1.8047 -2.3459 0.9633
8.4182 3.3504 -2.3459 0.9633
8.0866 4.0863 -2.3459 0.9633
7.6908 4.7899 -2.3459 0.9633
6.7197 6.0776 -2.3459 0.9633
6.4229 6.9443 -2.4492 0.9617
5.0898 7.9731 -2.4492 0.9617
4.3600 8.3945 -2.4492 0.9617
0.3161 9.4539 -2.4492 0.9617
-0.5266 9.4446 -2.4492 0.9617
-2.1005 8.8142 -2.3461 0.9633
-2.8767 8.5923 -2.3461 0.9633
-3.6300 8.3021 -2.3461 0.9633
-5.0445 7.5270 -2.3461 0.9633
-7.2878 9.0203 -3.0025 0.9532
-8.1000 8.3753 -3.0168 0.9530
-9.6612 6.9537 -3.0820 0.9520
-5.5083 2.6311 -1.5806 0.9751
-19.2023 0.0000 -5.4360 0.9233
-5.5956 -2.6728 -1.7555 0.9746
-5.5968 -3.3150 -1.8415 0.9733
-5.5982 -4.0294 -1.9526 0.9717
-5.5999 -4.8424 -2.0958 0.9697
-3.3201 -7.5932 -2.3461 0.9661
-2.6310 -7.8585 -2.3461 0.9661
-0.4817 -8.6380 -2.4492 0.9647
0.2891 -8.6466 -2.4492 0.9647
1.0575 -8.5866 -2.4492 0.9647
1.8176 -8.4583 -2.4492 0.9647
3.2885 -8.0021 -2.4492 0.9647
3.9877 -7.6776 -2.4492 0.9647
7.0340 -4.3808 -2.3459 0.9661
8.1207 -1.6506 -2.3459 0.9661
7.8282 2.7182 -2.3459 0.9661
7.5552 3.4042 -2.3459 0.9661
6.4682 5.3461 -2.3756 0.9657
5.5856 6.6067 -2.4492 0.9647
4.3257 7.4923 -2.4492 0.9647
3.6417 7.8476 -2.4492 0.9647
1.4390 8.5309 -2.4492 0.9647
0.6740 8.6251 -2.4492 0.9647
-0.0964 8.6509 -2.4492 0.9647
-0.8660 8.6080 -2.4492 0.9647
-1.5856 8.2721 -2.3844 0.9656
-2.2784 7.9679 -2.3461 0.9661
-2.9785 7.7335 -2.3461 0.9661
-3.6550 7.4377 -2.3461 0.9661
-4.3025 7.0829 -2.3461 0.9661
-4.9158 6.6718 -2.3461 0.9661
-5.4902 6.2078 -2.3461 0.9661
-7.8457 7.4204 -3.0571 0.9561
-5.5201 2.3407 -1.6974 0.9754
-11.7909 3.8021 -3.5072 0.9498
-5.5014 1.2464 -1.5969 0.9768
-5.6915 -1.8353 -1.6929 0.9754
-5.5975 -3.6617 -1.8936 0.9726
-5.5990 -4.4215 -2.0197 0.9708
-5.6008 -5.2972 -2.1824 0.9685
-4.9158 -6.6718 -2.3461 0.9661
-4.3025 -7.0829 -2.3461 0.9661
-3.6550 -7.4377 -2.3461 0.9661
-2.2784 -7.9679 -2.3461 0.9661
-0.8660 -8.6080 -2.4492 0.9647
-0.0964 -8.6509 -2.4492 0.9647
1.4390 -8.5309 -2.4492 0.9647
2.9288 -8.1406 -2.4492 0.9647
3.6417 -7.8476 -2.4492 0.9647
6.8319 -4.6898 -2.3459 0.9661
7.2222 -4.0631 -2.3459 0.9661
6.7821 -3.0559 -2.1059 0.9695
8.0391 -2.0107 -2.3459 0.9661
8.1861 -1.2872 -2.3459 0.9661
8.2682 -0.5535 -2.3459 0.9661
8.2353 0.9213 -2.3459 0.9661
7.3960 3.7374 -2.3459 0.9661
7.0340 4.3808 -2.3459 0.9661
6.6162 4.9895 -2.3459 0.9661
6.4163 5.8032 -2.4492 0.9647
4.6552 7.2922 -2.4492 0.9647
3.2885 8.0021 -2.4492 0.9647
2.5632 8.2630 -2.4492 0.9647
1.8176 8.4583 -2.4492 0.9647
1.0575 8.5865 -2.4492 0.9647
0.2891 8.6466 -2.4492 0.9647
-1.9212 8.0615 -2.3461 0.9661
-2.6310 7.8585 -2.3461 0.9661
-3.9827 7.2675 -2.3461 0.9661
-5.5073 5.6946 -2.2427 0.9676
-8.2620 7.1444 -3.0921 0.9556
-9.0245 6.4954 -3.1477 0.9548
-9.7147 5.7540 -3.1964 0.9541
-10.4660 4.9992 -3.2835 0.9529
-11.3159 4.2141 -3.4184 0.9510
-12.4080 3.3989 -3.6420 0.9479
-16.4775 2.9686 -4.7398 0.9328
-18.9217 0.0000 -5.8199 0.9239
-18.8259 -1.6823 -5.8136 0.9239
-5.5944 -2.0834 -1.8362 0.9753
-5.5968 -3.3150 -2.0008 0.9731
-5.5999 -4.8424 -2.2771 0.9695
-5.3026 -5.4829 -2.3461 0.9686
-4.2465 -6.3362 -2.3461 0.9686
-3.0558 -6.9887 -2.3461 0.9686
-2.4216 -7.2329 -2.3461 0.9686
-1.7741 -7.4442 -2.3538 0.9685
-1.1492 -7.8794 -2.4492 0.9672
-0.4433 -7.9504 -2.4492 0.9672
0.2661 -7.9583 -2.4492 0.9672
0.9733 -7.9030 -2.4492 0.9672
1.6729 -7.7850 -2.4492 0.9672
2.3592 -7.6052 -2.4492 0.9672
5.4067 -5.8457 -2.4492 0.9672
6.8073 -3.4399 -2.3459 0.9686
7.0864 -2.8203 -2.3459 0.9686
7.3093 -2.1784 -2.3459 0.9686
7.4742 -1.5192 -2.3459 0.9686
7.6251 -0.1699 -2.3459 0.9686
7.3991 1.8506 -2.3459 0.9686
7.2050 2.5019 -2.3459 0.9686
6.9537 3.1332 -2.3459 0.9686
6.4630 4.4366 -2.4112 0.9677
5.1409 6.0807 -2.4492 0.9672
3.3518 7.2229 -2.4492 0.9672
2.6956 7.4926 -2.4492 0.9672
1.3244 7.8518 -2.4492 0.9672
0.6203 7.9385 -2.4492 0.9672
-0.0887 7.9622 -2.4492 0.9672
-1.4990 7.8204 -2.4492 0.9672
-3.3640 6.8456 -2.3461 0.9686
-4.5245 6.1407 -2.3461 0.9686
-8.1438 6.4311 -3.1917 0.9575
-8.7948 5.7533 -3.2325 0.9570
-5.5089 -0.7409 -1.7097 0.9770
-5.5962 -2.9862 -1.9510 0.9738
-5.5975 -3.6617 -2.0573 0.9724
-5.5990 -4.4215 -2.1944 0.9706
-5.5416 -5.2412 -2.3461 0.9686
-5.0531 -5.7136 -2.3461 0.9686
-4.5245 -6.1407 -2.3461 0.9686
-3.3640 -6.8456 -2.3461 0.9686
-2.7414 -7.1179 -2.3461 0.9686
-2.0970 -7.3336 -2.3461 0.9686
1.3244 -7.8518 -2.4492 0.9672
2.6956 -7.4926 -2.4492 0.9672
3.3518 -7.2229 -2.4492 0.9672
4.5793 -6.5142 -2.4492 0.9672
5.1409 -6.0807 -2.4492 0.9672
6.1376 -5.0729 -2.4492 0.9672
7.3991 -1.8506 -2.3459 0.9686
7.6251 0.1699 -2.3459 0.9686
7.4742 1.5192 -2.3459 0.9686
7.3093 2.1784 -2.3459 0.9686
4.8650 6.3037 -2.4492 0.9672
4.2846 6.7117 -2.4492 0.9672
3.6702 7.0664 -2.4492 0.9672
3.0267 7.3651 -2.4492 0.9672
2.3592 7.6052 -2.4492 0.9672
0.9733 7.9030 -2.4492 0.9672
0.2661 7.9582 -2.4492 0.9672
-0.4433 7.9504 -2.4492 0.9672
-1.1492 7.8794 -2.4492 0.9672
-1.7741 7.4442 -2.3538 0.9685
-3.6657 6.6890 -2.3461 0.9686
-4.2465 6.3362 -2.3461 0.9686
-4.7936 5.9331 -2.3461 0.9686
-5.5197 3.2693 -1.9732 0.9735
-10.6563 3.9685 -3.4976 0.9535
-13.9158 2.5071 -4.3491 0.9425
-18.7476 1.6753 -5.7894 0.9243
-18.5100 -1.6541 -6.1774 0.9247
-5.5090 -0.9925 -1.8607 0.9767
-5.5944 -2.0834 -1.9844 0.9752
-5.5956 -2.6728 -2.0613 0.9742
-5.5968 -3.3150 -2.1623 0.9730
-5.3386 -4.6165 -2.3461 0.9707
-4.4355 -5.4899 -2.3461 0.9707
-3.9293 -5.8629 -2.3461 0.9707
-3.3919 -6.1894 -2.3461 0.9707
-2.8275 -6.4667 -2.3461 0.9707
-2.2407 -6.6927 -2.3461 0.9707
-1.6362 -6.8656 -2.3461 0.9707
-0.4102 -7.3566 -2.4492 0.9694
0.9006 -7.3127 -2.4492 0.9694
2.8006 -6.8149 -2.4492 0.9694
4.5016 -5.8329 -2.4492 0.9694
5.8827 -4.4363 -2.4492 0.9694
6.2542 -3.8952 -2.4492 0.9694
6.5571 -2.6097 -2.3459 0.9707
6.7634 -2.0157 -2.3459 0.9707
6.9159 -1.4057 -2.3459 0.9707
7.0416 0.4714 -2.3459 0.9707
6.9717 1.0963 -2.3459 0.9707
6.8465 1.7124 -2.3459 0.9707
6.4722 2.9162 -2.3597 0.9705
6.0745 4.1699 -2.4492 0.9694
5.6792 4.6940 -2.4492 0.9694
5.2389 5.1808 -2.4492 0.9694
4.7570 5.6266 -2.4492 0.9694
4.2373 6.0276 -2.4492 0.9694
3.6840 6.3809 -2.4492 0.9694
3.1014 6.6834 -2.4492 0.9694
2.4943 6.9329 -2.4492 0.9694
1.8673 7.1274 -2.4492 0.9694
0.5740 7.3456 -2.4492 0.9694
-1.9404 6.7859 -2.3461 0.9707
-2.5366 6.5862 -2.3461 0.9707
-3.1128 6.3343 -2.3461 0.9707
-3.6642 6.0321 -2.3461 0.9707
-4.1866 5.6821 -2.3461 0.9707
-4.6757 5.2869 -2.3461 0.9707
-5.1277 4.8497 -2.3461 0.9707
-5.5390 4.3741 -2.3461 0.9707
-8.3026 5.4313 -3.2979 0.9590
-9.0099 4.8079 -3.3947 0.9579
-9.7070 4.1161 -3.5048 0.9565
-10.4691 3.3759 -3.6564 0.9547
-5.5014 1.2464 -1.8750 0.9765
-15.5442 2.0905 -5.2135 0.9360
-18.5068 0.8253 -6.1579 0.9249
-18.7300 -2.5190 -6.2820 0.9234
-5.6915 -1.8353 -1.9878 0.9751
-5.5950 -2.3725 -2.0201 0.9747
-5.5390 -4.3741 -2.3461 0.9707
-5.1277 -4.8497 -2.3461 0.9707
-4.6757 -5.2869 -2.3461 0.9707
-4.1866 -5.6821 -2.3461 0.9707
-2.5366 -6.5862 -2.3461 0.9707
-1.3871 -7.2362 -2.4492 0.9694
-0.7375 -7.3310 -2.4492 0.9694
0.5740 -7.3456 -2.4492 0.9694
2.4943 -6.9329 -2.4492 0.9694
3.1014 -6.6834 -2.4492 0.9694
4.2373 -6.0277 -2.4492 0.9694
5.2389 -5.1809 -2.4492 0.9694
5.6792 -4.6940 -2.4492 0.9694
6.4215 -3.6127 -2.4492 0.9694
6.6757 -2.3181 -2.3490 0.9707
6.9717 -1.0962 -2.3459 0.9707
7.0416 -0.4714 -2.3459 0.9707
7.0556 0.1572 -2.3459 0.9707
7.0136 0.7846 -2.3459 0.9707
6.4630 3.2659 -2.4070 0.9699
6.2542 3.8952 -2.4492 0.9694
5.4645 4.9423 -2.4492 0.9694
5.0029 5.4091 -2.4492 0.9694
3.3961 6.5386 -2.4492 0.9694
2.8006 6.8150 -2.4492 0.9694
1.5479 7.2036 -2.4492 0.9694
0.2462 7.3639 -2.4492 0.9694
-1.0633 7.2908 -2.4492 0.9694
-2.2407 6.6927 -2.3461 0.9707
-3.9293 5.8629 -2.3461 0.9707
-4.4355 5.4899 -2.3461 0.9707
-7.9853 5.7474 -3.2704 0.9594
-8.6571 5.1276 -3.3446 0.9585
-9.3608 4.4713 -3.4483 0.9572
-18.5123 1.6543 -6.1781 0.9246
-18.4408 0.0000 -6.5945 0.9247
-5.5956 -2.6728 -2.2176 0.9740
-5.5968 -3.3150 -2.3262 0.9727
-4.5608 -4.7158 -2.3461 0.9725
-3.6524 -5.4497 -2.3461 0.9725
-3.1528 -5.7532 -2.3461 0.9725
-2.0828 -6.2211 -2.3461 0.9725
-0.9884 -6.7771 -2.4492 0.9713
-0.3813 -6.8381 -2.4492 0.9713
0.8372 -6.7974 -2.4492 0.9713
3.6852 -5.7728 -2.4492 0.9713
4.6503 -5.0279 -2.4492 0.9713
5.0794 -4.5940 -2.4492 0.9713
6.1126 -3.0888 -2.4492 0.9713
6.4630 -1.9262 -2.4117 0.9718
6.4717 -1.3154 -2.3617 0.9723
6.5584 -0.1461 -2.3459 0.9725
6.4804 1.0190 -2.3459 0.9725
6.4661 1.6173 -2.3836 0.9721
6.4630 2.2442 -2.4466 0.9714
6.2442 2.8135 -2.4492 0.9713
5.9690 3.3581 -2.4492 0.9713
5.2790 4.3632 -2.4492 0.9713
4.8697 4.8157 -2.4492 0.9713
4.4217 5.2301 -2.4492 0.9713
3.9387 5.6029 -2.4492 0.9713
1.7357 6.6251 -2.4492 0.9713
1.1391 6.7533 -2.4492 0.9713
0.5335 6.8279 -2.4492 0.9713
-0.6855 6.8143 -2.4492 0.9713
-1.8036 6.3077 -2.3461 0.9725
-3.4060 5.6070 -2.3461 0.9725
-3.8915 5.2816 -2.3461 0.9725
-4.3462 4.9143 -2.3461 0.9725
-5.1486 4.0658 -2.3461 0.9725
-9.2011 3.9016 -3.5740 0.9584
-5.4901 -3.5914 -2.3461 0.9725
-4.3462 -4.9143 -2.3461 0.9725
-3.8915 -5.2816 -2.3461 0.9725
-3.4060 -5.6070 -2.3461 0.9725
-2.3579 -6.1221 -2.3461 0.9725
-1.8036 -6.3076 -2.3461 0.9725
-0.6855 -6.8143 -2.4492 0.9713
0.5335 -6.8279 -2.4492 0.9713
1.7357 -6.6252 -2.4492 0.9713
2.3185 -6.4444 -2.4492 0.9713
3.4244 -5.9312 -2.4492 0.9713
3.9387 -5.6029 -2.4492 0.9713
4.8697 -4.8157 -2.4492 0.9713
5.2790 -4.3632 -2.4492 0.9713
5.6464 -3.8760 -2.4492 0.9713
6.4661 -1.6173 -2.3836 0.9721
6.4717 1.3154 -2.3617 0.9723
6.3633 2.5325 -2.4492 0.9713
6.1126 3.0888 -2.4492 0.9713
5.8134 3.6206 -2.4492 0.9713
5.4681 4.1237 -2.4492 0.9713
5.0794 4.5940 -2.4492 0.9713
3.1568 6.0778 -2.4492 0.9713
2.0291 6.5412 -2.4492 0.9713
1.4389 6.6959 -2.4492 0.9713
-0.3813 6.8381 -2.4492 0.9713
-1.5829 6.6423 -2.4419 0.9714
-2.0828 6.2211 -2.3461 0.9725
-2.6283 6.0110 -2.3461 0.9725
-3.1528 5.7532 -2.3461 0.9725
-4.1229 5.1030 -2.3461 0.9725
-4.9624 4.2912 -2.3461 0.9725
-5.3247 3.8325 -2.3461 0.9725
-8.8781 4.2407 -3.5185 0.9591
-9.5223 3.5461 -3.6337 0.9578
-18.5139 1.6544 -6.6471 0.9241
-5.5242 -2.6387 -2.3461 0.9741
-4.9688 -3.5763 -2.3461 0.9741
-4.6308 -4.0044 -2.3461 0.9741
-2.9421 -5.3687 -2.3461 0.9741
-2.4526 -5.6093 -2.3461 0.9741
-1.9436 -5.8053 -2.3461 0.9741
-1.4816 -6.2169 -2.4492 0.9730
-0.9224 -6.3241 -2.4492 0.9730
-0.3558 -6.3811 -2.4492 0.9730
0.2136 -6.3875 -2.4492 0.9730
0.7812 -6.3431 -2.4492 0.9730
1.3427 -6.2484 -2.4492 0.9730
2.9458 -5.6717 -2.4492 0.9730
3.9047 -5.0595 -2.4492 0.9730
4.3395 -4.6919 -2.4492 0.9730
4.7399 -4.2870 -2.4492 0.9730
5.4249 -3.3787 -2.4492 0.9730
5.9380 -2.3633 -2.4492 0.9730
6.1248 -1.8254 -2.4492 0.9730
6.2630 -1.2730 -2.4492 0.9730
6.3514 -0.7105 -2.4492 0.9730
6.3894 -0.1424 -2.4492 0.9730
6.3135 0.9927 -2.4492 0.9730
5.5701 3.1337 -2.4492 0.9730
5.2690 3.6170 -2.4492 0.9730
4.5442 4.4939 -2.4492 0.9730
3.6755 5.2284 -2.4492 0.9730
2.6902 5.7972 -2.4492 0.9730
2.1635 6.0137 -2.4492 0.9730
1.6197 6.1824 -2.4492 0.9730
1.0630 6.3020 -2.4492 0.9730
0.4979 6.3716 -2.4492 0.9730
-0.0712 6.3906 -2.4492 0.9730
-0.6397 6.3589 -2.4492 0.9730
-1.6831 5.8861 -2.3461 0.9741
-2.2003 5.7130 -2.3461 0.9741
-2.7000 5.4944 -2.3461 0.9741
-3.6315 4.9287 -2.3461 0.9741
-5.1232 3.3514 -2.3461 0.9741
-8.7361 3.7044 -3.6364 0.9602
-5.5081 1.7761 -2.2178 0.9755
-11.6532 1.5672 -4.5059 0.9509
-5.4011 -2.8821 -2.3461 0.9741
-4.8046 -3.7941 -2.3461 0.9741
-4.0557 -4.5859 -2.3461 0.9741
-3.1784 -5.2323 -2.3461 0.9741
-2.7000 -5.4944 -2.3461 0.9741
-1.6831 -5.8861 -2.3461 0.9741
-1.2032 -6.2768 -2.4492 0.9730
-0.6397 -6.3589 -2.4492 0.9730
-0.0712 -6.3906 -2.4492 0.9730
0.4979 -6.3716 -2.4492 0.9730
2.6902 -5.7972 -2.4492 0.9730
3.1955 -5.5348 -2.4492 0.9730
4.1262 -4.8805 -2.4492 0.9730
4.5442 -4.4939 -2.4492 0.9730
5.2690 -3.6170 -2.4492 0.9730
6.0374 -2.0964 -2.4492 0.9730
6.3135 -0.9927 -2.4492 0.9730
6.3768 -0.4269 -2.4492 0.9730
6.3514 0.7105 -2.4492 0.9730
4.7399 4.2870 -2.4492 0.9730
3.9047 5.0595 -2.4492 0.9730
3.4389 5.3870 -2.4492 0.9730
2.9458 5.6716 -2.4492 0.9730
1.3427 6.2484 -2.4492 0.9730
0.7812 6.3431 -2.4492 0.9730
0.2136 6.3875 -2.4492 0.9730
-1.4816 6.2169 -2.4492 0.9730
-1.9436 5.8053 -2.3461 0.9741
-2.4526 5.6093 -2.3461 0.9741
-2.9421 5.3687 -2.3461 0.9741
-4.6308 4.0044 -2.3461 0.9741
-5.5242 2.6387 -2.3461 0.9741
-9.0587 3.3735 -3.7044 0.9594
-9.9186 2.7170 -3.9410 0.9569
-1.6390 -0.1465 -0.6735 0.9929
-1.6200 -0.2919 -0.6737 0.9929
-5.3718 -2.0005 -2.3461 0.9755
-4.9320 -2.9212 -2.3461 0.9755
-4.3359 -3.7494 -2.3461 0.9755
-3.6025 -4.4588 -2.3461 0.9755
-3.1913 -4.7618 -2.3461 0.9755
-1.3872 -5.8211 -2.4492 0.9745
-0.3332 -5.9749 -2.4492 0.9745
0.2000 -5.9808 -2.4492 0.9745
1.2572 -5.8506 -2.4492 0.9745
2.2746 -5.5350 -2.4492 0.9745
2.7582 -5.3105 -2.4492 0.9745
3.2200 -5.0440 -2.4492 0.9745
3.6561 -4.7374 -2.4492 0.9745
4.0633 -4.3932 -2.4492 0.9745
5.7349 -1.7092 -2.4492 0.9745
5.8642 -1.1920 -2.4492 0.9745
5.9470 -0.6653 -2.4492 0.9745
5.9827 -0.1333 -2.4492 0.9745
5.8053 1.4520 -2.4492 0.9745
5.4559 2.4583 -2.4492 0.9745
3.4415 4.8955 -2.4492 0.9745
2.9921 5.1824 -2.4492 0.9745
2.5189 5.4282 -2.4492 0.9745
2.0258 5.6308 -2.4492 0.9745
-0.0667 5.9837 -2.4492 0.9745
-1.5897 5.5597 -2.3666 0.9753
-2.0602 5.3492 -2.3461 0.9755
-2.5281 5.1446 -2.3461 0.9755
-2.9760 4.8992 -2.3461 0.9755
-3.4003 4.6149 -2.3461 0.9755
-5.0573 2.6987 -2.3461 0.9755
-1.5889 0.5124 -0.6833 0.9928
-1.6301 0.2192 -0.6732 0.9929
-17.7737 0.7925 -7.2815 0.9260
-1.6301 -0.2192 -0.6732 0.9929
-1.5889 -0.5124 -0.6833 0.9928
-5.2774 -2.2378 -2.3461 0.9755
-5.0573 -2.6986 -2.3461 0.9755
-3.7975 -4.2939 -2.3461 0.9755
-3.4003 -4.6148 -2.3461 0.9755
-2.5281 -5.1446 -2.3461 0.9755
-2.0602 -5.3492 -2.3461 0.9755
-0.0667 -5.9837 -2.4492 0.9745
1.5166 -5.7888 -2.4492 0.9745
2.5189 -5.4282 -2.4492 0.9745
2.9921 -5.1824 -2.4492 0.9745
3.8635 -4.5698 -2.4492 0.9745
4.2549 -4.2078 -2.4492 0.9745
4.6126 -3.8124 -2.4492 0.9745
4.9336 -3.3867 -2.4492 0.9745
5.2154 -2.9341 -2.4492 0.9745
5.6530 -1.9629 -2.4492 0.9745
5.9708 -0.3997 -2.4492 0.9745
5.9827 0.1333 -2.4492 0.9745
5.8642 1.1920 -2.4492 0.9745
5.5600 2.2128 -2.4492 0.9745
5.0795 3.1636 -2.4492 0.9745
4.0633 4.3932 -2.4492 0.9745
3.6561 4.7374 -2.4492 0.9745
3.2200 5.0440 -2.4492 0.9745
2.7582 5.3106 -2.4492 0.9745
2.2746 5.5350 -2.4492 0.9745
1.7730 5.7155 -2.4492 0.9745
1.2572 5.8506 -2.4492 0.9745
0.7315 5.9393 -2.4492 0.9745
0.2000 5.9808 -2.4492 0.9745
-0.3332 5.9749 -2.4492 0.9745
-2.2965 5.2521 -2.3461 0.9755
-2.7548 5.0269 -2.3461 0.9755
-3.6025 4.4588 -2.3461 0.9755
-3.9850 4.1205 -2.3461 0.9755
-4.6525 3.3486 -2.3461 0.9755
-5.1725 2.4707 -2.3461 0.9755
-5.3718 2.0005 -2.3461 0.9755
-1.6035 0.4392 -0.6804 0.9928
-1.6200 0.2919 -0.6737 0.9929
-1.6390 0.1465 -0.6735 0.9929
-1.5215 -0.1360 -0.6657 0.9934
-1.5015 -0.2705 -0.6649 0.9934
-5.0447 -1.8787 -2.3461 0.9768
-4.8575 -2.3202 -2.3461 0.9768
-3.7423 -3.8695 -2.3461 0.9768
-3.3831 -4.1873 -2.3461 0.9768
-2.9969 -4.4718 -2.3461 0.9768
-1.3028 -5.4666 -2.4492 0.9758
-0.8110 -5.5609 -2.4492 0.9758
0.1878 -5.6166 -2.4492 0.9758
1.1806 -5.4943 -2.4492 0.9758
2.1361 -5.1979 -2.4492 0.9758
2.5903 -4.9871 -2.4492 0.9758
4.1679 -3.7696 -2.4492 0.9758
4.4868 -3.3837 -2.4492 0.9758
4.7702 -2.9709 -2.4492 0.9758
5.3856 -1.6051 -2.4492 0.9758
5.5071 -1.1194 -2.4492 0.9758
5.5849 -0.6248 -2.4492 0.9758
5.6183 -0.1252 -2.4492 0.9758
5.5515 0.8729 -2.4492 0.9758
5.1236 2.3086 -2.4492 0.9758
4.8978 2.7555 -2.4492 0.9758
4.6331 3.1804 -2.4492 0.9758
3.2319 4.5974 -2.4492 0.9758
2.8098 4.8668 -2.4492 0.9758
1.9024 5.2879 -2.4492 0.9758
0.4378 5.6026 -2.4492 0.9758
-0.5625 5.5915 -2.4492 0.9758
-1.0579 5.5192 -2.4492 0.9758
-1.5450 5.4031 -2.4492 0.9758
-2.3742 4.8313 -2.3461 0.9768
-2.2705 3.0816 -1.6682 0.9834
-3.9110 3.6990 -2.3461 0.9768
-4.5049 2.9470 -2.3461 0.9768
-4.7493 2.5343 -2.3461 0.9768
-1.5029 0.3405 -0.6716 0.9933
-1.5259 -0.0680 -0.6657 0.9934
-1.5133 -0.2035 -0.6654 0.9934
-1.5029 -0.3405 -0.6716 0.9933
-1.4861 -0.4792 -0.6805 0.9932
-4.9560 -2.1015 -2.3461 0.9768
-4.7493 -2.5343 -2.3461 0.9768
-4.5049 -2.9470 -2.3461 0.9768
-4.2247 -3.3362 -2.3461 0.9768
-3.5662 -4.0324 -2.3461 0.9768
-3.1932 -4.3338 -2.3461 0.9768
-1.9347 -5.0235 -2.3461 0.9768
-0.5625 -5.5915 -2.4492 0.9758
0.4378 -5.6026 -2.4492 0.9758
0.9347 -5.5414 -2.4492 0.9758
1.4242 -5.4362 -2.4492 0.9758
2.8098 -4.8668 -2.4492 0.9758
3.9958 -3.9515 -2.4492 0.9758
4.6331 -3.1804 -2.4492 0.9758
5.4518 -1.3636 -2.4492 0.9758
5.6071 -0.3754 -2.4492 0.9758
5.6183 0.1252 -2.4492 0.9758
5.5849 0.6248 -2.4492 0.9758
5.3856 1.6051 -2.4492 0.9758
5.2214 2.0780 -2.4492 0.9758
5.0157 2.5345 -2.4492 0.9758
4.4868 3.3837 -2.4492 0.9758
3.0239 4.7368 -2.4492 0.9758
1.1806 5.4943 -2.4492 0.9758
0.1878 5.6166 -2.4492 0.9758
-0.3129 5.6110 -2.4492 0.9758
-0.8110 5.5609 -2.4492 0.9758
-1.7090 5.1046 -2.3461 0.9768
-2.1566 4.9323 -2.3461 0.9768
-3.3831 4.1873 -2.3461 0.9768
-3.7423 3.8695 -2.3461 0.9768
-4.0719 3.5211 -2.3461 0.9768
-4.3691 3.1447 -2.3461 0.9768
-5.0447 1.8787 -2.3461 0.9768
-1.5001 0.4109 -0.6779 0.9932
-1.5015 0.2705 -0.6649 0.9934
-1.4219 0.0000 -0.6582 0.9938
-1.3993 -0.2521 -0.6581 0.9938
-1.3946 -0.3820 -0.6693 0.9936
-4.7497 -1.7688 -2.3461 0.9779
-4.5734 -2.1845 -2.3461 0.9779
-4.3608 -2.5829 -2.3461 0.9779
-3.8338 -3.3152 -2.3461 0.9779
-3.5235 -3.6433 -2.3461 0.9779
-2.4358 -4.4447 -2.3461 0.9779
1.5676 -5.0535 -2.4492 0.9769
2.0112 -4.8939 -2.4492 0.9769
2.8470 -4.4598 -2.4492 0.9769
3.2327 -4.1887 -2.4492 0.9769
3.5927 -3.8844 -2.4492 0.9769
3.9241 -3.5492 -2.4492 0.9769
4.2245 -3.1858 -2.4492 0.9769
4.7224 -2.3863 -2.4492 0.9769
4.9160 -1.9565 -2.4492 0.9769
5.1850 -1.0539 -2.4492 0.9769
5.2898 -0.1179 -2.4492 0.9769
5.2793 0.3534 -2.4492 0.9769
4.6114 2.5943 -2.4492 0.9769
4.3622 2.9945 -2.4492 0.9769
4.0783 3.3708 -2.4492 0.9769
3.7621 3.7204 -2.4492 0.9769
3.0429 4.3286 -2.4492 0.9769
1.3409 5.1183 -2.4492 0.9769
0.8801 5.2174 -2.4492 0.9769
0.4122 5.2750 -2.4492 0.9769
-0.0589 5.2907 -2.4492 0.9769
-0.5296 5.2645 -2.4492 0.9769
-1.4546 5.0872 -2.4492 0.9769
-4.2414 2.7746 -2.3461 0.9779
-4.4716 2.3861 -2.3461 0.9779
-4.6662 1.9786 -2.3461 0.9779
-1.3890 0.4479 -0.6755 0.9936
-1.4099 -0.1896 -0.6585 0.9937
-1.3967 -0.3165 -0.6629 0.9937
-4.6662 -1.9786 -2.3461 0.9779
-4.4716 -2.3861 -2.3461 0.9779
-4.2414 -2.7746 -2.3461 0.9779
-3.9776 -3.1411 -2.3461 0.9779
-3.0065 -4.0804 -2.3461 0.9779
-2.6313 -4.3318 -2.3461 0.9779
-2.2353 -4.5488 -2.3461 0.9779
-1.4546 -5.0872 -2.4492 0.9769
-0.9961 -5.1965 -2.4492 0.9769
-0.0589 -5.2907 -2.4492 0.9769
0.4122 -5.2750 -2.4492 0.9769
0.8801 -5.2174 -2.4492 0.9769
1.3409 -5.1183 -2.4492 0.9769
1.7912 -4.9787 -2.4492 0.9769
2.2272 -4.7995 -2.4492 0.9769
2.6455 -4.5822 -2.4492 0.9769
3.4161 -4.0405 -2.4492 0.9769
3.7621 -3.7205 -2.4492 0.9769
4.0783 -3.3708 -2.4492 0.9769
4.3622 -2.9945 -2.4492 0.9769
4.6114 -2.5943 -2.4492 0.9769
4.9983 -1.7356 -2.4492 0.9769
5.2583 0.5882 -2.4492 0.9769
5.0707 1.5112 -2.4492 0.9769
4.7224 2.3863 -2.4492 0.9769
4.4912 2.7971 -2.4492 0.9769
3.9241 3.5492 -2.4492 0.9769
3.5927 3.8843 -2.4492 0.9769
3.2327 4.1887 -2.4492 0.9769
2.8470 4.4598 -2.4492 0.9769
2.4388 4.6955 -2.4492 0.9769
1.5676 5.0535 -2.4492 0.9769
1.1116 5.1730 -2.4492 0.9769
0.6468 5.2514 -2.4492 0.9769
-0.2946 5.2829 -2.4492 0.9769
-0.7636 5.2357 -2.4492 0.9769
-1.6091 4.8062 -2.3461 0.9779
-2.4358 4.4447 -2.3461 0.9779
-3.1852 3.9424 -2.3461 0.9779
-3.5235 3.6432 -2.3461 0.9779
-4.3608 2.5829 -2.3461 0.9779
-4.5734 2.1845 -2.3461 0.9779
-4.7497 1.7688 -2.3461 0.9779
-1.3946 0.3820 -0.6693 0.9936
-1.4172 0.1266 -0.6586 0.9937
-1.3367 0.0000 -0.6557 0.9941
-1.3159 -0.2371 -0.6559 0.9941
-1.3061 -0.3578 -0.6642 0.9940
-4.1151 -2.4374 -2.3461 0.9789
-3.8818 -2.7940 -2.3461 0.9789
-3.6178 -3.1284 -2.3461 0.9789
-2.0470 -3.0543 -1.8036 0.9838
-2.2985 -4.1943 -2.3461 0.9789
-1.9161 -4.3822 -2.3461 0.9789
-1.1575 -4.8569 -2.4492 0.9780
1.4793 -4.7688 -2.4492 0.9780
1.8979 -4.6182 -2.4492 0.9780
2.3014 -4.4309 -2.4492 0.9780
3.3902 -3.6655 -2.4492 0.9780
3.9864 -3.0063 -2.4492 0.9780
4.4563 -2.2519 -2.4492 0.9780
4.6390 -1.8463 -2.4492 0.9780
4.8929 -0.9945 -2.4492 0.9780
4.9917 -0.1112 -2.4492 0.9780
4.9323 0.7756 -2.4492 0.9780
4.5522 2.0511 -2.4492 0.9780
4.1164 2.8257 -2.4492 0.9780
3.2236 3.8129 -2.4492 0.9780
2.8714 4.0846 -2.4492 0.9780
2.1017 4.5291 -2.4492 0.9780
1.6903 4.6981 -2.4492 0.9780
1.2654 4.8299 -2.4492 0.9780
0.3890 4.9778 -2.4492 0.9780
-0.4998 4.9679 -2.4492 0.9780
-2.1094 4.2925 -2.3461 0.9789
-2.1800 2.9587 -1.8027 0.9838
-3.1685 3.5827 -2.3461 0.9789
-3.4748 3.2864 -2.3461 0.9789
-3.7535 2.9641 -2.3461 0.9789
-4.4033 1.8671 -2.3461 0.9789
-1.3089 0.2966 -0.6583 0.9940
-1.3251 0.1782 -0.6559 0.9941
-1.3355 0.0596 -0.6558 0.9941
-1.3003 -0.4193 -0.6702 0.9939
-4.4033 -1.8671 -2.3461 0.9789
-4.0025 -2.6183 -2.3461 0.9789
-2.8371 -3.8505 -2.3461 0.9789
-2.1094 -4.2925 -2.3461 0.9789
-0.4998 -4.9679 -2.4492 0.9780
-0.0556 -4.9926 -2.4492 0.9780
0.3890 -4.9778 -2.4492 0.9780
0.8305 -4.9234 -2.4492 0.9780
1.2654 -4.8299 -2.4492 0.9780
1.6903 -4.6981 -2.4492 0.9780
2.1017 -4.5290 -2.4492 0.9780
2.4965 -4.3240 -2.4492 0.9780
3.5502 -3.5108 -2.4492 0.9780
4.3516 -2.4481 -2.4492 0.9780
4.9323 -0.7756 -2.4492 0.9780
4.9620 0.5551 -2.4492 0.9780
4.8929 0.9945 -2.4492 0.9780
4.7850 1.4261 -2.4492 0.9780
4.6390 1.8463 -2.4492 0.9780
4.4563 2.2519 -2.4492 0.9780
3.7030 3.3492 -2.4492 0.9780
2.3014 4.4309 -2.4492 0.9780
1.8979 4.6182 -2.4492 0.9780
1.0490 4.8815 -2.4492 0.9780
0.6103 4.9555 -2.4492 0.9780
-0.2780 4.9852 -2.4492 0.9780
-0.7206 4.9407 -2.4492 0.9780
-1.9161 4.3822 -2.3461 0.9789
-2.0389 3.0423 -1.7965 0.9838
-3.6178 3.1284 -2.3461 0.9789
-4.1151 2.4374 -2.3461 0.9789
-1.2931 0.4815 -0.6768 0.9939
-1.3061 0.3578 -0.6642 0.9940
-1.3159 0.2371 -0.6559 0.9941
-1.3317 0.1190 -0.6558 0.9941
-1.2624 0.0000 -0.6549 0.9943
-1.2576 -0.1124 -0.6550 0.9943
-1.2283 -0.3365 -0.6607 0.9943
-4.0807 -1.9492 -2.3461 0.9798
-3.8910 -2.3046 -2.3461 0.9798
-3.4207 -2.9580 -2.3461 0.9798
-2.1733 -3.9658 -2.3461 0.9798
-1.4988 -4.4768 -2.4492 0.9790
-1.0944 -4.5924 -2.4492 0.9790
-0.6813 -4.6716 -2.4492 0.9790
1.3987 -4.5090 -2.4492 0.9790
2.1760 -4.1896 -2.4492 0.9790
2.8844 -3.7374 -2.4492 0.9790
3.2056 -3.4658 -2.4492 0.9790
4.0073 -2.4958 -2.4492 0.9790
4.2136 -2.1292 -2.4492 0.9790
4.3864 -1.7457 -2.4492 0.9790
4.5243 -1.3484 -2.4492 0.9790
4.7198 -0.1052 -2.4492 0.9790
4.6637 0.7333 -2.4492 0.9790
4.4598 1.5486 -2.4492 0.9790
4.3043 1.9394 -2.4492 0.9790
3.8922 2.6718 -2.4492 0.9790
3.6389 3.0077 -2.4492 0.9790
2.7150 3.8622 -2.4492 0.9790
0.7852 4.6552 -2.4492 0.9790
-0.4725 4.6973 -2.4492 0.9790
-0.8888 4.6366 -2.4492 0.9790
-1.2979 4.5391 -2.4492 0.9790
-1.9945 4.0587 -2.3461 0.9798
-2.1768 2.9544 -1.9038 0.9836
-2.9959 3.3876 -2.3461 0.9798
-3.7845 2.4757 -2.3461 0.9798
-3.9898 2.1290 -2.3461 0.9798
-1.2316 0.2790 -0.6551 0.9943
-1.2514 0.1683 -0.6551 0.9943
-1.2613 -0.0562 -0.6550 0.9943
-1.2514 -0.1683 -0.6551 0.9943
-4.1634 -1.7654 -2.3461 0.9798
-3.9898 -2.1290 -2.3461 0.9798
-3.7845 -2.4757 -2.3461 0.9798
-3.5491 -2.8027 -2.3461 0.9798
-2.9959 -3.3875 -2.3461 0.9798
-2.6825 -3.6407 -2.3461 0.9798
-2.3478 -3.8651 -2.3461 0.9798
-1.9945 -4.0587 -2.3461 0.9798
-1.6253 -4.2201 -2.3461 0.9798
-1.2979 -4.5391 -2.4492 0.9790
-0.0526 -4.7207 -2.4492 0.9790
0.3678 -4.7066 -2.4492 0.9790
0.7852 -4.6552 -2.4492 0.9790
1.1965 -4.5669 -2.4492 0.9790
4.3043 -1.9394 -2.4492 0.9790
4.5799 -1.1455 -2.4492 0.9790
4.6637 -0.7333 -2.4492 0.9790
4.7198 0.1052 -2.4492 0.9790
4.6917 0.5248 -2.4492 0.9790
4.5243 1.3484 -2.4492 0.9790
3.5013 3.1668 -2.4492 0.9790
3.2056 3.4658 -2.4492 0.9790
2.8844 3.7374 -2.4492 0.9790
2.5403 3.9793 -2.4492 0.9790
1.7945 4.3666 -2.4492 0.9790
1.3987 4.5090 -2.4492 0.9790
0.9918 4.6156 -2.4492 0.9790
0.5771 4.6856 -2.4492 0.9790
0.1578 4.7184 -2.4492 0.9790
-1.0944 4.5924 -2.4492 0.9790
-1.4988 4.4768 -2.4492 0.9790
-1.8117 4.1435 -2.3461 0.9798
-2.1733 3.9658 -2.3461 0.9798
-2.0347 3.0360 -1.8960 0.9837
-2.8420 3.5177 -2.3461 0.9798
-3.1439 3.2507 -2.3461 0.9798
-3.4207 2.9580 -2.3461 0.9798
-3.6704 2.6418 -2.3461 0.9798
-3.8910 2.3046 -2.3461 0.9798
-1.2426 0.2239 -0.6550 0.9943
-1.2576 0.1124 -0.6550 0.9943
-1.1944 0.0000 -0.6542 0.9946
-1.1899 -0.1063 -0.6543 0.9946
-1.1756 -0.2118 -0.6543 0.9946
-1.1464 -0.4269 -0.6700 0.9944
-3.8652 -1.8462 -2.3461 0.9807
-2.0404 -3.0445 -2.0074 0.9834
-1.7160 -3.9247 -2.3461 0.9807
-1.4197 -4.2404 -2.4492 0.9798
-1.0366 -4.3499 -2.4492 0.9798
0.5466 -4.4381 -2.4492 0.9798
2.0611 -3.9684 -2.4492 0.9798
2.4061 -3.7691 -2.4492 0.9798
2.7321 -3.5401 -2.4492 0.9798
3.0363 -3.2828 -2.4492 0.9798
3.3164 -2.9995 -2.4492 0.9798
3.5702 -2.6924 -2.4492 0.9798
3.9911 -2.0168 -2.4492 0.9798
4.1547 -1.6536 -2.4492 0.9798
4.2854 -1.2772 -2.4492 0.9798
4.4706 -0.0996 -2.4492 0.9798
4.4617 0.2987 -2.4492 0.9798
4.4174 0.6946 -2.4492 0.9798
4.3381 1.0850 -2.4492 0.9798
4.2243 1.4668 -2.4492 0.9798
3.8973 2.1926 -2.4492 0.9798
2.5717 3.6582 -2.4492 0.9798
1.5138 4.2077 -2.4492 0.9798
-0.0498 4.4714 -2.4492 0.9798
-0.4476 4.4492 -2.4492 0.9798
-2.2238 3.6609 -2.3461 0.9807
-2.8377 3.2087 -2.3461 0.9807
-3.3617 2.6547 -2.3461 0.9807
-3.5846 2.3449 -2.3461 0.9807
-1.1411 0.4838 -0.6788 0.9944
-1.1840 0.1592 -0.6543 0.9946
-1.1840 -0.1592 -0.6543 0.9946
-1.1649 -0.2639 -0.6542 0.9946
-1.1411 -0.4838 -0.6788 0.9944
-3.7791 -2.0166 -2.3461 0.9807
-3.3617 -2.6547 -2.3461 0.9807
-2.5409 -3.4485 -2.3461 0.9807
-1.8892 -3.8444 -2.3461 0.9807
-1.2294 -4.2994 -2.4492 0.9798
-0.8418 -4.3917 -2.4492 0.9798
-0.0498 -4.4714 -2.4492 0.9798
0.3484 -4.4581 -2.4492 0.9798
0.7438 -4.4094 -2.4492 0.9798
1.1333 -4.3257 -2.4492 0.9798
1.5138 -4.2077 -2.4492 0.9798
3.4468 -2.8488 -2.4492 0.9798
3.6866 -2.5307 -2.4492 0.9798
3.8973 -2.1926 -2.4492 0.9798
4.0769 -1.8370 -2.4492 0.9798
4.2243 -1.4668 -2.4492 0.9798
4.3381 -1.0850 -2.4492 0.9798
4.4174 -0.6946 -2.4492 0.9798
4.4617 -0.2987 -2.4492 0.9798
4.4706 0.0996 -2.4492 0.9798
4.3821 0.8907 -2.4492 0.9798
4.2854 1.2772 -2.4492 0.9798
4.1547 1.6535 -2.4492 0.9798
3.7957 2.3640 -2.4492 0.9798
2.7321 3.5400 -2.4492 0.9798
1.6997 4.1360 -2.4492 0.9798
0.9395 4.3719 -2.4492 0.9798
0.5466 4.4381 -2.4492 0.9798
-0.6453 4.4249 -2.4492 0.9798
-1.4197 4.2404 -2.4492 0.9798
-1.7160 3.9247 -2.3461 0.9807
-2.6920 3.3319 -2.3461 0.9807
-2.9778 3.0790 -2.3461 0.9807
-3.2401 2.8018 -2.3461 0.9807
-3.4766 2.5023 -2.3461 0.9807
-3.6855 2.1829 -2.3461 0.9807
-1.1464 0.4269 -0.6700 0.9944
-1.1577 0.3171 -0.6575 0.9945
-1.1756 0.2118 -0.6543 0.9946
-1.1319 0.0000 -0.6535 0.9948
-1.1141 -0.2007 -0.6536 0.9948
-1.0934 -0.2995 -0.6545 0.9948
-3.6667 -1.7514 -2.3461 0.9814
-3.4962 -2.0708 -2.3461 0.9814
-2.8249 -2.9209 -2.3461 0.9814
-2.5537 -3.1608 -2.3461 0.9814
-2.0404 -3.0445 -2.1160 0.9832
-1.9528 -3.5635 -2.3461 0.9814
-1.3468 -4.0226 -2.4492 0.9806
-0.9834 -4.1265 -2.4492 0.9806
-0.2362 -4.2355 -2.4492 0.9806
0.1417 -4.2397 -2.4492 0.9806
1.6124 -3.9237 -2.4492 0.9806
1.9553 -3.7646 -2.4492 0.9806
2.2826 -3.5756 -2.4492 0.9806
2.5918 -3.3583 -2.4492 0.9806
2.8804 -3.1142 -2.4492 0.9806
3.3869 -2.5542 -2.4492 0.9806
3.6008 -2.2426 -2.4492 0.9806
3.7861 -1.9132 -2.4492 0.9806
3.9414 -1.5686 -2.4492 0.9806
4.0654 -1.2116 -2.4492 0.9806
4.1571 -0.8450 -2.4492 0.9806
4.2158 -0.4716 -2.4492 0.9806
3.6971 2.0800 -2.4492 0.9806
2.4396 3.4704 -2.4492 0.9806
2.1210 3.6737 -2.4492 0.9806
1.7856 3.8479 -2.4492 0.9806
0.3305 4.2292 -2.4492 0.9806
-0.4246 4.2208 -2.4492 0.9806
-1.1662 4.0786 -2.4492 0.9806
-1.7922 3.6470 -2.3461 0.9814
-2.1097 3.4730 -2.3461 0.9814
-2.1703 2.9455 -2.1124 0.9832
-2.6920 3.0439 -2.3461 0.9814
-3.4005 2.2245 -2.3461 0.9814
-1.0769 0.4566 -0.6753 0.9946
-1.0870 0.3505 -0.6594 0.9947
-1.1039 0.2501 -0.6535 0.9948
-1.1309 0.0504 -0.6536 0.9948
-1.1039 -0.2501 -0.6535 0.9948
-1.0870 -0.3505 -0.6594 0.9947
-3.5850 -1.9130 -2.3461 0.9814
-3.1890 -2.5184 -2.3461 0.9814
-2.6920 -3.0439 -2.3461 0.9814
-2.1097 -3.4730 -2.3461 0.9814
-1.1662 -4.0786 -2.4492 0.9806
0.3305 -4.2292 -2.4492 0.9806
0.7056 -4.1830 -2.4492 0.9806
1.0751 -4.1036 -2.4492 0.9806
1.4361 -3.9916 -2.4492 0.9806
2.1210 -3.6737 -2.4492 0.9806
2.4396 -3.4704 -2.4492 0.9806
2.7388 -3.2395 -2.4492 0.9806
3.0163 -2.9829 -2.4492 0.9806
3.2698 -2.7025 -2.4492 0.9806
3.6971 -2.0800 -2.4492 0.9806
4.0073 -1.3915 -2.4492 0.9806
4.1906 -0.6589 -2.4492 0.9806
4.2410 0.0945 -2.4492 0.9806
4.0654 1.2116 -2.4492 0.9806
3.6008 2.2426 -2.4492 0.9806
3.3869 2.5542 -2.4492 0.9806
3.1461 2.8455 -2.4492 0.9806
2.8804 3.1142 -2.4492 0.9806
2.5918 3.3582 -2.4492 0.9806
2.2826 3.5756 -2.4492 0.9806
1.2568 4.0516 -2.4492 0.9806
0.8912 4.1474 -2.4492 0.9806
0.1418 4.2397 -2.4492 0.9806
-0.2362 4.2355 -2.4492 0.9806
-0.6122 4.1977 -2.4492 0.9806
-0.9834 4.1265 -2.4492 0.9806
-1.3468 4.0226 -2.4492 0.9806
-1.6279 3.7232 -2.3461 0.9814
-1.9528 3.5635 -2.3461 0.9814
-2.0260 3.0230 -2.1011 0.9833
-2.5537 3.1608 -2.3461 0.9814
-2.8249 2.9210 -2.3461 0.9814
-3.4962 2.0708 -2.3461 0.9814
-3.6667 1.7514 -2.3461 0.9814
-1.0934 0.2995 -0.6545 0.9948
-1.1276 0.1008 -0.6536 0.9948
