ply
format ascii 1.0
element vertex 1413
property float32 x
property float32 y
property float32 z
property float32 I
end_header
7.0664 -15.2277 2.9601 0.9341
12.0285 15.5858 3.0160 0.9234
7.0656 -15.2261 2.1858 0.9345
12.0285 15.5858 2.5637 0.9237
7.0653 -15.2253 1.8024 0.9347
11.4502 16.2882 1.6854 0.9232
7.0636 -15.2217 0.6617 0.9350
17.9263 0.3995 0.7070 0.9307
12.0353 15.5945 0.7767 0.9242
-18.7636 6.0505 0.3330 0.9242
7.0629 -15.2201 0.2834 0.9351
17.7860 -0.3963 -0.1002 0.9313
17.6476 -1.1814 -0.0996 0.9317
7.0614 -15.2169 -0.4724 0.9351
17.9263 0.3995 -0.5049 0.9308
-18.2181 6.7845 -0.5474 0.9252
-18.0975 5.8357 -0.9643 0.9267
7.0606 -15.2153 -0.8507 0.9350
17.6476 -1.1814 -0.8970 0.9316
-18.0202 6.7108 -0.9752 0.9259
17.7860 -0.3964 -1.3044 0.9311
11.4575 16.2986 -1.4608 0.9232
-9.2802 15.2774 -1.3107 0.9308
-10.1369 13.7579 -1.2530 0.9338
-11.3630 12.8483 -1.2576 0.9335
-12.4892 11.8122 -1.2604 0.9334
-14.3603 11.3402 -1.3417 0.9292
-17.8267 7.5591 -1.4198 0.9253
7.0599 -15.2137 -1.2298 0.9349
17.6476 -1.1814 -1.2969 0.9315
17.9263 0.3995 -1.3147 0.9306
12.0353 15.5945 -1.4443 0.9240
-9.1661 16.7259 -1.3985 0.9264
-9.6061 14.3333 -1.2651 0.9331
-10.9578 13.5626 -1.2785 0.9325
-11.9994 12.4073 -1.2656 0.9331
-13.3386 11.5343 -1.2930 0.9317
-16.0119 9.4839 -1.3645 0.9281
-17.7897 6.6250 -1.3919 0.9267
-8.6158 17.5327 -1.8755 0.9245
-8.9022 14.6550 -1.6462 0.9334
-9.7104 13.1790 -1.5716 0.9363
-10.8890 12.3124 -1.5780 0.9361
-11.8977 11.2528 -1.5722 0.9363
-13.5116 10.6700 -1.6529 0.9332
-16.7635 8.9453 -1.8242 0.9265
-17.8319 5.7500 -1.7988 0.9275
-5.8144 -15.0968 -1.5532 0.9371
10.4649 -14.8866 -1.7470 0.9295
10.5435 -12.4709 -1.5678 0.9365
17.6476 -1.1813 -1.6981 0.9314
12.0353 15.5945 -1.8912 0.9239
-8.7653 15.9946 -1.7510 0.9293
-11.0851 11.4620 -1.5309 0.9379
-12.8600 11.1205 -1.6322 0.9340
-14.3802 10.3502 -1.7010 0.9313
-15.3286 9.0791 -1.7104 0.9309
-5.6157 -12.8436 -1.6651 0.9451
-5.6236 -16.7968 -2.1041 0.9311
10.4619 -16.3884 -2.3096 0.9247
10.4720 -11.3222 -1.8320 0.9398
10.4757 -9.4747 -1.6778 0.9447
18.8067 -2.1038 -2.2479 0.9266
-8.5523 14.0790 -1.9568 0.9358
-13.0180 10.2802 -1.9704 0.9354
-14.1053 9.2272 -2.0022 0.9344
-17.7571 7.5296 -2.2911 0.9252
-17.5920 5.6727 -2.1956 0.9282
-5.6192 -14.5899 -1.8572 0.9390
7.0201 -15.1279 -1.9810 0.9350
10.4832 -8.6646 -1.6155 0.9467
10.5346 -3.6580 -1.3247 0.9561
10.5366 -2.6354 -1.2902 0.9572
17.6476 -1.1814 -2.1010 0.9312
17.9303 0.3996 -2.1304 0.9303
-8.3953 15.3194 -2.0751 0.9321
-8.6999 12.9811 -1.8563 0.9390
-13.7052 9.8644 -2.0058 0.9342
-14.7016 8.7078 -2.0297 0.9335
-17.5538 8.3847 -2.3108 0.9246
-17.3382 6.4568 -2.1977 0.9282
-3.8940 -16.3400 -2.3800 0.9344
-2.4242 -16.6217 -2.3800 0.9344
0.5856 -17.5154 -2.4831 0.9316
2.1422 -17.3937 -2.4831 0.9316
3.6819 -17.1340 -2.4831 0.9316
7.7419 -14.9058 -2.3799 0.9344
10.4720 -11.3222 -2.1852 0.9396
10.4757 -9.4747 -2.0013 0.9445
10.4788 -7.9024 -1.8596 0.9484
10.4840 -5.2978 -1.6644 0.9537
10.5073 -4.1818 -1.6023 0.9553
10.5299 -3.1383 -1.5568 0.9566
16.7551 2.6346 -2.4032 0.9338
16.0225 5.5636 -2.4032 0.9338
15.4637 6.9676 -2.4032 0.9338
13.0735 10.8055 -2.4032 0.9338
12.0598 11.9262 -2.4032 0.9338
8.3982 14.5461 -2.3799 0.9344
4.4415 16.9530 -2.4831 0.9316
2.9150 17.2810 -2.4831 0.9316
1.3653 17.4719 -2.4831 0.9316
-1.6814 16.7132 -2.3800 0.9344
-4.6180 16.1503 -2.3800 0.9344
-7.8732 16.0215 -2.5294 0.9304
-8.2248 13.5399 -2.2447 0.9380
-9.0912 12.3387 -2.1716 0.9400
-10.0870 11.4055 -2.1574 0.9403
-11.1255 10.5225 -2.1697 0.9400
-12.5909 9.9429 -2.2732 0.9372
-13.6654 8.9395 -2.3137 0.9362
-15.3549 8.1936 -2.4660 0.9321
-17.4515 7.4001 -2.6858 0.9263
-17.4505 5.6270 -2.5979 0.9286
-5.8594 -9.6460 -1.5991 0.9554
-5.6129 -11.4220 -1.8032 0.9499
1.3653 -17.4719 -2.4831 0.9316
2.9150 -17.2810 -2.4831 0.9316
5.9328 -16.4904 -2.4831 0.9316
10.4739 -10.3579 -2.0872 0.9422
10.4802 -7.1943 -1.8011 0.9499
10.4828 -5.8975 -1.7042 0.9526
10.4851 -4.7244 -1.6295 0.9546
10.5164 -3.6517 -1.5773 0.9560
13.3337 -2.0966 -1.9125 0.9469
16.9231 -1.1329 -2.4032 0.9338
16.9567 0.3779 -2.4032 0.9338
16.8558 1.8856 -2.4032 0.9338
16.2544 4.8443 -2.4032 0.9338
12.5791 11.3771 -2.4032 0.9338
11.5166 12.4516 -2.4032 0.9338
10.2621 13.2970 -2.3799 0.9344
9.0379 14.1576 -2.3799 0.9344
7.7419 14.9058 -2.3799 0.9344
6.4678 15.7386 -2.4109 0.9336
5.1923 16.7383 -2.4831 0.9316
0.5856 17.5154 -2.4831 0.9316
-0.9757 17.4980 -2.4831 0.9316
-2.4242 16.6217 -2.3800 0.9344
-5.5093 12.6002 -1.9485 0.9460
-8.0526 14.6940 -2.3741 0.9345
-8.4465 12.6030 -2.1497 0.9405
-11.9852 10.3640 -2.2450 0.9380
-13.0614 9.4011 -2.2802 0.9371
-14.1703 8.3931 -2.3336 0.9356
-16.7560 8.0037 -2.6311 0.9277
-17.2386 6.4197 -2.6064 0.9284
-5.8650 -5.0716 -1.2773 0.9691
-5.6493 -5.8413 -1.3387 0.9676
-5.6069 -8.3660 -1.6591 0.9600
-5.6157 -12.8436 -2.3092 0.9448
-4.5867 -13.6999 -2.3800 0.9431
1.8425 -14.9600 -2.4831 0.9407
4.4658 -14.3964 -2.4831 0.9407
5.7294 -13.9417 -2.4831 0.9407
6.6750 -12.8517 -2.3857 0.9430
8.8263 -11.4365 -2.3799 0.9431
9.8091 -10.6055 -2.3799 0.9431
10.4788 -7.9024 -2.1621 0.9482
10.4815 -6.5280 -2.0342 0.9512
10.4840 -5.2978 -1.9351 0.9535
10.4862 -4.1734 -1.8593 0.9553
10.4883 -3.1259 -1.8029 0.9566
14.4974 -1.6218 -2.4032 0.9426
14.4108 2.2660 -2.4032 0.9426
14.1519 3.5396 -2.4032 0.9426
13.7807 4.7852 -2.4032 0.9426
13.3001 5.9927 -2.4032 0.9426
12.7139 7.1527 -2.4032 0.9426
8.3080 11.8183 -2.3799 0.9431
5.1027 14.1831 -2.4831 0.9407
2.5071 14.8631 -2.4831 0.9407
1.1742 15.0273 -2.4831 0.9407
-0.1679 15.0722 -2.4831 0.9407
-1.5087 14.9974 -2.4831 0.9407
-3.9719 13.8906 -2.3800 0.9431
-5.1925 13.4820 -2.3800 0.9431
-7.9119 13.0247 -2.5105 0.9401
-13.1053 8.5731 -2.5799 0.9385
-14.7339 7.8622 -2.7512 0.9345
-17.0271 7.2201 -3.0468 0.9278
-17.3899 5.6075 -3.0101 0.9286
-5.6483 -5.3421 -1.2807 0.9690
-5.8521 -7.9426 -1.6253 0.9608
-5.1925 -13.4820 -2.3800 0.9431
-3.9719 -13.8906 -2.3800 0.9431
-1.5088 -14.9974 -2.4831 0.9407
-0.1679 -15.0721 -2.4831 0.9407
1.1742 -15.0273 -2.4831 0.9407
2.5071 -14.8631 -2.4831 0.9407
3.8200 -14.5810 -2.4831 0.9407
5.1027 -14.1831 -2.4831 0.9407
8.3080 -11.8183 -2.3799 0.9431
9.3270 -11.0320 -2.3799 0.9431
10.2718 -10.1580 -2.3799 0.9431
10.4893 -2.6236 -1.7812 0.9571
14.5842 0.3250 -2.4032 0.9426
14.4974 1.6218 -2.4032 0.9426
14.2955 2.9057 -2.4032 0.9426
13.9801 4.1665 -2.4032 0.9426
13.5538 5.3943 -2.4032 0.9426
12.3826 7.7120 -2.4032 0.9426
9.8091 10.6055 -2.3799 0.9431
6.6750 12.8517 -2.3857 0.9430
5.7294 13.9417 -2.4831 0.9407
4.4658 14.3963 -2.4831 0.9407
3.1667 14.7367 -2.4831 0.9407
0.5037 15.0647 -2.4831 0.9407
-3.3492 14.0538 -2.3800 0.9431
-4.5867 13.6999 -2.3800 0.9431
-5.5061 12.5928 -2.2642 0.9458
-10.0728 10.4152 -2.3869 0.9430
-11.5875 10.0201 -2.5236 0.9398
-12.4607 8.9687 -2.5292 0.9397
-16.9986 6.3303 -2.9882 0.9291
-19.0032 5.2055 -3.2459 0.9232
-5.8650 -5.0716 -1.4574 0.9689
-5.6493 -5.8413 -1.5274 0.9675
-5.6069 -8.3660 -1.8930 0.9598
-5.6106 -10.2380 -2.1944 0.9536
-5.0728 -11.6019 -2.3800 0.9498
-4.0201 -12.0073 -2.3800 0.9498
-1.8274 -12.5299 -2.3800 0.9498
-0.7355 -13.1904 -2.4831 0.9477
1.6149 -13.1118 -2.4831 0.9477
3.9141 -12.6178 -2.4831 0.9477
7.7358 -10.0236 -2.3799 0.9498
9.3905 -8.4932 -2.3799 0.9498
10.4815 -6.5280 -2.3210 0.9510
10.4840 -5.2978 -2.2079 0.9533
10.4862 -4.1734 -2.1214 0.9551
12.7063 -1.4214 -2.4032 0.9493
12.7824 -0.2848 -2.4032 0.9493
12.6304 1.9860 -2.4032 0.9493
12.4035 3.1023 -2.4032 0.9493
12.0781 4.1940 -2.4032 0.9493
10.4387 7.1658 -2.3799 0.9498
8.1747 9.6690 -2.3799 0.9498
7.2816 10.3582 -2.3799 0.9498
5.5609 11.9835 -2.4831 0.9477
4.4723 12.4309 -2.4831 0.9477
3.3481 12.7796 -2.4831 0.9477
2.1974 13.0269 -2.4831 0.9477
1.0292 13.1707 -2.4831 0.9477
-1.3223 13.1446 -2.4831 0.9477
-8.5811 11.6464 -2.7191 0.9428
-11.6594 9.2073 -2.7924 0.9413
-12.3977 8.1102 -2.7846 0.9415
-15.2470 6.4653 -3.1129 0.9348
-5.6214 -6.3562 -1.5949 0.9661
-3.4812 -12.1745 -2.3800 0.9498
-1.3224 -13.1446 -2.4831 0.9477
-0.1472 -13.2101 -2.4831 0.9477
2.1974 -13.0269 -2.4831 0.9477
3.3481 -12.7796 -2.4831 0.9477
4.4723 -12.4309 -2.4831 0.9477
7.2816 -10.3582 -2.3799 0.9498
9.0028 -8.9031 -2.3799 0.9498
9.7595 -8.0664 -2.3799 0.9498
10.4387 -7.1658 -2.3799 0.9498
10.4851 -4.7244 -2.1616 0.9543
10.4893 -2.6236 -2.0323 0.9569
12.7570 -0.8540 -2.4032 0.9493
12.7824 0.2848 -2.4032 0.9493
12.7063 1.4214 -2.4032 0.9493
11.8793 4.7279 -2.4032 0.9493
11.4114 5.7664 -2.4032 0.9493
9.3905 8.4932 -2.3799 0.9498
6.8130 10.6723 -2.3799 0.9498
6.0892 11.7238 -2.4831 0.9477
5.0216 12.2193 -2.4831 0.9477
3.9141 12.6178 -2.4831 0.9477
2.7755 12.9160 -2.4831 0.9477
1.6149 13.1118 -2.4831 0.9477
0.4414 13.2035 -2.4831 0.9477
-0.7355 13.1904 -2.4831 0.9477
-2.9354 12.3175 -2.3800 0.9498
-4.0201 12.0073 -2.3800 0.9498
-5.0728 11.6019 -2.3800 0.9498
-8.9621 11.0925 -2.6804 0.9436
-11.2187 9.7011 -2.7877 0.9414
-13.2425 7.8436 -2.8929 0.9393
-18.8516 5.1640 -3.6739 0.9235
-5.6017 -5.7922 -1.7033 0.9676
-5.6040 -6.9362 -1.8849 0.9642
-5.6069 -8.3660 -2.1288 0.9597
-5.4111 -9.8740 -2.3800 0.9550
-3.5747 -10.6770 -2.3800 0.9550
-2.6102 -10.9528 -2.3800 0.9550
-1.6250 -11.1416 -2.3800 0.9550
1.4360 -11.6591 -2.4831 0.9531
2.4680 -11.4850 -2.4831 0.9531
6.3210 -9.9017 -2.4831 0.9531
8.3501 -7.5522 -2.3799 0.9550
8.9891 -6.7790 -2.3799 0.9550
10.4883 -3.1258 -2.3134 0.9562
10.4902 -2.1322 -2.2628 0.9572
11.3662 -0.2533 -2.4032 0.9546
11.3436 0.7594 -2.4032 0.9546
11.2310 1.7660 -2.4032 0.9546
11.0293 2.7586 -2.4032 0.9546
10.7400 3.7293 -2.4032 0.9546
9.8125 5.5204 -2.3799 0.9550
9.2822 6.3719 -2.3799 0.9550
8.0054 7.9167 -2.3799 0.9550
6.4749 9.2106 -2.3799 0.9550
5.8736 10.1734 -2.4831 0.9531
2.9772 11.3637 -2.4831 0.9531
-0.1309 11.7465 -2.4831 0.9531
-1.1758 11.6882 -2.4831 0.9531
-3.0955 10.8257 -2.3800 0.9550
-4.9659 10.1053 -2.3800 0.9550
-7.3463 12.0937 -2.9910 0.9438
-9.0223 10.2017 -2.8788 0.9458
-10.9338 8.6343 -2.9449 0.9446
-11.7575 7.6914 -2.9699 0.9442
-13.6534 5.7896 -3.1348 0.9412
-15.4719 4.9891 -3.4363 0.9357
-5.6028 -6.3352 -1.7877 0.9660
-5.6054 -7.6076 -1.9975 0.9621
-4.9659 -10.1053 -2.3800 0.9550
-4.0468 -10.5072 -2.3800 0.9550
-2.1197 -11.0582 -2.3800 0.9550
0.9152 -11.7116 -2.4831 0.9531
1.9539 -11.5836 -2.4831 0.9531
2.9772 -11.3637 -2.4831 0.9531
3.9768 -11.0536 -2.4831 0.9531
4.9448 -10.6558 -2.4831 0.9531
6.4757 -9.2118 -2.3802 0.9550
8.0054 -7.9167 -2.3799 0.9550
8.6782 -7.1727 -2.3799 0.9550
9.2822 -6.3719 -2.3799 0.9550
9.8125 -5.5204 -2.3799 0.9550
11.2310 -1.7660 -2.4032 0.9546
11.3662 0.2533 -2.4032 0.9546
10.4607 4.1633 -2.3799 0.9550
8.9891 6.7790 -2.3799 0.9550
8.3501 7.5522 -2.3799 0.9550
6.3210 9.9016 -2.4831 0.9531
5.4146 10.4250 -2.4831 0.9531
4.4652 10.8655 -2.4831 0.9531
3.4804 11.2198 -2.4831 0.9531
2.4680 11.4851 -2.4831 0.9531
0.3925 11.7407 -2.4831 0.9531
-2.6102 10.9528 -2.3800 0.9550
-3.5747 10.6770 -2.3800 0.9550
-4.5108 10.3165 -2.3800 0.9550
-5.4111 9.8740 -2.3800 0.9550
-7.7089 11.5025 -2.9270 0.9450
-8.4200 10.4216 -2.8321 0.9467
-9.4850 9.8074 -2.8840 0.9457
-5.5007 4.7566 -1.5372 0.9707
-13.2321 6.3204 -3.0997 0.9418
-5.9500 -3.5242 -1.6253 0.9720
-5.6127 -4.0398 -1.6253 0.9720
-5.5999 -4.8424 -1.7399 0.9700
-5.6017 -5.7922 -1.8938 0.9674
-5.6040 -6.9362 -2.0957 0.9640
-5.6069 -8.3660 -2.3669 0.9595
-4.0570 -9.2787 -2.3800 0.9592
-2.3476 -9.8510 -2.3800 0.9592
-1.5248 -10.4549 -2.4831 0.9575
2.2197 -10.3297 -2.4831 0.9575
3.1303 -10.0911 -2.4831 0.9575
5.6851 -8.9055 -2.4831 0.9575
6.8757 -7.4339 -2.3799 0.9592
7.5101 -6.7925 -2.3799 0.9592
8.0848 -6.0971 -2.3799 0.9592
8.5954 -5.3533 -2.3799 0.9592
9.0378 -4.5670 -2.3799 0.9592
9.9232 -2.0170 -2.3799 0.9592
10.1035 0.6764 -2.3799 0.9592
10.0032 1.5729 -2.3799 0.9592
9.8235 2.4570 -2.3799 0.9592
9.5659 3.3216 -2.3799 0.9592
9.2323 4.1598 -2.3799 0.9592
8.8254 4.9651 -2.3799 0.9592
7.8052 6.4512 -2.3799 0.9592
7.2000 7.1203 -2.3799 0.9592
6.0762 8.6435 -2.4831 0.9575
3.5767 9.9416 -2.4831 0.9575
0.8231 10.5334 -2.4831 0.9575
-1.0576 10.5124 -2.4831 0.9575
-2.7841 9.7366 -2.3800 0.9592
-5.2575 8.6551 -2.3800 0.9592
-9.3642 8.8566 -3.0292 0.9484
-10.0707 7.9527 -3.0159 0.9486
-13.8787 4.4753 -3.4272 0.9418
-5.7871 -3.7857 -1.6253 0.9720
-5.6008 -5.2972 -1.8118 0.9688
-5.6028 -6.3352 -1.9877 0.9658
-5.6054 -7.6076 -2.2209 0.9619
-5.2576 -8.6551 -2.3800 0.9592
-4.4663 -9.0887 -2.3800 0.9592
-3.6397 -9.4502 -2.3800 0.9592
-2.7841 -9.7366 -2.3800 0.9592
-1.9065 -9.9458 -2.3800 0.9592
-1.0576 -10.5124 -2.4831 0.9575
-0.1177 -10.5648 -2.4831 0.9575
0.8231 -10.5334 -2.4831 0.9575
1.7574 -10.4183 -2.4831 0.9575
2.6777 -10.2205 -2.4831 0.9575
5.2827 -9.1500 -2.4831 0.9575
6.0762 -8.6435 -2.4831 0.9575
6.5377 -7.7329 -2.3799 0.9592
7.2000 -7.1203 -2.3799 0.9592
7.8052 -6.4512 -2.3799 0.9592
8.3484 -5.7309 -2.3799 0.9592
9.8235 -2.4570 -2.3799 0.9592
10.0032 -1.5729 -2.3799 0.9592
10.1035 -0.6763 -2.3799 0.9592
10.1236 0.2256 -2.3799 0.9592
10.0634 1.1257 -2.3799 0.9592
9.7043 2.8922 -2.3799 0.9592
6.8757 7.4339 -2.3799 0.9592
6.4552 8.3642 -2.4831 0.9575
3.1303 10.0911 -2.4831 0.9575
2.2197 10.3297 -2.4831 0.9575
1.2915 10.4862 -2.4831 0.9575
0.3531 10.5596 -2.4831 0.9575
-2.3476 9.8510 -2.3800 0.9592
-3.2151 9.6029 -2.3800 0.9592
-7.9355 9.8219 -2.9677 0.9494
-8.9448 9.2489 -3.0240 0.9485
-11.3085 6.6980 -3.0890 0.9474
-13.1661 4.9031 -3.3020 0.9439
-5.6641 -2.7055 -1.6253 0.9744
-5.5982 -4.0294 -1.7859 0.9719
-4.4176 -8.0612 -2.3800 0.9627
-3.6826 -8.4223 -2.3800 0.9627
-2.9184 -8.7167 -2.3800 0.9627
1.1723 -9.5185 -2.4831 0.9611
2.8414 -9.1598 -2.4831 0.9611
3.6454 -8.8706 -2.4831 0.9611
6.4630 -6.9877 -2.4645 0.9614
7.3387 -5.5344 -2.3799 0.9627
9.0074 -1.8308 -2.3799 0.9627
9.1894 -0.2048 -2.3799 0.9627
8.9169 2.2303 -2.3799 0.9627
8.6831 3.0151 -2.3799 0.9627
7.5780 5.2020 -2.3799 0.9627
7.0849 5.8558 -2.3799 0.9627
6.1918 7.3237 -2.4831 0.9611
5.5154 7.8458 -2.4831 0.9611
4.7952 8.3055 -2.4831 0.9611
4.0369 8.6994 -2.4831 0.9611
3.2466 9.0241 -2.4831 0.9611
1.5952 9.4568 -2.4831 0.9611
0.7471 9.5613 -2.4831 0.9611
-0.1068 9.5898 -2.4831 0.9611
-0.9600 9.5422 -2.4831 0.9611
-1.7305 9.0279 -2.3800 0.9627
-4.0541 8.2499 -2.3800 0.9627
-5.4527 7.4004 -2.3800 0.9627
-5.5079 5.2093 -1.9629 0.9692
-9.3350 7.3718 -3.0798 0.9520
-5.5012 2.3327 -1.5471 0.9756
-12.8066 4.1296 -3.4840 0.9459
-15.1472 3.4319 -4.0213 0.9378
-5.9742 -1.9264 -1.6253 0.9744
-5.5962 -2.9862 -1.6423 0.9741
-5.5975 -3.6617 -1.7319 0.9727
-5.5990 -4.4215 -1.8472 0.9710
-4.7723 -7.8563 -2.3800 0.9627
-4.0541 -8.2500 -2.3800 0.9627
-2.5272 -8.8380 -2.3800 0.9627
-0.9600 -9.5422 -2.4831 0.9611
0.7471 -9.5613 -2.4831 0.9611
1.5952 -9.4568 -2.4831 0.9611
6.1918 -7.3238 -2.4831 0.9611
6.5356 -6.4632 -2.3799 0.9627
8.9169 -2.2303 -2.3799 0.9627
9.0801 -1.4278 -2.3799 0.9627
9.1894 0.2048 -2.3799 0.9627
9.1347 1.0219 -2.3799 0.9627
9.0075 1.8308 -2.3799 0.9627
8.5401 3.3989 -2.3799 0.9627
8.2037 4.1455 -2.3799 0.9627
7.8022 4.8592 -2.3799 0.9627
7.3387 5.5344 -2.3799 0.9627
6.4630 6.9877 -2.4645 0.9614
5.8594 7.5923 -2.4831 0.9611
5.1604 8.0837 -2.4831 0.9611
2.8414 9.1598 -2.4831 0.9611
2.0149 9.3764 -2.4831 0.9611
-0.5339 9.5755 -2.4831 0.9611
-1.3841 9.4900 -2.4831 0.9611
-2.1309 8.9418 -2.3800 0.9627
-4.4176 8.0612 -2.3800 0.9627
-5.5071 6.8162 -2.2689 0.9644
-9.7448 7.0139 -3.1087 0.9516
-13.4430 3.6824 -3.6089 0.9440
-5.5944 -2.0834 -1.6900 0.9755
-5.5956 -2.6728 -1.7555 0.9746
-5.5968 -3.3150 -1.8415 0.9733
-5.5982 -4.0294 -1.9526 0.9717
-5.5999 -4.8424 -2.0958 0.9697
-5.2836 -6.5396 -2.3800 0.9657
-3.3681 -7.7031 -2.3800 0.9657
-2.6691 -7.9723 -2.3800 0.9657
-1.9490 -8.1782 -2.3800 0.9657
-1.2659 -8.6796 -2.4831 0.9642
1.0722 -8.7057 -2.4831 0.9642
1.8428 -8.5757 -2.4831 0.9642
2.5988 -8.3776 -2.4831 0.9642
4.0430 -7.7841 -2.4831 0.9642
5.3591 -6.9439 -2.4831 0.9642
7.1359 -4.4443 -2.3799 0.9657
8.2383 -1.6745 -2.3799 0.9657
8.3879 0.5615 -2.3799 0.9657
8.1555 2.0398 -2.3799 0.9657
7.9415 2.7576 -2.3799 0.9657
7.3268 4.1220 -2.3799 0.9657
6.9308 4.7578 -2.3799 0.9657
6.4799 5.3557 -2.3799 0.9657
6.2368 6.1677 -2.4831 0.9642
5.0444 7.1758 -2.4831 0.9642
4.3857 7.5963 -2.4831 0.9642
3.6922 7.9565 -2.4831 0.9642
2.9694 8.2535 -2.4831 0.9642
2.2230 8.4851 -2.4831 0.9642
1.4589 8.6493 -2.4831 0.9642
-0.0977 8.7709 -2.4831 0.9642
-2.3114 8.0833 -2.3800 0.9657
-3.0216 7.8455 -2.3800 0.9657
-3.7079 7.5454 -2.3800 0.9657
-7.9100 7.4812 -3.0822 0.9557
-8.7430 6.9043 -3.1538 0.9547
-10.1288 5.4049 -3.2501 0.9534
-11.8869 3.8330 -3.5357 0.9494
-5.5014 1.2464 -1.5969 0.9768
-5.5015 0.7398 -1.5715 0.9772
-5.5017 -0.7399 -1.5715 0.9772
-5.5950 -2.3725 -1.7204 0.9751
-5.5975 -3.6617 -1.8936 0.9726
-5.5990 -4.4215 -2.0197 0.9708
-5.6008 -5.2972 -2.1824 0.9685
-5.5697 -6.2977 -2.3800 0.9657
-4.3648 -7.1854 -2.3800 0.9657
-3.7079 -7.5454 -2.3800 0.9657
-3.0216 -7.8455 -2.3800 0.9657
-2.3114 -8.0833 -2.3800 0.9657
-1.5915 -8.3025 -2.3932 0.9655
-0.0977 -8.7709 -2.4831 0.9642
0.6833 -8.7448 -2.4831 0.9642
1.4589 -8.6492 -2.4831 0.9642
2.9694 -8.2535 -2.4831 0.9642
4.3857 -7.5963 -2.4831 0.9642
5.0444 -7.1758 -2.4831 0.9642
6.2368 -6.1677 -2.4831 0.9642
6.9308 -4.7578 -2.3799 0.9657
6.7821 -3.0559 -2.1059 0.9695
7.9415 -2.7576 -2.3799 0.9657
8.1555 -2.0398 -2.3799 0.9657
8.3047 -1.3059 -2.3799 0.9657
8.3879 -0.5615 -2.3799 0.9657
8.4046 0.1873 -2.3799 0.9657
8.3546 0.9346 -2.3799 0.9657
7.8108 3.1086 -2.3799 0.9657
6.7120 5.0618 -2.3799 0.9657
6.4630 5.8454 -2.4670 0.9644
5.9559 6.4394 -2.4831 0.9642
5.3591 6.9439 -2.4831 0.9642
4.0430 7.7841 -2.4831 0.9642
3.3341 8.1130 -2.4831 0.9642
2.5988 8.3776 -2.4831 0.9642
1.0722 8.7056 -2.4831 0.9642
0.2931 8.7665 -2.4831 0.9642
-1.2659 8.6796 -2.4831 0.9642
-2.6691 7.9723 -2.3800 0.9657
-4.6806 6.9839 -2.3800 0.9657
-8.3297 7.2030 -3.1175 0.9553
-9.0972 6.5478 -3.1731 0.9545
-9.7960 5.8022 -3.2231 0.9538
-12.4934 3.4223 -3.6671 0.9476
-16.6968 3.0081 -4.8029 0.9319
-5.5088 -0.0000 -1.6944 0.9772
-5.5944 -2.0834 -1.8362 0.9753
-5.5956 -2.6728 -1.9073 0.9744
-5.5968 -3.3150 -2.0008 0.9731
-5.5982 -4.0294 -2.1215 0.9715
-5.3794 -5.5622 -2.3800 0.9681
-4.3080 -6.4279 -2.3800 0.9681
-2.4567 -7.3377 -2.3800 0.9681
-0.4495 -8.0606 -2.4831 0.9668
0.2698 -8.0686 -2.4831 0.9668
0.9868 -8.0126 -2.4831 0.9668
1.6961 -7.8930 -2.4831 0.9668
2.3919 -7.7107 -2.4831 0.9668
3.0687 -7.4672 -2.4831 0.9668
3.7211 -7.1644 -2.4831 0.9668
4.3440 -6.8048 -2.4831 0.9668
4.9324 -6.3912 -2.4831 0.9668
5.9875 -5.4153 -2.4831 0.9668
6.4457 -4.8610 -2.4831 0.9668
6.5678 -4.0905 -2.3799 0.9681
7.1890 -2.8612 -2.3799 0.9681
7.4152 -2.2100 -2.3799 0.9681
7.7355 -0.1724 -2.3799 0.9681
7.7202 0.5168 -2.3799 0.9681
7.6435 1.2019 -2.3799 0.9681
7.5062 1.8774 -2.3799 0.9681
7.3093 2.5381 -2.3799 0.9681
7.0544 3.1786 -2.3799 0.9681
6.7435 3.7938 -2.3799 0.9681
6.2228 5.1433 -2.4831 0.9668
5.7403 5.6767 -2.4831 0.9668
4.6428 6.6045 -2.4831 0.9668
4.0366 6.9916 -2.4831 0.9668
2.0460 7.8096 -2.4831 0.9668
1.3428 7.9607 -2.4831 0.9668
0.6289 8.0486 -2.4831 0.9668
-0.0899 8.0727 -2.4831 0.9668
-0.8081 8.0326 -2.4831 0.9668
-1.5198 7.9288 -2.4831 0.9668
-2.1274 7.4398 -2.3800 0.9681
-3.4128 6.9448 -2.3800 0.9681
-4.5900 6.2296 -2.3800 0.9681
-8.8657 5.7996 -3.2585 0.9566
-5.5014 1.2464 -1.7350 0.9767
-18.8533 0.8407 -5.8046 0.9241
-5.6915 -1.8353 -1.8393 0.9753
-5.5950 -2.3725 -1.8692 0.9749
-5.5962 -2.9862 -1.9510 0.9738
-5.6008 -5.2972 -2.3711 0.9683
-4.5900 -6.2296 -2.3800 0.9681
-3.4128 -6.9447 -2.3800 0.9681
-1.5198 -7.9288 -2.4831 0.9668
-0.0899 -8.0727 -2.4831 0.9668
0.6289 -8.0486 -2.4831 0.9668
2.0460 -7.8096 -2.4831 0.9668
4.6428 -6.6045 -2.4831 0.9668
5.7403 -5.6767 -2.4831 0.9668
6.2228 -5.1432 -2.4831 0.9668
6.4674 -4.4396 -2.4128 0.9677
6.7435 -3.7938 -2.3799 0.9681
6.7821 -3.0559 -2.2880 0.9693
7.5062 -1.8774 -2.3799 0.9681
7.6435 -1.2019 -2.3799 0.9681
7.7202 -0.5168 -2.3799 0.9681
7.7355 0.1724 -2.3799 0.9681
7.5824 1.5412 -2.3799 0.9681
7.4152 2.2099 -2.3799 0.9681
6.9058 3.4897 -2.3799 0.9681
6.4457 4.8609 -2.4831 0.9668
4.9324 6.3912 -2.4831 0.9668
3.7211 7.1644 -2.4831 0.9668
3.0687 7.4672 -2.4831 0.9668
2.3919 7.7107 -2.4831 0.9668
0.9868 8.0126 -2.4831 0.9668
0.2698 8.0687 -2.4831 0.9668
-1.1651 7.9887 -2.4831 0.9668
-1.7938 7.5272 -2.3800 0.9681
-2.4567 7.3377 -2.3800 0.9681
-3.1000 7.0899 -2.3800 0.9681
-3.7187 6.7858 -2.3800 0.9681
-4.8630 6.0190 -2.3800 0.9681
-5.3794 5.5623 -2.3800 0.9681
-7.8248 6.7663 -3.1818 0.9576
-11.7440 3.2170 -3.7453 0.9503
-18.7647 1.6768 -5.7946 0.9242
-18.5223 -1.6552 -6.1815 0.9246
-5.5944 -2.0834 -1.9844 0.9752
-5.5956 -2.6728 -2.0613 0.9742
-5.5968 -3.3150 -2.1623 0.9730
-5.5982 -4.0294 -2.2928 0.9713
-5.4159 -4.6833 -2.3800 0.9703
-4.9776 -5.1468 -2.3800 0.9703
-3.4410 -6.2790 -2.3800 0.9703
-1.0781 -7.3920 -2.4831 0.9690
0.9131 -7.4142 -2.4831 0.9690
1.5694 -7.3035 -2.4831 0.9690
2.2132 -7.1348 -2.4831 0.9690
2.8395 -6.9095 -2.4831 0.9690
3.4432 -6.6293 -2.4831 0.9690
4.5640 -5.9138 -2.4831 0.9690
6.3409 -3.9492 -2.4831 0.9690
6.4683 -3.2686 -2.4090 0.9699
6.6744 -2.6564 -2.3879 0.9702
6.8613 -2.0449 -2.3799 0.9703
7.0161 -1.4261 -2.3799 0.9703
7.1152 -0.7960 -2.3799 0.9703
7.1578 -0.1595 -2.3799 0.9703
7.1436 0.4782 -2.3799 0.9703
7.0727 1.1121 -2.3799 0.9703
6.9456 1.7372 -2.3799 0.9703
6.5275 2.9412 -2.3799 0.9703
6.4630 3.6360 -2.4650 0.9692
6.1587 4.2277 -2.4831 0.9690
4.8230 5.7046 -2.4831 0.9690
4.2961 6.1112 -2.4831 0.9690
2.5289 7.0291 -2.4831 0.9690
1.8932 7.2263 -2.4831 0.9690
1.2425 7.3661 -2.4831 0.9690
0.5820 7.4475 -2.4831 0.9690
-0.7477 7.4327 -2.4831 0.9690
-1.4063 7.3366 -2.4831 0.9690
-1.9685 6.8841 -2.3800 0.9703
-3.1579 6.4261 -2.3800 0.9703
-3.7173 6.1195 -2.3800 0.9703
-4.2472 5.7643 -2.3800 0.9703
-4.7434 5.3634 -2.3800 0.9703
-7.7301 6.1043 -3.2741 0.9593
-9.7750 4.1450 -3.5293 0.9562
-5.5950 -2.3725 -2.0201 0.9747
-5.5962 -2.9862 -2.1085 0.9736
-5.5975 -3.6617 -2.2234 0.9722
-4.7434 -5.3634 -2.3800 0.9703
-4.2472 -5.7643 -2.3800 0.9703
-3.7173 -6.1195 -2.3800 0.9703
-3.1579 -6.4261 -2.3800 0.9703
-1.4063 -7.3366 -2.4831 0.9690
-0.7477 -7.4327 -2.4831 0.9690
-0.0832 -7.4697 -2.4831 0.9690
1.8932 -7.2263 -2.4831 0.9690
3.1445 -6.7761 -2.4831 0.9690
4.2961 -6.1112 -2.4831 0.9690
6.1587 -4.2277 -2.4831 0.9690
6.9456 -1.7372 -2.3799 0.9703
7.0727 -1.1121 -2.3799 0.9703
7.1152 0.7959 -2.3799 0.9703
7.0161 1.4261 -2.3799 0.9703
6.4683 3.2686 -2.4090 0.9699
5.9643 4.4979 -2.4831 0.9690
3.4432 6.6293 -2.4831 0.9690
2.2132 7.1348 -2.4831 0.9690
1.5694 7.3035 -2.4831 0.9690
0.2496 7.4660 -2.4831 0.9690
-0.4159 7.4586 -2.4831 0.9690
-3.4410 6.2790 -2.3800 0.9703
-4.4998 5.5694 -2.3800 0.9703
-5.4159 4.6834 -2.3800 0.9703
-5.5077 3.9642 -2.2557 0.9718
-8.7183 5.1638 -3.3682 0.9582
-10.1332 3.7736 -3.5943 0.9554
-18.4482 0.0000 -6.5972 0.9246
-18.4633 -1.6499 -6.6289 0.9243
-5.5956 -2.6728 -2.2176 0.9740
-5.5968 -3.3150 -2.3262 0.9727
-5.4018 -3.8879 -2.3800 0.9721
-5.0343 -4.3533 -2.3800 0.9721
-4.1826 -5.1769 -2.3800 0.9721
-3.1985 -5.8365 -2.3800 0.9721
-2.6663 -6.0980 -2.3800 0.9721
-2.1130 -6.3111 -2.3800 0.9721
-1.5829 -6.6423 -2.4419 0.9714
-1.0021 -6.8710 -2.4831 0.9709
0.2320 -6.9399 -2.4831 0.9709
0.8488 -6.8917 -2.4831 0.9709
1.4588 -6.7887 -2.4831 0.9709
2.6394 -6.4225 -2.4831 0.9709
3.2005 -6.1621 -2.4831 0.9709
4.2424 -5.4970 -2.4831 0.9709
4.7148 -5.0976 -2.4831 0.9709
5.8941 -3.6709 -2.4831 0.9709
6.4516 -2.5677 -2.4831 0.9709
6.4672 -1.9274 -2.4133 0.9717
6.6138 -0.7399 -2.3799 0.9721
6.6401 0.4445 -2.3799 0.9721
6.3308 2.8525 -2.4831 0.9709
5.7247 3.9298 -2.4831 0.9709
4.9372 4.8825 -2.4831 0.9709
4.4831 5.3026 -2.4831 0.9709
2.9229 6.2986 -2.4831 0.9709
2.3507 6.5338 -2.4831 0.9709
1.1549 6.8470 -2.4831 0.9709
-0.0774 6.9433 -2.4831 0.9709
-1.8297 6.3990 -2.3800 0.9721
-2.9353 5.9732 -2.3800 0.9721
-3.9479 5.3581 -2.3800 0.9721
-4.4091 4.9855 -2.3800 0.9721
-5.2232 4.1247 -2.3800 0.9721
-5.5014 1.2464 -2.0172 0.9763
-13.0085 1.7495 -4.6938 0.9458
-18.5218 -0.8260 -6.6302 0.9243
-5.5950 -2.3725 -2.1732 0.9745
-5.5696 -3.6435 -2.3800 0.9721
-3.9479 -5.3581 -2.3800 0.9721
-2.9353 -5.9732 -2.3800 0.9721
-2.3920 -6.2107 -2.3800 0.9721
-1.3072 -6.8196 -2.4831 0.9709
-0.0774 -6.9433 -2.4831 0.9709
1.7598 -6.7170 -2.4831 0.9709
2.3507 -6.5338 -2.4831 0.9709
3.4719 -6.0134 -2.4831 0.9709
3.9933 -5.6806 -2.4831 0.9709
5.3522 -4.4237 -2.4831 0.9709
5.7247 -3.9298 -2.4831 0.9709
6.3308 -2.8525 -2.4831 0.9709
6.4630 -2.2442 -2.4466 0.9714
6.6401 -0.4445 -2.3799 0.9721
6.5217 1.3256 -2.3799 0.9721
6.4516 2.5677 -2.4831 0.9709
6.1974 3.1317 -2.4831 0.9709
5.8941 3.6709 -2.4831 0.9709
5.1498 4.6577 -2.4831 0.9709
4.7148 5.0976 -2.4831 0.9709
2.0573 6.6320 -2.4831 0.9709
0.8488 6.8916 -2.4831 0.9709
0.2320 6.9398 -2.4831 0.9709
-1.5829 6.6423 -2.4419 0.9714
-2.6663 6.0980 -2.3800 0.9721
-3.1985 5.8365 -2.3800 0.9721
-3.7053 5.5287 -2.3800 0.9721
-5.0343 4.3533 -2.3800 0.9721
-5.4018 3.8879 -2.3800 0.9721
-10.4918 2.8740 -3.8902 0.9548
-18.5035 1.6535 -6.6433 0.9241
-5.5088 -0.0000 -2.1111 0.9767
-5.5956 -2.6728 -2.3764 0.9738
-5.0408 -3.6281 -2.3800 0.9737
-4.6978 -4.0624 -2.3800 0.9737
-4.3176 -4.4644 -2.3800 0.9737
-3.4576 -5.1592 -2.3800 0.9737
-2.9847 -5.4464 -2.3800 0.9737
-2.4881 -5.6905 -2.3800 0.9737
-1.5021 -6.3032 -2.4831 0.9726
-0.9351 -6.4118 -2.4831 0.9726
0.2165 -6.4761 -2.4831 0.9726
0.7921 -6.4311 -2.4831 0.9726
2.9866 -5.7503 -2.4831 0.9726
3.4866 -5.4617 -2.4831 0.9726
3.9589 -5.1297 -2.4831 0.9726
4.8057 -4.3465 -2.4831 0.9726
5.1735 -3.9015 -2.4831 0.9726
6.0204 -2.3961 -2.4831 0.9726
6.2098 -1.8507 -2.4831 0.9726
6.3498 -1.2907 -2.4831 0.9726
6.4630 -0.1440 -2.4773 0.9727
6.4010 1.0065 -2.4831 0.9726
6.1211 2.1255 -2.4831 0.9726
5.9077 2.6619 -2.4831 0.9726
5.6473 3.1771 -2.4831 0.9726
5.3421 3.6671 -2.4831 0.9726
4.9945 4.1281 -2.4831 0.9726
3.7264 5.3009 -2.4831 0.9726
3.2398 5.6116 -2.4831 0.9726
2.7275 5.8777 -2.4831 0.9726
2.1936 6.0971 -2.4831 0.9726
-4.1144 4.6523 -2.3800 0.9737
-4.5122 4.2676 -2.3800 0.9737
-5.1974 3.4000 -2.3800 0.9737
-5.5014 1.2464 -2.1617 0.9761
-11.7776 1.5839 -4.5540 0.9504
-5.5091 -1.7765 -2.2183 0.9755
-5.5950 -2.3725 -2.3289 0.9743
-5.1974 -3.3999 -2.3800 0.9737
-4.8741 -3.8490 -2.3800 0.9737
-3.6840 -5.0000 -2.3800 0.9737
-1.7075 -5.9713 -2.3800 0.9737
-0.0722 -6.4793 -2.4831 0.9726
0.5048 -6.4600 -2.4831 0.9726
1.6422 -6.2681 -2.4831 0.9726
4.1835 -4.9482 -2.4831 0.9726
4.9945 -4.1281 -2.4831 0.9726
5.9077 -2.6619 -2.4831 0.9726
6.2860 -1.5722 -2.4831 0.9726
6.4010 -1.0065 -2.4831 0.9726
6.4630 0.1440 -2.4773 0.9727
6.4395 0.7204 -2.4831 0.9726
6.3498 1.2907 -2.4831 0.9726
6.2098 1.8507 -2.4831 0.9726
5.5002 3.4255 -2.4831 0.9726
5.1735 3.9015 -2.4831 0.9726
4.8057 4.3465 -2.4831 0.9726
4.3997 4.7570 -2.4831 0.9726
3.9589 5.1297 -2.4831 0.9726
2.9866 5.7503 -2.4831 0.9726
1.3613 6.3350 -2.4831 0.9726
-0.3607 6.4696 -2.4831 0.9726
-1.5021 6.3032 -2.4831 0.9726
-2.9847 5.4464 -2.3800 0.9737
-3.9031 4.8309 -2.3800 0.9737
-5.0408 3.6281 -2.3800 0.9737
-8.4956 4.0580 -3.6080 0.9605
-5.5080 2.0512 -2.2524 0.9751
-9.9809 2.7341 -3.9658 0.9566
-5.5086 0.9924 -2.1450 0.9763
-1.6035 -0.4392 -0.6804 0.9928
-5.4496 -2.0295 -2.3800 0.9752
-5.0035 -2.9636 -2.3800 0.9752
-4.3987 -3.8037 -2.3800 0.9752
-3.6546 -4.5234 -2.3800 0.9752
-3.2375 -4.8307 -2.3800 0.9752
-2.7947 -5.0997 -2.3800 0.9752
-0.3378 -6.0577 -2.4831 0.9741
0.2027 -6.0637 -2.4831 0.9741
0.7416 -6.0216 -2.4831 0.9741
1.2747 -5.9317 -2.4831 0.9741
2.3062 -5.6118 -2.4831 0.9741
2.7965 -5.3842 -2.4831 0.9741
3.2646 -5.1139 -2.4831 0.9741
4.8441 -3.6531 -2.4831 0.9741
5.4150 -2.7363 -2.4831 0.9741
5.6371 -2.2435 -2.4831 0.9741
6.0656 -0.1352 -2.4831 0.9741
5.9935 0.9424 -2.4831 0.9741
5.8858 1.4721 -2.4831 0.9741
5.5316 2.4924 -2.4831 0.9741
5.2878 2.9748 -2.4831 0.9741
5.0020 3.4337 -2.4831 0.9741
3.4892 4.9634 -2.4831 0.9741
2.5539 5.5034 -2.4831 0.9741
1.5376 5.8691 -2.4831 0.9741
0.4727 6.0487 -2.4831 0.9741
-0.6073 6.0367 -2.4831 0.9741
-1.1422 5.9587 -2.4831 0.9741
-2.5648 5.2191 -2.3800 0.9752
-3.0191 4.9701 -2.3800 0.9752
-3.4495 4.6817 -2.3800 0.9752
-4.2249 3.9959 -2.3800 0.9752
-4.8665 3.1835 -2.3800 0.9752
-5.1305 2.7377 -2.3800 0.9752
-1.6146 0.3658 -0.6776 0.9929
-1.6301 0.2192 -0.6732 0.9929
-5.5083 0.2456 -2.2567 0.9765
-5.1305 -2.7377 -2.3800 0.9752
-4.5638 -3.6040 -2.3800 0.9752
-3.8525 -4.3561 -2.3800 0.9752
-3.4495 -4.6817 -2.3800 0.9752
-3.0191 -4.9701 -2.3800 0.9752
-2.5648 -5.2191 -2.3800 0.9752
-1.1422 -5.9587 -2.4831 0.9741
3.9171 -4.6332 -2.4831 0.9741
4.3139 -4.2662 -2.4831 0.9741
5.2878 -2.9749 -2.4831 0.9741
5.8858 -1.4721 -2.4831 0.9741
5.9935 -0.9424 -2.4831 0.9741
6.0536 -0.4052 -2.4831 0.9741
6.0656 0.1352 -2.4831 0.9741
5.9456 1.2085 -2.4831 0.9741
5.1500 3.2074 -2.4831 0.9741
4.8441 3.6531 -2.4831 0.9741
4.4997 4.0697 -2.4831 0.9741
3.2646 5.1139 -2.4831 0.9741
1.2747 5.9317 -2.4831 0.9741
0.7416 6.0216 -2.4831 0.9741
0.2027 6.0637 -2.4831 0.9741
-0.3378 6.0577 -2.4831 0.9741
-0.8756 6.0036 -2.4831 0.9741
-1.4065 5.9019 -2.4831 0.9741
-2.7947 5.0997 -2.3800 0.9752
-3.2375 4.8307 -2.3800 0.9752
-3.6546 4.5234 -2.3800 0.9752
-4.7198 3.3971 -2.3800 0.9752
-5.0035 2.9636 -2.3800 0.9752
-1.6035 0.4392 -0.6804 0.9928
-1.5015 -0.2705 -0.6649 0.9934
-1.5001 -0.4109 -0.6779 0.9932
-4.1308 -3.5721 -2.3800 0.9765
-3.4321 -4.2479 -2.3800 0.9765
-2.1878 -5.0037 -2.3800 0.9765
-0.8223 -5.6380 -2.4831 0.9754
0.6965 -5.6549 -2.4831 0.9754
2.1657 -5.2700 -2.4831 0.9754
2.6262 -5.0563 -2.4831 0.9754
3.4811 -4.5106 -2.4831 0.9754
3.8687 -4.1828 -2.4831 0.9754
4.8364 -3.0121 -2.4831 0.9754
5.2938 -2.1069 -2.4831 0.9754
5.5835 -1.1349 -2.4831 0.9754
5.6623 -0.6334 -2.4831 0.9754
5.6962 -0.1270 -2.4831 0.9754
5.6285 0.8850 -2.4831 0.9754
5.5274 1.3825 -2.4831 0.9754
4.6974 3.2246 -2.4831 0.9754
4.3917 3.6299 -2.4831 0.9754
4.0512 4.0063 -2.4831 0.9754
3.2767 4.6612 -2.4831 0.9754
2.3983 5.1683 -2.4831 0.9754
1.9288 5.3612 -2.4831 0.9754
1.4440 5.5116 -2.4831 0.9754
0.9477 5.6183 -2.4831 0.9754
0.4439 5.6804 -2.4831 0.9754
-0.0635 5.6973 -2.4831 0.9754
-1.0726 5.5958 -2.4831 0.9754
-3.6179 4.0908 -2.3800 0.9765
-4.2859 3.3845 -2.3800 0.9765
-4.5701 2.9896 -2.3800 0.9765
-4.8181 2.5710 -2.3800 0.9765
-5.0278 2.1320 -2.3800 0.9765
-1.4861 0.4792 -0.6805 0.9932
-1.5133 0.2035 -0.6654 0.9934
-1.5259 0.0680 -0.6657 0.9934
-1.5259 -0.0680 -0.6657 0.9934
-1.5133 -0.2035 -0.6654 0.9934
-1.5029 -0.3405 -0.6716 0.9933
-1.4861 -0.4792 -0.6805 0.9932
-5.0278 -2.1320 -2.3800 0.9765
-3.9676 -3.7525 -2.3800 0.9765
-2.8352 -4.6674 -2.3800 0.9765
-2.4086 -4.9013 -2.3800 0.9765
-1.9628 -5.0962 -2.3800 0.9765
-1.0726 -5.5958 -2.4831 0.9754
0.4439 -5.6804 -2.4831 0.9754
2.3983 -5.1683 -2.4831 0.9754
2.8488 -4.9343 -2.4831 0.9754
3.6786 -4.3510 -2.4831 0.9754
4.3917 -3.6298 -2.4831 0.9754
4.6974 -3.2246 -2.4831 0.9754
4.9657 -2.7937 -2.4831 0.9754
5.6849 -0.3805 -2.4831 0.9754
5.6962 0.1269 -2.4831 0.9754
5.5835 1.1349 -2.4831 0.9754
5.0853 2.5697 -2.4831 0.9754
4.5491 3.4306 -2.4831 0.9754
3.8687 4.1828 -2.4831 0.9754
3.4811 4.5106 -2.4831 0.9754
2.1657 5.2700 -2.4831 0.9754
0.6965 5.6549 -2.4831 0.9754
0.1904 5.6945 -2.4831 0.9754
-0.8223 5.6380 -2.4831 0.9754
-1.3208 5.5424 -2.4831 0.9754
-1.7338 5.1786 -2.3800 0.9765
-2.1878 5.0037 -2.3800 0.9765
-3.0403 4.5365 -2.3800 0.9765
-3.4320 4.2479 -2.3800 0.9765
-4.4324 3.1902 -2.3800 0.9765
-4.6987 2.7831 -2.3800 0.9765
-5.1177 1.9059 -2.3800 0.9765
-1.5001 0.4109 -0.6779 0.9932
-1.5015 0.2705 -0.6649 0.9934
-1.5215 0.1360 -0.6657 0.9934
-1.3993 -0.2521 -0.6581 0.9938
-4.8185 -1.7944 -2.3800 0.9776
-4.6396 -2.2162 -2.3800 0.9776
-4.4240 -2.6203 -2.3800 0.9776
-4.1732 -3.0037 -2.3800 0.9776
-3.8893 -3.3632 -2.3800 0.9776
-3.2314 -3.9995 -2.3800 0.9776
-2.8626 -4.2712 -2.3800 0.9776
-2.0599 -4.7111 -2.3800 0.9776
-1.6324 -4.8757 -2.3800 0.9776
-0.7742 -5.3083 -2.4831 0.9766
-0.2987 -5.3562 -2.4831 0.9766
0.6557 -5.3242 -2.4831 0.9766
1.1270 -5.2447 -2.4831 0.9766
1.5894 -5.1236 -2.4831 0.9766
2.0391 -4.9618 -2.4831 0.9766
2.4726 -4.7606 -2.4831 0.9766
2.8865 -4.5217 -2.4831 0.9766
3.2775 -4.2468 -2.4831 0.9766
3.9786 -3.5984 -2.4831 0.9766
4.2831 -3.2300 -2.4831 0.9766
4.5535 -2.8360 -2.4831 0.9766
5.1410 -1.5322 -2.4831 0.9766
5.2570 -1.0685 -2.4831 0.9766
5.3525 0.3583 -2.4831 0.9766
5.0676 1.7597 -2.4831 0.9766
4.8909 2.2037 -2.4831 0.9766
4.6754 2.6303 -2.4831 0.9766
4.1349 3.4176 -2.4831 0.9766
3.8143 3.7721 -2.4831 0.9766
3.4634 4.0966 -2.4831 0.9766
2.2581 4.8661 -2.4831 0.9766
1.8160 5.0477 -2.4831 0.9766
0.8923 5.2897 -2.4831 0.9766
-0.0598 5.3641 -2.4831 0.9766
-0.5370 5.3375 -2.4831 0.9766
-1.4748 5.1578 -2.4831 0.9766
-1.8480 4.7982 -2.3800 0.9776
-3.4063 3.8516 -2.3800 0.9776
-3.7356 3.5331 -2.3800 0.9776
-4.3028 2.8148 -2.3800 0.9776
-1.3967 -0.3165 -0.6629 0.9937
-4.7338 -2.0073 -2.3800 0.9776
-4.5363 -2.4206 -2.3800 0.9776
-4.3029 -2.8148 -2.3800 0.9776
-3.0500 -4.1395 -2.3800 0.9776
-1.8480 -4.7982 -2.3800 0.9776
-1.4748 -5.1578 -2.4831 0.9766
-0.0598 -5.3641 -2.4831 0.9766
0.4179 -5.3482 -2.4831 0.9766
1.3595 -5.1893 -2.4831 0.9766
1.8160 -5.0477 -2.4831 0.9766
3.0851 -4.3886 -2.4831 0.9766
4.6754 -2.6303 -2.4831 0.9766
5.2042 -1.3016 -2.4831 0.9766
5.3525 -0.3583 -2.4831 0.9766
5.2570 1.0685 -2.4831 0.9766
5.1410 1.5322 -2.4831 0.9766
4.9842 1.9837 -2.4831 0.9766
4.5535 2.8360 -2.4831 0.9766
4.2831 3.2300 -2.4831 0.9766
3.9786 3.5984 -2.4831 0.9766
2.8865 4.5217 -2.4831 0.9766
2.4726 4.7606 -2.4831 0.9766
2.0391 4.9618 -2.4831 0.9766
1.5894 5.1236 -2.4831 0.9766
0.1793 5.3615 -2.4831 0.9766
-1.2436 5.2183 -2.4831 0.9766
-2.0599 4.7111 -2.3800 0.9776
-2.4710 4.5091 -2.3800 0.9776
-2.0472 3.0547 -1.7022 0.9839
-3.2314 3.9995 -2.3800 0.9776
-3.5745 3.6960 -2.3800 0.9776
-4.4240 2.6203 -2.3800 0.9776
-4.6396 2.2162 -2.3800 0.9776
-1.3946 0.3820 -0.6693 0.9936
-1.4172 0.1266 -0.6586 0.9937
-1.3317 -0.1190 -0.6558 0.9941
-1.3159 -0.2371 -0.6559 0.9941
-4.3782 -2.0913 -2.3800 0.9786
-3.3731 -3.4878 -2.3800 0.9786
-2.0470 -3.0543 -1.8036 0.9838
-1.1735 -4.9243 -2.4831 0.9777
-0.7306 -5.0092 -2.4831 0.9777
-0.2818 -5.0544 -2.4831 0.9777
0.6188 -5.0242 -2.4831 0.9777
1.0635 -4.9492 -2.4831 0.9777
2.3333 -4.4924 -2.4831 0.9777
2.7239 -4.2669 -2.4831 0.9777
3.4373 -3.7163 -2.4831 0.9777
3.7544 -3.3957 -2.4831 0.9777
4.7034 -1.8719 -2.4831 0.9777
4.8513 -1.4459 -2.4831 0.9777
5.0308 -0.5628 -2.4831 0.9777
5.0509 0.3381 -2.4831 0.9777
4.7821 1.6605 -2.4831 0.9777
4.6153 2.0796 -2.4831 0.9777
4.4119 2.4821 -2.4831 0.9777
4.1735 2.8649 -2.4831 0.9777
3.9019 3.2250 -2.4831 0.9777
3.5994 3.5595 -2.4831 0.9777
3.2683 3.8658 -2.4831 0.9777
2.5311 4.3840 -2.4831 0.9777
2.1309 4.5919 -2.4831 0.9777
1.7137 4.7633 -2.4831 0.9777
0.8420 4.9917 -2.4831 0.9777
-1.3917 4.8671 -2.4831 0.9777
-2.5190 4.1469 -2.3800 0.9786
-2.1810 2.9601 -1.8036 0.9838
-3.5251 3.3340 -2.3800 0.9786
-3.8079 3.0071 -2.3800 0.9786
-4.0604 2.6562 -2.3800 0.9786
-1.3003 0.4193 -0.6702 0.9939
-1.3251 -0.1782 -0.6559 0.9941
-1.3089 -0.2966 -0.6583 0.9940
-1.3003 -0.4193 -0.6702 0.9939
-3.5251 -3.3340 -2.3800 0.9786
-3.2144 -3.6346 -2.3800 0.9786
-2.8781 -3.9062 -2.3800 0.9786
-2.5190 -4.1469 -2.3800 0.9786
-0.9530 -4.9717 -2.4831 0.9777
0.3944 -5.0468 -2.4831 0.9777
0.8420 -4.9917 -2.4831 0.9777
2.1309 -4.5919 -2.4831 0.9777
2.9113 -4.1413 -2.4831 0.9777
3.2683 -3.8658 -2.4831 0.9777
3.9019 -3.2250 -2.4831 0.9777
4.9109 -1.2283 -2.4831 0.9777
5.0008 -0.7863 -2.4831 0.9777
5.0509 -0.3381 -2.4831 0.9777
5.0609 0.1128 -2.4831 0.9777
4.8513 1.4459 -2.4831 0.9777
4.7034 1.8719 -2.4831 0.9777
4.2970 2.6762 -2.4831 0.9777
3.7544 3.3956 -2.4831 0.9777
3.4373 3.7163 -2.4831 0.9777
2.3333 4.4924 -2.4831 0.9777
1.4998 4.8349 -2.4831 0.9777
0.6188 5.0242 -2.4831 0.9777
-0.2818 5.0544 -2.4831 0.9777
-0.7306 5.0092 -2.4831 0.9777
-1.5829 4.7280 -2.4457 0.9780
-1.9438 4.4456 -2.3800 0.9786
-2.3318 4.2550 -2.3800 0.9786
-2.0403 3.0444 -1.7977 0.9838
-3.0493 3.7741 -2.3800 0.9786
-3.9381 2.8344 -2.3800 0.9786
-4.1747 2.4727 -2.3800 0.9786
-1.3061 0.3578 -0.6642 0.9940
-3.9473 -2.3380 -2.3800 0.9795
-3.7236 -2.6800 -2.3800 0.9795
-3.4702 -3.0008 -2.3800 0.9795
-2.8832 -3.5686 -2.3800 0.9795
-2.0404 -3.0445 -1.9013 0.9836
-2.2048 -4.0232 -2.3800 0.9795
-1.5196 -4.5388 -2.4831 0.9787
-0.2665 -4.7791 -2.4831 0.9787
0.1599 -4.7838 -2.4831 0.9787
1.0056 -4.6797 -2.4831 0.9787
2.2062 -4.2477 -2.4831 0.9787
2.9244 -3.7893 -2.4831 0.9787
3.2500 -3.5139 -2.4831 0.9787
3.5499 -3.2107 -2.4831 0.9787
3.8216 -2.8820 -2.4831 0.9787
4.2720 -2.1588 -2.4831 0.9787
4.6906 -0.9534 -2.4831 0.9787
4.7853 -0.1066 -2.4831 0.9787
4.6434 1.1614 -2.4831 0.9787
4.5216 1.5701 -2.4831 0.9787
4.3640 1.9663 -2.4831 0.9787
4.1716 2.3469 -2.4831 0.9787
3.9462 2.7089 -2.4831 0.9787
3.4034 3.3656 -2.4831 0.9787
2.3932 4.1452 -2.4831 0.9787
2.0148 4.3418 -2.4831 0.9787
0.7961 4.7198 -2.4831 0.9787
0.3729 4.7719 -2.4831 0.9787
-1.3159 4.6021 -2.4831 0.9787
-2.0234 4.1175 -2.3800 0.9795
-2.3818 3.9210 -2.3800 0.9795
-3.0393 3.4366 -2.3800 0.9795
-3.6005 2.8433 -2.3800 0.9795
-4.2237 1.7910 -2.3800 0.9795
-1.2613 0.0562 -0.6550 0.9943
-1.2514 -0.1683 -0.6551 0.9943
-1.2222 -0.3941 -0.6662 0.9942
-4.0476 -2.1598 -2.3800 0.9795
-3.8393 -2.5115 -2.3800 0.9795
-3.3331 -3.1524 -2.3800 0.9795
-3.0393 -3.4366 -2.3800 0.9795
-2.3818 -3.9210 -2.3800 0.9795
-1.3159 -4.6021 -2.4831 0.9787
0.3729 -4.7719 -2.4831 0.9787
0.7961 -4.7198 -2.4831 0.9787
2.0148 -4.3418 -2.4831 0.9787
3.0903 -3.6552 -2.4831 0.9787
3.4034 -3.3656 -2.4831 0.9787
3.6894 -3.0494 -2.4831 0.9787
3.9462 -2.7089 -2.4831 0.9787
4.1716 -2.3469 -2.4831 0.9787
4.3640 -1.9663 -2.4831 0.9787
4.5216 -1.5701 -2.4831 0.9787
4.7853 0.1066 -2.4831 0.9787
4.6906 0.9534 -2.4831 0.9787
4.4472 1.7699 -2.4831 0.9787
4.0629 2.5304 -2.4831 0.9787
3.8216 2.8820 -2.4831 0.9787
3.2501 3.5139 -2.4831 0.9787
2.9244 3.7892 -2.4831 0.9787
2.2062 4.2477 -2.4831 0.9787
1.8194 4.4272 -2.4831 0.9787
1.4181 4.5716 -2.4831 0.9787
1.0056 4.6796 -2.4831 0.9787
0.5851 4.7506 -2.4831 0.9787
-1.1096 4.6561 -2.4831 0.9787
-1.5196 4.5388 -2.4831 0.9787
-1.8380 4.2035 -2.3800 0.9795
-2.0361 3.0381 -1.8973 0.9837
-2.8832 3.5686 -2.3800 0.9795
-3.1894 3.2978 -2.3800 0.9795
-4.1398 1.9774 -2.3800 0.9795
-1.2162 0.4529 -0.6733 0.9942
-1.2576 0.1124 -0.6550 0.9943
-1.1464 -0.4269 -0.6700 0.9944
-3.9211 -1.8730 -2.3800 0.9804
-3.7389 -2.2145 -2.3800 0.9804
-3.0209 -3.1237 -2.3800 0.9804
-2.7309 -3.3801 -2.3800 0.9804
-2.0884 -3.8108 -2.3800 0.9804
-1.4394 -4.2992 -2.4831 0.9795
-1.0510 -4.4102 -2.4831 0.9795
-0.6543 -4.4862 -2.4831 0.9795
-0.2524 -4.5267 -2.4831 0.9795
0.1515 -4.5312 -2.4831 0.9795
0.9525 -4.4325 -2.4831 0.9795
1.7233 -4.1934 -2.4831 0.9795
2.0897 -4.0234 -2.4831 0.9795
2.4395 -3.8214 -2.4831 0.9795
2.7700 -3.5891 -2.4831 0.9795
3.0784 -3.3283 -2.4831 0.9795
3.3624 -3.0411 -2.4831 0.9795
4.0464 -2.0447 -2.4831 0.9795
4.2124 -1.6765 -2.4831 0.9795
4.4429 -0.9030 -2.4831 0.9795
4.5056 -0.5040 -2.4831 0.9795
4.5326 -0.1010 -2.4831 0.9795
4.5236 0.3028 -2.4831 0.9795
4.3982 1.1001 -2.4831 0.9795
4.1335 1.8625 -2.4831 0.9795
3.9513 2.2230 -2.4831 0.9795
3.7378 2.5658 -2.4831 0.9795
3.2236 3.1879 -2.4831 0.9795
2.9271 3.4622 -2.4831 0.9795
2.6073 3.7089 -2.4831 0.9795
1.9084 4.1125 -2.4831 0.9795
1.5348 4.2660 -2.4831 0.9795
0.7541 4.4705 -2.4831 0.9795
0.3532 4.5199 -2.4831 0.9795
-0.0505 4.5334 -2.4831 0.9795
-2.2560 3.7139 -2.3800 0.9804
-2.1746 2.9514 -2.0079 0.9834
-3.1571 2.9860 -2.3800 0.9804
-3.8338 2.0458 -2.3800 0.9804
-1.1515 0.3713 -0.6626 0.9945
-1.1649 0.2639 -0.6542 0.9946
-1.1840 0.1592 -0.6543 0.9946
-1.1933 0.0532 -0.6542 0.9946
-1.1933 -0.0532 -0.6542 0.9946
-1.1840 -0.1592 -0.6543 0.9946
-1.1515 -0.3713 -0.6626 0.9945
-1.1411 -0.4838 -0.6788 0.9944
-3.8338 -2.0458 -2.3800 0.9804
-3.4103 -2.6931 -2.3800 0.9804
-3.1571 -2.9860 -2.3800 0.9804
-2.5777 -3.4984 -2.3800 0.9804
-2.2560 -3.7140 -2.3800 0.9804
-1.9165 -3.9000 -2.3800 0.9804
-1.5860 -4.1179 -2.4169 0.9801
-0.8535 -4.4527 -2.4831 0.9795
0.7541 -4.4706 -2.4831 0.9795
1.1490 -4.3857 -2.4831 0.9795
1.9084 -4.1125 -2.4831 0.9795
2.6073 -3.7090 -2.4831 0.9795
3.2236 -3.1879 -2.4831 0.9795
3.4946 -2.8883 -2.4831 0.9795
3.7378 -2.5658 -2.4831 0.9795
3.9513 -2.2230 -2.4831 0.9795
4.2829 -1.4872 -2.4831 0.9795
4.4787 -0.7042 -2.4831 0.9795
4.5236 -0.3028 -2.4831 0.9795
4.5056 0.5040 -2.4831 0.9795
4.4429 0.9030 -2.4831 0.9795
3.8484 2.3968 -2.4831 0.9795
3.6198 2.7298 -2.4831 0.9795
3.3624 3.0411 -2.4831 0.9795
3.0784 3.3283 -2.4831 0.9795
2.7700 3.5891 -2.4831 0.9795
2.0897 4.0234 -2.4831 0.9795
1.7233 4.1934 -2.4831 0.9795
1.3432 4.3302 -2.4831 0.9795
0.9525 4.4325 -2.4831 0.9795
0.5542 4.4997 -2.4831 0.9795
0.1515 4.5312 -2.4831 0.9795
-1.0510 4.4102 -2.4831 0.9795
-1.4394 4.2992 -2.4831 0.9795
-1.7409 3.9815 -2.3800 0.9804
-2.0884 3.8108 -2.3800 0.9804
-2.0318 3.0316 -1.9989 0.9835
-3.0209 3.1236 -2.3800 0.9804
-3.2870 2.8423 -2.3800 0.9804
-3.9211 1.8730 -2.3800 0.9804
-1.1577 0.3171 -0.6575 0.9945
-1.1319 0.0000 -0.6535 0.9948
-1.1276 -0.1008 -0.6536 0.9948
-1.1141 -0.2007 -0.6536 0.9948
-1.0934 -0.2995 -0.6545 0.9948
-3.7198 -1.7768 -2.3800 0.9811
-3.5469 -2.1008 -2.3800 0.9811
-2.5907 -3.2066 -2.3800 0.9811
-2.0404 -3.0445 -2.1160 0.9832
-1.9811 -3.6151 -2.3800 0.9811
-1.6515 -3.7771 -2.3800 0.9811
-1.3655 -4.0784 -2.4831 0.9803
-0.2394 -4.2942 -2.4831 0.9803
0.5257 -4.2687 -2.4831 0.9803
1.2743 -4.1078 -2.4831 0.9803
2.3142 -3.6252 -2.4831 0.9803
2.6277 -3.4048 -2.4831 0.9803
2.9203 -3.1574 -2.4831 0.9803
3.4339 -2.5896 -2.4831 0.9803
3.6508 -2.2737 -2.4831 0.9803
3.8386 -1.9398 -2.4831 0.9803
4.1217 -1.2284 -2.4831 0.9803
4.2998 -0.0958 -2.4831 0.9803
4.2913 0.2873 -2.4831 0.9803
4.2487 0.6681 -2.4831 0.9803
4.0629 1.4108 -2.4831 0.9803
3.9212 1.7668 -2.4831 0.9803
3.7484 2.1088 -2.4831 0.9803
3.5458 2.4341 -2.4831 0.9803
3.3151 2.7400 -2.4831 0.9803
3.0581 3.0242 -2.4831 0.9803
2.7768 3.2844 -2.4831 0.9803
0.7154 4.2410 -2.4831 0.9803
-0.0479 4.3006 -2.4831 0.9803
-0.4305 4.2793 -2.4831 0.9803
-1.5458 4.0135 -2.4831 0.9803
-1.8181 3.6998 -2.3800 0.9811
-2.1713 2.9469 -2.1134 0.9832
-2.7310 3.0880 -2.3800 0.9811
-3.2352 2.5548 -2.3800 0.9811
-1.0870 0.3505 -0.6594 0.9947
-1.1039 0.2501 -0.6535 0.9948
-1.1220 0.1509 -0.6536 0.9948
-1.1039 -0.2501 -0.6535 0.9948
-1.0870 -0.3505 -0.6594 0.9947
-1.0769 -0.4566 -0.6753 0.9946
-3.4498 -2.2567 -2.3800 0.9811
-3.2352 -2.5548 -2.3800 0.9811
-2.7310 -3.0880 -2.3800 0.9811
-2.4453 -3.3188 -2.3800 0.9811
-1.8181 -3.6998 -2.3800 0.9811
-1.5458 -4.0135 -2.4831 0.9803
-1.1824 -4.1352 -2.4831 0.9803
0.3351 -4.2879 -2.4831 0.9803
0.7154 -4.2410 -2.4831 0.9803
2.1505 -3.7247 -2.4831 0.9803
2.4734 -3.5185 -2.4831 0.9803
3.3151 -2.7400 -2.4831 0.9803
3.7484 -2.1088 -2.4831 0.9803
4.0629 -1.4108 -2.4831 0.9803
4.1724 -1.0436 -2.4831 0.9803
4.2487 -0.6681 -2.4831 0.9803
4.2998 0.0958 -2.4831 0.9803
4.1217 1.2284 -2.4831 0.9803
3.9961 1.5904 -2.4831 0.9803
3.8386 1.9397 -2.4831 0.9803
3.6508 2.2737 -2.4831 0.9803
3.4339 2.5896 -2.4831 0.9803
3.1898 2.8850 -2.4831 0.9803
2.9203 3.1574 -2.4831 0.9803
1.6348 3.9781 -2.4831 0.9803
1.2743 4.1078 -2.4831 0.9803
0.9036 4.2049 -2.4831 0.9803
0.1437 4.2985 -2.4831 0.9803
-0.2394 4.2942 -2.4831 0.9803
-0.6207 4.2559 -2.4831 0.9803
-1.3655 4.0784 -2.4831 0.9803
-2.5907 3.2066 -2.3800 0.9811
-3.7198 1.7768 -2.3800 0.9811
