ply
format ascii 1.0
element vertex 1355
property float32 x
property float32 y
property float32 z
property float32 I
end_header
7.0664 -15.2277 2.9601 0.9341
12.0285 15.5858 3.4715 0.9231
12.0285 15.5858 3.0160 0.9234
7.0657 -15.2261 2.1858 0.9345
11.4502 16.2882 1.6854 0.9232
11.9964 15.5442 1.6622 0.9242
12.0353 15.5945 1.2215 0.9241
11.4575 16.2986 0.7856 0.9233
17.9263 0.3995 0.7070 0.9307
17.9263 0.3995 0.3029 0.9308
12.0353 15.5945 0.3327 0.9242
-18.6340 6.9393 0.3359 0.9235
17.7860 -0.3963 -0.1002 0.9313
18.1395 1.2143 -0.1024 0.9299
-18.5827 5.9921 -0.1099 0.9249
7.0622 -15.2186 -0.0945 0.9351
17.9263 0.3995 -0.1010 0.9308
12.0353 15.5945 -0.1109 0.9242
12.8979 15.2557 -0.5625 0.9232
11.4575 16.2986 -0.5610 0.9234
-18.3663 5.9224 -0.5434 0.9257
7.0614 -15.2170 -0.4724 0.9351
17.6476 -1.1814 -0.4980 0.9317
17.9263 0.3995 -0.5049 0.9308
11.4575 16.2986 -1.0104 0.9233
17.6476 -1.1814 -0.8970 0.9316
11.4575 16.2986 -1.4608 0.9232
-11.4509 12.9478 -1.2674 0.9330
-17.9765 5.7967 -1.3849 0.9270
7.0599 -15.2138 -1.2298 0.9349
17.6476 -1.1814 -1.2969 0.9315
17.9263 0.3995 -1.3147 0.9306
-9.1939 16.7768 -1.4027 0.9261
-17.6662 8.4383 -1.4355 0.9245
-17.8104 6.6326 -1.3935 0.9266
10.4619 -16.3884 -1.8666 0.9248
10.4727 -13.5698 -1.6456 0.9334
17.7860 -0.3963 -1.7080 0.9310
-8.9290 14.6992 -1.6512 0.9332
-10.9241 12.3520 -1.5831 0.9359
-11.9299 11.2832 -1.5765 0.9361
-18.0143 7.6387 -1.8785 0.9244
-5.8345 -15.1490 -1.5585 0.9368
10.4649 -14.8866 -1.7470 0.9295
10.5246 -8.6988 -1.3109 0.9466
-8.7919 16.0432 -1.7563 0.9291
-9.0615 13.5207 -1.5626 0.9367
-10.5800 13.0950 -1.6162 0.9346
-11.1144 11.4922 -1.5349 0.9378
-14.4306 10.3865 -1.7070 0.9310
-17.6027 8.4080 -1.8729 0.9246
-5.6582 -10.3248 -1.3985 0.9537
-5.6236 -16.7968 -2.1041 0.9311
10.4619 -16.3884 -2.3096 0.9247
10.4757 -9.4747 -1.6778 0.9447
10.5261 -7.9381 -1.5661 0.9483
17.7860 -0.3963 -2.1133 0.9308
-9.3955 12.7516 -1.8815 0.9382
-11.5258 10.9010 -1.8845 0.9381
-14.1391 9.2494 -2.0070 0.9342
-17.7788 7.5389 -2.2939 0.9252
-17.6125 5.6793 -2.1982 0.9282
10.4739 -10.3579 -1.7498 0.9424
10.5346 -3.6580 -1.3247 0.9561
10.5366 -2.6354 -1.2902 0.9572
13.2878 -2.0894 -1.5978 0.9473
17.6476 -1.1814 -2.1010 0.9312
17.9285 0.3995 -2.1302 0.9303
12.0353 15.5945 -2.3399 0.9237
-8.7209 13.0124 -1.8607 0.9389
-10.1991 12.6236 -1.9278 0.9367
-10.7561 11.1217 -1.8379 0.9396
-13.7533 9.8990 -2.0129 0.9340
-17.6124 8.4127 -2.3185 0.9244
-17.3436 6.4588 -2.1984 0.9282
-5.6106 -10.2380 -1.6542 0.9539
-5.6157 -12.8435 -1.9861 0.9449
-3.9411 -16.5375 -2.4088 0.9336
0.5924 -17.7183 -2.5119 0.9309
3.7245 -17.3325 -2.5119 0.9309
6.4746 -15.7549 -2.4135 0.9335
7.8355 -15.0860 -2.4086 0.9336
9.1471 -14.3287 -2.4086 0.9336
10.3861 -13.4577 -2.4086 0.9336
10.4757 -9.4747 -2.0013 0.9445
10.4815 -6.5280 -1.7496 0.9513
10.4840 -5.2978 -1.6644 0.9537
10.7706 -4.2866 -1.6425 0.9542
10.5356 -3.1400 -1.5577 0.9566
17.0576 -1.9082 -2.4320 0.9330
17.1597 -0.3824 -2.4320 0.9330
16.9556 2.6662 -2.4320 0.9330
15.6488 7.0510 -2.4320 0.9330
14.9591 8.4159 -2.4320 0.9330
13.2299 10.9348 -2.4320 0.9330
12.2042 12.0690 -2.4320 0.9330
8.4997 14.7220 -2.4086 0.9336
7.1557 15.4200 -2.4086 0.9336
6.0015 16.6814 -2.5119 0.9309
4.4929 17.1494 -2.5119 0.9309
2.9487 17.4812 -2.5119 0.9309
-0.1975 17.7271 -2.5119 0.9309
-3.2005 16.6966 -2.4088 0.9336
-4.6739 16.3455 -2.4088 0.9336
-7.8971 16.0702 -2.5371 0.9302
-10.1136 11.4356 -2.1631 0.9402
-17.4744 7.4098 -2.6893 0.9262
-17.4547 5.6284 -2.5985 0.9286
-5.6192 -14.5899 -2.2153 0.9388
-4.6739 -16.3455 -2.4088 0.9336
-3.2005 -16.6966 -2.4088 0.9336
1.3811 -17.6743 -2.5119 0.9309
2.9487 -17.4812 -2.5119 0.9309
4.4929 -17.1494 -2.5119 0.9309
6.0015 -16.6814 -2.5119 0.9309
8.4997 -14.7220 -2.4086 0.9336
10.4773 -8.6597 -1.9260 0.9466
10.5325 -3.6573 -1.5797 0.9560
17.0576 1.9082 -2.4320 0.9330
16.4490 4.9023 -2.4320 0.9330
15.3192 7.7411 -2.4320 0.9330
14.5694 9.0739 -2.4320 0.9330
10.3861 13.4577 -2.4086 0.9336
6.4746 15.7549 -2.4135 0.9335
5.2524 16.9322 -2.5119 0.9309
3.7245 17.3325 -2.5119 0.9309
0.5924 17.7183 -2.5119 0.9309
-2.4535 16.8226 -2.4088 0.9336
-3.9411 16.5375 -2.4088 0.9336
-7.6837 17.5731 -2.7175 0.9254
-8.0772 14.7390 -2.3814 0.9344
-8.4669 12.6334 -2.1548 0.9404
-12.0176 10.3920 -2.2511 0.9378
-13.1103 9.4362 -2.2887 0.9368
-14.2043 8.4132 -2.3391 0.9355
-16.8071 8.0281 -2.6391 0.9275
-17.2457 6.4223 -2.6075 0.9284
-5.8650 -5.0716 -1.2773 0.9691
-5.6069 -8.3660 -1.6591 0.9600
-5.6157 -12.8436 -2.3092 0.9448
-4.6422 -13.8655 -2.4088 0.9424
-2.1102 -14.4689 -2.4088 0.9424
-0.8489 -15.2240 -2.5119 0.9401
0.5095 -15.2392 -2.5119 0.9401
1.8638 -15.1334 -2.5119 0.9401
3.2034 -14.9074 -2.5119 0.9401
7.8673 -12.3239 -2.4086 0.9425
8.9329 -11.5747 -2.4086 0.9425
9.9277 -10.7337 -2.4086 0.9425
10.4757 -9.4747 -2.3269 0.9443
10.4788 -7.9024 -2.1621 0.9482
10.4840 -5.2978 -1.9351 0.9535
10.4883 -3.1259 -1.8029 0.9566
14.7588 -0.3289 -2.4320 0.9419
14.5832 2.2931 -2.4320 0.9419
14.3213 3.5820 -2.4320 0.9419
12.8661 7.2383 -2.4320 0.9419
12.1708 8.3547 -2.4320 0.9419
9.4397 11.1653 -2.4086 0.9425
2.5361 15.0353 -2.5119 0.9401
-2.7527 14.3605 -2.4088 0.9424
-5.2552 13.6449 -2.4088 0.9424
-5.9557 -8.0831 -1.6540 0.9601
-5.6129 -11.4220 -2.0966 0.9497
-2.7527 -14.3605 -2.4088 0.9424
-1.5262 -15.1711 -2.5119 0.9401
2.5361 -15.0353 -2.5119 0.9401
5.1618 -14.3474 -2.5119 0.9401
6.4183 -13.8311 -2.5119 0.9401
8.4085 -11.9612 -2.4086 0.9425
9.4397 -11.1653 -2.4086 0.9425
10.3960 -10.2808 -2.4086 0.9425
10.4773 -8.6597 -2.2393 0.9464
10.4802 -7.1943 -2.0941 0.9498
10.4828 -5.8975 -1.9815 0.9524
10.4872 -3.6416 -1.8289 0.9560
10.4893 -2.6236 -1.7812 0.9571
14.5833 -2.2931 -2.4320 0.9419
14.7295 -0.9860 -2.4320 0.9419
14.7588 0.3289 -2.4320 0.9419
14.6709 1.6412 -2.4320 0.9419
14.4666 2.9404 -2.4320 0.9419
14.1475 4.2164 -2.4320 0.9419
12.5309 7.8043 -2.4320 0.9419
11.7865 8.8886 -2.4320 0.9419
9.9277 10.7337 -2.4086 0.9425
8.9329 11.5748 -2.4086 0.9425
7.8673 12.3239 -2.4086 0.9425
5.7958 14.1032 -2.5119 0.9401
1.8639 15.1334 -2.5119 0.9401
0.5095 15.2392 -2.5119 0.9401
-2.1102 14.4689 -2.4088 0.9424
-3.3897 14.2236 -2.4088 0.9424
-7.3417 16.7909 -3.0190 0.9284
-7.7585 14.1574 -2.6595 0.9366
-9.5007 11.7592 -2.4905 0.9406
-10.0993 10.4427 -2.3932 0.9428
-11.6188 10.0471 -2.5305 0.9396
-16.0772 7.6795 -2.9352 0.9303
-17.0090 6.3342 -2.9901 0.9291
-5.6493 -5.8413 -1.5274 0.9675
-5.6106 -10.2380 -2.1944 0.9536
-5.1341 -11.7421 -2.4088 0.9492
-4.0687 -12.1525 -2.4088 0.9492
-2.9709 -12.4663 -2.4088 0.9492
-1.8495 -12.6813 -2.4088 0.9492
-0.7440 -13.3432 -2.5119 0.9471
0.4466 -13.3565 -2.5119 0.9471
1.6336 -13.2637 -2.5119 0.9471
3.9594 -12.7639 -2.5119 0.9471
6.1598 -11.8597 -2.5119 0.9471
6.8953 -10.8013 -2.4086 0.9492
8.7012 -9.4076 -2.4086 0.9492
9.5040 -8.5958 -2.4086 0.9492
10.2313 -7.7158 -2.4086 0.9492
10.4840 -5.2978 -2.2079 0.9533
12.7816 2.0098 -2.4320 0.9487
12.2227 4.2442 -2.4320 0.9487
11.7964 5.3152 -2.4320 0.9487
11.2765 6.3441 -2.4320 0.9487
9.8775 8.1639 -2.4086 0.9492
9.1116 9.0107 -2.4086 0.9492
6.4698 11.2060 -2.4321 0.9487
5.6253 12.1223 -2.5119 0.9471
3.3869 12.9276 -2.5119 0.9471
1.0411 13.3233 -2.5119 0.9471
-0.1489 13.3631 -2.5119 0.9471
-1.3377 13.2968 -2.5119 0.9471
-8.6018 11.6745 -2.7257 0.9427
-11.7030 9.2417 -2.8029 0.9411
-12.4537 8.1468 -2.7972 0.9412
-14.1998 7.5773 -3.0252 0.9366
-15.3793 6.5214 -3.1399 0.9343
-5.6483 -5.3421 -1.4613 0.9689
-5.6086 -9.2330 -2.0305 0.9570
-5.6129 -11.4220 -2.3921 0.9495
-4.6060 -11.9591 -2.4088 0.9492
-1.3377 -13.2968 -2.5119 0.9471
1.0411 -13.3233 -2.5119 0.9471
3.3869 -12.9276 -2.5119 0.9471
5.6253 -12.1223 -2.5119 0.9471
7.3696 -10.4834 -2.4086 0.9492
9.1116 -9.0107 -2.4086 0.9492
9.8775 -8.1639 -2.4086 0.9492
10.4851 -4.7244 -2.1616 0.9543
12.9354 0.2883 -2.4320 0.9487
12.6793 2.5772 -2.4320 0.9487
11.5480 5.8354 -2.4320 0.9487
10.9827 6.8401 -2.4320 0.9487
9.5040 8.5958 -2.4086 0.9492
8.7012 9.4076 -2.4086 0.9492
7.8293 10.1447 -2.4086 0.9492
2.8076 13.0656 -2.5119 0.9471
-0.7440 13.3432 -2.5119 0.9471
-5.1341 11.7421 -2.4088 0.9492
-7.9963 11.9313 -2.6997 0.9432
-11.9535 8.6036 -2.7682 0.9418
-13.3023 7.8790 -2.9060 0.9390
-14.7500 7.0455 -3.0725 0.9356
-18.9416 5.1887 -3.6914 0.9232
-5.6972 -4.9266 -1.5921 0.9697
-5.6017 -5.7922 -1.7033 0.9676
-5.6040 -6.9362 -1.8849 0.9642
-5.6069 -8.3660 -2.1288 0.9597
-4.5653 -10.4412 -2.4088 0.9545
-3.6179 -10.8061 -2.4088 0.9545
-2.6417 -11.0852 -2.4088 0.9545
-1.6446 -11.2763 -2.4088 0.9545
-0.6616 -11.8649 -2.5119 0.9526
0.3971 -11.8767 -2.5119 0.9526
1.4526 -11.7942 -2.5119 0.9526
2.4966 -11.6181 -2.5119 0.9526
6.3942 -10.0164 -2.5119 0.9526
7.7372 -8.3653 -2.4086 0.9545
9.0978 -6.8610 -2.4086 0.9545
9.6724 -6.0240 -2.4086 0.9545
10.1701 -5.1392 -2.4086 0.9545
10.4883 -3.1258 -2.3134 0.9562
11.4338 -1.2791 -2.4320 0.9541
11.5023 -0.2563 -2.4320 0.9541
11.4794 0.7684 -2.4320 0.9541
10.3890 4.6811 -2.4086 0.9545
8.7831 7.2594 -2.4086 0.9545
7.3568 8.7017 -2.4086 0.9545
5.9417 10.2913 -2.5119 0.9526
4.0228 11.1817 -2.5119 0.9526
3.0117 11.4954 -2.5119 0.9526
0.9258 11.8472 -2.5119 0.9526
-1.1895 11.8237 -2.5119 0.9526
-2.1453 11.1919 -2.4088 0.9545
-3.1329 10.9565 -2.4088 0.9545
-4.0957 10.6342 -2.4088 0.9545
-5.0259 10.2274 -2.4088 0.9545
-7.3692 12.1313 -3.0004 0.9436
-8.0727 10.9563 -2.8767 0.9459
-5.5077 6.2276 -1.7574 0.9666
-5.5006 5.2025 -1.6004 0.9695
-11.8106 7.7261 -2.9833 0.9439
-12.9001 6.8837 -3.0908 0.9420
-15.5826 5.0247 -3.4609 0.9353
-5.6028 -6.3352 -1.7877 0.9660
-5.6054 -7.6076 -1.9975 0.9621
-5.6086 -9.2330 -2.2835 0.9568
-4.0957 -10.6342 -2.4088 0.9545
-2.1453 -11.1919 -2.4088 0.9545
4.0228 -11.1817 -2.5119 0.9526
5.9417 -10.2913 -2.5119 0.9526
7.3568 -8.7017 -2.4086 0.9545
8.7831 -7.2594 -2.4086 0.9545
9.3944 -6.4489 -2.4086 0.9545
10.4872 -3.6416 -2.3466 0.9556
10.4893 -2.6236 -2.2855 0.9568
11.4794 -0.7685 -2.4320 0.9541
11.0259 3.2861 -2.4320 0.9541
10.6896 4.2544 -2.4320 0.9541
10.1701 5.1392 -2.4086 0.9545
9.6723 6.0240 -2.4086 0.9545
9.0978 6.8610 -2.4086 0.9545
7.7372 8.3654 -2.4086 0.9545
6.9619 9.0208 -2.4086 0.9545
5.4773 10.5457 -2.5119 0.9526
4.5170 10.9914 -2.5119 0.9526
3.5207 11.3498 -2.5119 0.9526
-0.6616 11.8649 -2.5119 0.9526
-1.6446 11.2763 -2.4088 0.9545
-3.6179 10.8061 -2.4088 0.9545
-4.5653 10.4412 -2.4088 0.9545
-5.4765 9.9934 -2.4088 0.9545
-7.7562 11.5731 -2.9449 0.9446
-13.3382 6.3711 -3.1246 0.9414
-17.6044 4.8223 -3.8583 0.9281
-5.6040 -6.9362 -2.0957 0.9640
-4.1061 -9.3908 -2.4088 0.9588
-3.2539 -9.7190 -2.4088 0.9588
-1.5425 -10.5760 -2.5119 0.9570
2.2454 -10.4493 -2.5119 0.9570
5.7510 -9.0087 -2.5119 0.9570
6.9588 -7.5238 -2.4086 0.9588
7.6009 -6.8746 -2.4086 0.9588
8.1826 -6.1708 -2.4086 0.9588
8.6993 -5.4180 -2.4086 0.9588
9.1470 -4.6222 -2.4086 0.9588
9.5221 -3.7897 -2.4086 0.9588
9.8216 -2.9272 -2.4086 0.9588
10.0432 -2.0414 -2.4086 0.9588
10.1850 -1.1394 -2.4086 0.9588
10.2460 -0.2283 -2.4086 0.9588
9.6815 3.3618 -2.4086 0.9588
9.3438 4.2102 -2.4086 0.9588
8.4493 5.8002 -2.4086 0.9588
7.8996 6.5291 -2.4086 0.9588
7.2871 7.2063 -2.4086 0.9588
6.1466 8.7436 -2.5119 0.9570
0.8326 10.6554 -2.5119 0.9570
-1.9295 10.0660 -2.4088 0.9588
-5.3211 8.7597 -2.4088 0.9588
-9.4324 8.9211 -3.0513 0.9481
-11.0295 7.2152 -3.0976 0.9473
-13.9760 4.5067 -3.4512 0.9414
-5.5990 -4.4215 -1.6767 0.9711
-5.6008 -5.2972 -1.8118 0.9688
-5.6054 -7.6076 -2.2209 0.9619
-5.3211 -8.7597 -2.4088 0.9588
-4.5203 -9.1986 -2.4088 0.9588
-3.6837 -9.5644 -2.4088 0.9588
-2.8178 -9.8543 -2.4088 0.9588
-1.9295 -10.0660 -2.4088 0.9588
-1.0698 -10.6342 -2.5119 0.9570
-0.1191 -10.6872 -2.5119 0.9570
0.8326 -10.6554 -2.5119 0.9570
2.7087 -10.3389 -2.5119 0.9570
5.3439 -9.2560 -2.5119 0.9570
6.6167 -7.8263 -2.4086 0.9588
7.2871 -7.2063 -2.4086 0.9588
8.9320 -5.0251 -2.4086 0.9588
10.1242 -1.5920 -2.4086 0.9588
10.2257 -0.6845 -2.4086 0.9588
10.2460 0.2283 -2.4086 0.9588
10.0432 2.0414 -2.4086 0.9588
9.8216 2.9271 -2.4086 0.9588
9.5221 3.7897 -2.4086 0.9588
8.6993 5.4180 -2.4086 0.9588
7.6009 6.8746 -2.4086 0.9588
6.4630 8.3743 -2.4861 0.9575
4.9263 9.4848 -2.5119 0.9570
2.2454 10.4493 -2.5119 0.9570
1.3065 10.6077 -2.5119 0.9570
0.3571 10.6819 -2.5119 0.9570
-0.5950 10.6713 -2.5119 0.9570
-7.2145 10.7648 -3.0456 0.9481
-11.3884 6.7454 -3.1108 0.9471
-12.1629 5.8097 -3.1679 0.9461
-15.4640 4.2360 -3.7683 0.9362
-5.9866 -2.2294 -1.6540 0.9739
-5.7644 -2.7534 -1.6540 0.9739
-5.5968 -3.3150 -1.6842 0.9735
-5.6017 -5.7922 -2.0863 0.9673
-5.6040 -6.9362 -2.3088 0.9638
-4.4710 -8.1586 -2.4088 0.9623
-3.7271 -8.5242 -2.4088 0.9623
-2.9536 -8.8221 -2.4088 0.9623
1.1859 -9.6288 -2.5119 0.9607
2.0382 -9.4850 -2.5119 0.9607
4.4717 -8.6095 -2.5119 0.9607
5.2202 -8.1773 -2.5119 0.9607
6.4630 -6.9877 -2.4645 0.9614
6.8994 -6.2401 -2.4086 0.9623
7.4274 -5.6013 -2.4086 0.9623
7.8965 -4.9180 -2.4086 0.9623
8.9152 -2.6570 -2.4086 0.9623
8.7880 3.0515 -2.4086 0.9623
7.1705 5.9266 -2.4086 0.9623
5.5793 7.9367 -2.5119 0.9607
4.8508 8.4018 -2.5119 0.9607
3.2842 9.1287 -2.5119 0.9607
1.6136 9.5664 -2.5119 0.9607
0.7558 9.6720 -2.5119 0.9607
-0.1081 9.7009 -2.5119 0.9607
-1.7514 9.1370 -2.4088 0.9623
-2.5577 8.9449 -2.4088 0.9623
-4.1031 8.3497 -2.4088 0.9623
-5.5186 7.4899 -2.4088 0.9623
-10.8918 5.8121 -3.1965 0.9503
-5.8813 -2.4939 -1.6540 0.9739
-5.6360 -3.0075 -1.6540 0.9739
-5.6028 -6.3352 -2.1898 0.9657
-1.7514 -9.1370 -2.4088 0.9623
-0.9711 -9.6528 -2.5119 0.9607
0.7558 -9.6720 -2.5119 0.9607
2.4587 -9.3848 -2.5119 0.9607
3.2842 -9.1287 -2.5119 0.9607
4.8508 -8.4018 -2.5119 0.9607
5.5793 -7.9367 -2.5119 0.9607
6.2636 -7.4086 -2.5119 0.9607
6.6146 -6.5413 -2.4086 0.9623
7.1705 -5.9266 -2.4086 0.9623
7.6696 -5.2649 -2.4086 0.9623
8.1077 -4.5613 -2.4086 0.9623
6.7779 -3.0540 -1.9248 0.9697
9.0247 -2.2572 -2.4086 0.9623
9.1898 -1.4450 -2.4086 0.9623
9.2820 -0.6213 -2.4086 0.9623
9.1163 1.8530 -2.4086 0.9623
8.9152 2.6570 -2.4086 0.9623
8.6433 3.4400 -2.4086 0.9623
8.3029 4.1956 -2.4086 0.9623
7.4274 5.6013 -2.4086 0.9623
6.8994 6.2401 -2.4086 0.9623
5.9273 7.6803 -2.5119 0.9607
5.2202 8.1773 -2.5119 0.9607
3.6876 8.9733 -2.5119 0.9607
2.8743 9.2659 -2.5119 0.9607
2.0382 9.4850 -2.5119 0.9607
-0.5401 9.6865 -2.5119 0.9607
-1.4001 9.5999 -2.5119 0.9607
-4.4710 8.1586 -2.4088 0.9623
-5.1794 7.7283 -2.4088 0.9623
-8.2552 8.5358 -3.0746 0.9521
-9.0154 7.7959 -3.0859 0.9519
-9.8156 7.0648 -3.1313 0.9513
-5.5011 2.6276 -1.5785 0.9751
-5.5189 -0.0000 -1.5624 0.9773
-5.5018 -0.9912 -1.5826 0.9770
-5.5944 -2.0834 -1.6900 0.9755
-5.5956 -2.6728 -1.7555 0.9746
-5.5968 -3.3150 -1.8415 0.9733
-4.7371 -7.0683 -2.4088 0.9652
-4.0892 -7.4619 -2.4088 0.9652
-3.4088 -7.7962 -2.4088 0.9652
0.2965 -8.8681 -2.5119 0.9638
2.6289 -8.4747 -2.5119 0.9638
3.3727 -8.2071 -2.5119 0.9638
5.4211 -7.0244 -2.5119 0.9638
7.2221 -4.4980 -2.4086 0.9652
7.9052 -3.1462 -2.4086 0.9652
8.1539 -2.4301 -2.4086 0.9652
8.5062 -0.1896 -2.4086 0.9652
8.4893 0.5683 -2.4086 0.9652
8.4050 1.3216 -2.4086 0.9652
8.2540 2.0645 -2.4086 0.9652
7.7572 3.4952 -2.4086 0.9652
7.0146 4.8153 -2.4086 0.9652
6.5582 5.4205 -2.4086 0.9652
5.1029 7.2589 -2.5119 0.9638
3.7350 8.0487 -2.5119 0.9638
3.0038 8.3491 -2.5119 0.9638
2.2487 8.5833 -2.5119 0.9638
1.4758 8.7495 -2.5119 0.9638
-0.8881 8.8285 -2.5119 0.9638
-1.6019 8.3568 -2.4088 0.9652
-4.4176 7.2723 -2.4088 0.9652
-5.0473 6.8503 -2.4088 0.9652
-7.9645 7.5327 -3.1034 0.9554
-9.5176 6.2262 -3.2197 0.9538
-10.1885 5.4368 -3.2693 0.9531
-5.5015 0.7398 -1.5715 0.9772
-5.5137 0.2458 -1.5624 0.9773
-5.5131 -0.2459 -1.5623 0.9773
-5.6915 -1.8353 -1.6929 0.9754
-5.5990 -4.4215 -2.0197 0.9708
-5.6028 -6.3352 -2.3942 0.9655
-0.8882 -8.8285 -2.5119 0.9638
0.6912 -8.8461 -2.5119 0.9638
1.4758 -8.7494 -2.5119 0.9638
3.0038 -8.3491 -2.5119 0.9638
3.7350 -8.0487 -2.5119 0.9638
5.1029 -7.2589 -2.5119 0.9638
6.3090 -6.2391 -2.5119 0.9638
6.5582 -5.4205 -2.4086 0.9652
7.0146 -4.8153 -2.4086 0.9652
7.4153 -4.1718 -2.4086 0.9652
6.7821 -3.0559 -2.1059 0.9695
8.5062 0.1896 -2.4086 0.9652
8.4556 0.9459 -2.4086 0.9652
7.2222 4.4980 -2.4086 0.9652
6.7931 5.1229 -2.4086 0.9652
6.4630 5.8454 -2.4670 0.9644
6.0249 6.5140 -2.5119 0.9638
5.4212 7.0244 -2.5119 0.9638
4.7744 7.4790 -2.5119 0.9638
2.6289 8.4746 -2.5119 0.9638
1.8642 8.6750 -2.5119 0.9638
1.0846 8.8065 -2.5119 0.9638
0.2965 8.8681 -2.5119 0.9638
-0.4940 8.8593 -2.5119 0.9638
-1.2805 8.7802 -2.5119 0.9638
-2.7014 8.0687 -2.4088 0.9652
-4.0892 7.4619 -2.4088 0.9652
-10.6015 5.0639 -3.3260 0.9523
-18.9336 -1.6920 -5.8468 0.9235
-5.5956 -2.6728 -1.9073 0.9744
-5.5982 -4.0294 -2.1215 0.9715
-5.5999 -4.8424 -2.2771 0.9695
-5.4444 -5.6295 -2.4088 0.9678
-4.9217 -6.0917 -2.4088 0.9678
-4.3600 -6.5056 -2.4088 0.9678
-3.7637 -6.8679 -2.4088 0.9678
-3.1375 -7.1756 -2.4088 0.9678
-2.4864 -7.4263 -2.4088 0.9678
-1.8155 -7.6182 -2.4088 0.9678
-0.4547 -8.1540 -2.5119 0.9664
0.9983 -8.1054 -2.5119 0.9664
1.7157 -7.9844 -2.5119 0.9664
3.7642 -7.2474 -2.5119 0.9664
4.3944 -6.8836 -2.5119 0.9664
4.9896 -6.4652 -2.5119 0.9664
5.5452 -5.9954 -2.5119 0.9664
6.4630 -4.8740 -2.4898 0.9667
7.2759 -2.8957 -2.4086 0.9678
7.5048 -2.2367 -2.4086 0.9678
7.7824 -0.8706 -2.4086 0.9678
7.8290 -0.1745 -2.4086 0.9678
7.3977 2.5688 -2.4086 0.9678
6.8250 3.8397 -2.4086 0.9678
6.2949 5.2028 -2.5119 0.9664
5.8068 5.7425 -2.5119 0.9664
5.2726 6.2365 -2.5119 0.9664
3.4376 7.4079 -2.5119 0.9664
2.7647 7.6845 -2.5119 0.9664
-0.8174 8.1257 -2.5119 0.9664
-2.1531 7.5297 -2.4088 0.9678
-3.4540 7.0287 -2.4088 0.9678
-4.0659 6.6934 -2.4088 0.9678
-4.6455 6.3049 -2.4088 0.9678
-5.1882 5.8664 -2.4088 0.9678
-9.6334 5.1405 -3.3585 0.9553
-11.1955 3.6101 -3.6181 0.9520
-5.5014 1.2464 -1.7350 0.9767
-5.5950 -2.3725 -1.8692 0.9749
-5.1882 -5.8664 -2.4088 0.9678
-4.0659 -6.6934 -2.4088 0.9678
-1.5374 -8.0207 -2.5119 0.9664
-0.8175 -8.1257 -2.5119 0.9664
-0.0910 -8.1662 -2.5119 0.9664
2.0697 -7.9001 -2.5119 0.9664
4.0833 -7.0726 -2.5119 0.9664
6.2949 -5.2028 -2.5119 0.9664
7.3977 -2.5687 -2.4086 0.9678
7.8135 -0.5230 -2.4086 0.9678
7.8290 0.1745 -2.4086 0.9678
7.6741 1.5598 -2.4086 0.9678
7.5048 2.2367 -2.4086 0.9678
7.2759 2.8957 -2.4086 0.9678
6.9893 3.5319 -2.4086 0.9678
6.6472 4.1399 -2.4086 0.9678
6.0568 5.4781 -2.5119 0.9664
5.5452 5.9954 -2.5119 0.9664
-0.4547 8.1540 -2.5119 0.9664
-1.1786 8.0812 -2.5119 0.9664
-2.4864 7.4263 -2.4088 0.9678
-3.1375 7.1756 -2.4088 0.9678
-4.3600 6.5056 -2.4088 0.9678
-4.9217 6.0917 -2.4088 0.9678
-8.6029 6.1920 -3.2602 0.9566
-9.2506 5.4792 -3.3069 0.9560
-10.0144 4.7835 -3.4136 0.9546
-11.8120 3.2356 -3.7670 0.9500
-5.5944 -2.0834 -1.9844 0.9752
-5.5968 -3.3150 -2.1623 0.9730
-5.5982 -4.0294 -2.2928 0.9713
-5.0378 -5.2090 -2.4088 0.9699
-4.0344 -6.0197 -2.4088 0.9699
-3.4826 -6.3549 -2.4088 0.9699
-2.9031 -6.6396 -2.4088 0.9699
-1.6799 -7.0492 -2.4088 0.9699
0.2525 -7.5525 -2.5119 0.9686
0.9237 -7.5000 -2.5119 0.9686
2.8724 -6.9895 -2.5119 0.9686
3.4831 -6.7061 -2.5119 0.9686
4.6169 -5.9823 -2.5119 0.9686
5.1311 -5.5476 -2.5119 0.9686
5.6045 -5.0689 -2.5119 0.9686
6.4144 -3.9949 -2.5119 0.9686
6.4750 -3.2720 -2.4115 0.9699
6.7325 -2.6795 -2.4086 0.9699
6.9443 -2.0696 -2.4086 0.9699
7.1009 -1.4433 -2.4086 0.9699
7.2443 -0.1614 -2.4086 0.9699
7.1581 1.1256 -2.4086 0.9699
7.0296 1.7582 -2.4086 0.9699
6.8452 2.3769 -2.4086 0.9699
6.6064 2.9767 -2.4086 0.9699
5.3731 5.3136 -2.5119 0.9686
4.8788 5.7707 -2.5119 0.9686
4.3458 6.1821 -2.5119 0.9686
3.7784 6.5443 -2.5119 0.9686
3.1809 6.8546 -2.5119 0.9686
1.9151 7.3100 -2.5119 0.9686
1.2569 7.4514 -2.5119 0.9686
0.5887 7.5338 -2.5119 0.9686
-0.7564 7.5188 -2.5119 0.9686
-1.9923 6.9673 -2.4088 0.9699
-5.2648 4.9794 -2.4088 0.9699
-7.7833 6.1464 -3.2966 0.9591
-8.4109 5.5021 -3.3409 0.9585
-10.5906 3.4150 -3.6989 0.9542
-5.5014 1.2464 -1.8750 0.9765
-15.9264 2.1419 -5.3417 0.9345
-5.5088 0.2456 -1.8330 0.9770
-18.8078 -2.5295 -6.3081 0.9231
-5.6915 -1.8353 -1.9878 0.9751
-5.5962 -2.9862 -2.1085 0.9736
-5.5975 -3.6617 -2.2234 0.9722
-5.2648 -4.9794 -2.4088 0.9699
-4.8007 -5.4283 -2.4088 0.9699
-4.2985 -5.8340 -2.4088 0.9699
-3.7622 -6.1934 -2.4088 0.9699
-3.1960 -6.5037 -2.4088 0.9699
-1.9923 -6.9673 -2.4088 0.9699
-0.7564 -7.5187 -2.5119 0.9686
-0.0842 -7.5562 -2.5119 0.9686
0.5887 -7.5338 -2.5119 0.9686
1.2569 -7.4515 -2.5119 0.9686
2.5582 -7.1105 -2.5119 0.9686
3.1809 -6.8546 -2.5119 0.9686
4.3458 -6.1821 -2.5119 0.9686
4.8788 -5.7707 -2.5119 0.9686
5.3731 -5.3136 -2.5119 0.9686
6.2301 -4.2767 -2.5119 0.9686
6.4630 -3.6360 -2.4650 0.9692
6.6064 -2.9767 -2.4086 0.9699
7.0296 -1.7582 -2.4086 0.9699
7.2299 -0.4840 -2.4086 0.9699
7.2443 0.1614 -2.4086 0.9699
7.2012 0.8056 -2.4086 0.9699
7.1009 1.4433 -2.4086 0.9699
6.7325 2.6795 -2.4086 0.9699
6.4750 3.2720 -2.4115 0.9699
5.6045 5.0689 -2.5119 0.9686
5.1311 5.5476 -2.5119 0.9686
4.6169 5.9823 -2.5119 0.9686
2.8724 6.9895 -2.5119 0.9686
-0.4207 7.5450 -2.5119 0.9686
-2.3006 6.8717 -2.4088 0.9699
-2.9031 6.6396 -2.4088 0.9699
-3.4826 6.3549 -2.4088 0.9699
-4.0344 6.0197 -2.4088 0.9699
-5.0378 5.2090 -2.4088 0.9699
-9.4820 4.5292 -3.4930 0.9567
-5.5095 2.0517 -1.9543 0.9755
-12.8012 2.3062 -4.3237 0.9466
-18.4545 0.0000 -6.5995 0.9246
-18.4629 -1.6499 -6.6288 0.9243
-5.5944 -2.0834 -2.1348 0.9750
-5.5968 -3.3150 -2.3262 0.9727
-5.4670 -3.9349 -2.4088 0.9718
-4.2332 -5.2395 -2.4088 0.9718
-3.7501 -5.5955 -2.4088 0.9718
-2.1385 -6.3874 -2.4088 0.9718
-0.3911 -7.0133 -2.5119 0.9706
0.2347 -7.0202 -2.5119 0.9706
2.0811 -6.7088 -2.5119 0.9706
2.6699 -6.4970 -2.5119 0.9706
3.7796 -5.9206 -2.5119 0.9706
4.2915 -5.5607 -2.5119 0.9706
5.6082 -4.2293 -2.5119 0.9706
6.4740 -1.9295 -2.4158 0.9717
6.6005 -1.3416 -2.4086 0.9718
6.6937 -0.7488 -2.4086 0.9718
6.7338 -0.1501 -2.4086 0.9718
6.7204 0.4499 -2.4086 0.9718
6.6746 1.0495 -2.4162 0.9717
6.5342 1.6343 -2.4086 0.9718
6.4041 2.8855 -2.5119 0.9706
5.7910 3.9753 -2.5119 0.9706
4.9944 4.9391 -2.5119 0.9706
2.9567 6.3716 -2.5119 0.9706
1.1683 6.9263 -2.5119 0.9706
-0.0782 7.0237 -2.5119 0.9706
-0.7031 6.9889 -2.5119 0.9706
-2.4209 6.2858 -2.4088 0.9718
-2.9708 6.0454 -2.4088 0.9718
-3.9956 5.4229 -2.4088 0.9718
-4.8938 4.6285 -2.4088 0.9718
-5.2863 4.1746 -2.4088 0.9718
-8.6637 4.6231 -3.5117 0.9591
-5.5014 1.2464 -2.0172 0.9763
-13.1248 1.7651 -4.7358 0.9453
-18.4339 0.8220 -6.5986 0.9246
-5.5090 -1.2482 -2.0200 0.9763
-5.6915 -1.8353 -2.1385 0.9749
-5.5962 -2.9862 -2.2683 0.9734
-4.8938 -4.6285 -2.4088 0.9718
-4.4624 -5.0457 -2.4088 0.9718
-3.9956 -5.4229 -2.4088 0.9718
-3.4971 -5.7570 -2.4088 0.9718
-2.9708 -6.0454 -2.4088 0.9718
-2.4209 -6.2858 -2.4088 0.9718
-1.8519 -6.4763 -2.4088 0.9718
-1.3224 -6.8986 -2.5119 0.9706
-0.0783 -7.0237 -2.5119 0.9706
2.3779 -6.6095 -2.5119 0.9706
2.9567 -6.3716 -2.5119 0.9706
4.0396 -5.7464 -2.5119 0.9706
4.5350 -5.3640 -2.5119 0.9706
5.4142 -4.4750 -2.5119 0.9706
5.7910 -3.9753 -2.5119 0.9706
6.6937 0.7488 -2.4086 0.9718
6.6005 1.3416 -2.4086 0.9718
6.4740 1.9295 -2.4158 0.9717
6.4630 2.5722 -2.4875 0.9709
5.9624 3.7134 -2.5119 0.9706
5.6082 4.2293 -2.5119 0.9706
5.2095 4.7117 -2.5119 0.9706
4.7695 5.1567 -2.5119 0.9706
4.2916 5.5607 -2.5119 0.9706
2.6700 6.4970 -2.5119 0.9706
2.0811 6.7088 -2.5119 0.9706
1.4757 6.8674 -2.5119 0.9706
0.2347 7.0202 -2.5119 0.9706
-0.3911 7.0133 -2.5119 0.9706
-2.1385 6.3874 -2.4088 0.9718
-3.2371 5.9070 -2.4088 0.9718
-5.0951 4.4059 -2.4088 0.9718
-5.4670 3.9349 -2.4088 0.9718
-8.9940 4.2961 -3.5644 0.9585
-10.5473 2.8892 -3.9107 0.9546
-5.5140 0.4927 -1.9797 0.9768
-5.5956 -2.6728 -2.3764 0.9738
-5.4083 -3.2033 -2.4088 0.9734
-5.1017 -3.6720 -2.4088 0.9734
-4.7546 -4.1115 -2.4088 0.9734
-4.3698 -4.5183 -2.4088 0.9734
-3.4994 -5.2215 -2.4088 0.9734
-3.0208 -5.5123 -2.4088 0.9734
-2.5182 -5.7593 -2.4088 0.9734
-1.9956 -5.9605 -2.4088 0.9734
-0.9460 -6.4861 -2.5119 0.9723
1.3771 -6.4084 -2.5119 0.9723
1.9420 -6.2604 -2.5119 0.9723
4.0047 -5.1891 -2.5119 0.9723
4.4507 -4.8121 -2.5119 0.9723
5.8502 -2.9562 -2.5119 0.9723
6.0901 -2.4238 -2.5119 0.9723
6.2817 -1.8721 -2.5119 0.9723
6.4234 -1.3056 -2.5119 0.9723
6.4630 -0.7230 -2.4922 0.9725
6.4630 1.0163 -2.5072 0.9724
6.1921 2.1501 -2.5119 0.9723
5.9761 2.6927 -2.5119 0.9723
5.4040 3.7096 -2.5119 0.9723
5.0524 4.1759 -2.5119 0.9723
4.6606 4.6090 -2.5119 0.9723
4.2319 5.0055 -2.5119 0.9723
3.2774 5.6766 -2.5119 0.9723
2.2190 6.1677 -2.5119 0.9723
1.6612 6.3407 -2.5119 0.9723
1.0902 6.4634 -2.5119 0.9723
0.5106 6.5348 -2.5119 0.9723
-0.0730 6.5543 -2.5119 0.9723
-0.6561 6.5218 -2.5119 0.9723
-2.2591 5.8657 -2.4088 0.9734
-2.7722 5.6414 -2.4088 0.9734
-3.2634 5.3722 -2.4088 0.9734
-5.5080 2.3355 -2.2927 0.9747
-5.5014 1.2464 -2.1617 0.9761
-11.8830 1.5981 -4.5948 0.9499
-18.4033 0.8206 -7.0595 0.9241
-5.6915 -1.8353 -2.2917 0.9747
-5.5950 -2.3725 -2.3289 0.9743
-4.5667 -4.3192 -2.4088 0.9734
-4.1642 -4.7085 -2.4088 0.9734
-3.7286 -5.0604 -2.4088 0.9734
-2.7723 -5.6414 -2.4088 0.9734
-1.7281 -6.0435 -2.4088 0.9734
0.5106 -6.5348 -2.5119 0.9723
1.0902 -6.4634 -2.5119 0.9723
3.2774 -5.6766 -2.5119 0.9723
3.7696 -5.3623 -2.5119 0.9723
5.7127 -3.2139 -2.5119 0.9723
6.1921 -2.1501 -2.5119 0.9723
5.2334 3.9467 -2.5119 0.9723
4.4507 4.8121 -2.5119 0.9723
4.0047 5.1891 -2.5119 0.9723
3.5270 5.5249 -2.5119 0.9723
3.0212 5.8169 -2.5119 0.9723
1.9420 6.2604 -2.5119 0.9723
0.8012 6.5056 -2.5119 0.9723
0.2190 6.5511 -2.5119 0.9723
-3.0208 5.5123 -2.4088 0.9734
-4.3698 4.5183 -2.4088 0.9734
-4.7546 4.1115 -2.4088 0.9734
-11.1047 2.0006 -4.3240 0.9528
-14.2488 1.2733 -5.4822 0.9406
-17.9715 0.0000 -7.3553 0.9253
-1.6035 -0.4392 -0.6804 0.9928
-4.4519 -3.8497 -2.4088 0.9749
-3.6988 -4.5780 -2.4088 0.9749
-3.2766 -4.8891 -2.4088 0.9749
-2.8285 -5.1613 -2.4088 0.9749
-1.4228 -5.9703 -2.5119 0.9738
2.3329 -5.6768 -2.5119 0.9738
2.8289 -5.4466 -2.5119 0.9738
3.3024 -5.1732 -2.5119 0.9738
3.7498 -4.8587 -2.5119 0.9738
4.1673 -4.5057 -2.5119 0.9738
4.9002 -3.6954 -2.5119 0.9738
5.2097 -3.2446 -2.5119 0.9738
5.4778 -2.7680 -2.5119 0.9738
5.8818 -1.7530 -2.5119 0.9738
6.0994 -0.6823 -2.5119 0.9738
6.1359 -0.1367 -2.5119 0.9738
6.1237 0.4099 -2.5119 0.9738
6.0629 0.9533 -2.5119 0.9738
5.9540 1.4892 -2.5119 0.9738
5.7978 2.0132 -2.5119 0.9738
5.5956 2.5213 -2.5119 0.9738
4.3639 4.3156 -2.5119 0.9738
3.9625 4.6869 -2.5119 0.9738
3.5296 5.0209 -2.5119 0.9738
2.5835 5.5672 -2.5119 0.9738
2.0777 5.7750 -2.5119 0.9738
1.5554 5.9371 -2.5119 0.9738
0.4781 6.1188 -2.5119 0.9738
-0.0684 6.1370 -2.5119 0.9738
-1.1554 6.0277 -2.5119 0.9738
-1.6181 5.6588 -2.4088 0.9749
-2.1153 5.4923 -2.4088 0.9749
-2.5958 5.2822 -2.4088 0.9749
-3.0556 5.0302 -2.4088 0.9749
-3.4912 4.7383 -2.4088 0.9749
-3.8991 4.4087 -2.4088 0.9749
-4.2760 4.0442 -2.4088 0.9749
-4.6190 3.6476 -2.4088 0.9749
-5.4185 2.2977 -2.4088 0.9749
-18.2597 0.8142 -7.4807 0.9240
-1.5889 -0.5124 -0.6833 0.9928
-5.4185 -2.2976 -2.4088 0.9749
-4.9253 -3.2220 -2.4088 0.9749
-4.6190 -3.6476 -2.4088 0.9749
-3.8991 -4.4087 -2.4088 0.9749
-3.4912 -4.7383 -2.4088 0.9749
-3.0556 -5.0302 -2.4088 0.9749
-2.1153 -5.4923 -2.4088 0.9749
-0.0684 -6.1371 -2.5119 0.9738
1.0208 -6.0519 -2.5119 0.9738
3.0687 -5.3152 -2.5119 0.9738
3.5296 -5.0209 -2.5119 0.9738
4.7307 -3.9100 -2.5119 0.9738
5.3490 -3.0093 -2.5119 0.9738
5.5956 -2.5213 -2.5119 0.9738
5.7978 -2.0132 -2.5119 0.9738
5.9540 -1.4892 -2.5119 0.9738
6.1237 -0.4099 -2.5119 0.9738
6.1359 0.1367 -2.5119 0.9738
6.0994 0.6823 -2.5119 0.9738
5.8818 1.7529 -2.5119 0.9738
5.2097 3.2446 -2.5119 0.9738
4.1673 4.5057 -2.5119 0.9738
3.7498 4.8587 -2.5119 0.9738
3.3024 5.1732 -2.5119 0.9738
2.8289 5.4466 -2.5119 0.9738
2.3329 5.6768 -2.5119 0.9738
0.7502 6.0914 -2.5119 0.9738
0.2051 6.1340 -2.5119 0.9738
-0.3417 6.1279 -2.5119 0.9738
-1.8685 5.5811 -2.4088 0.9749
-2.8285 5.1613 -2.4088 0.9749
-3.2766 4.8891 -2.4088 0.9749
-4.4519 3.8497 -2.4088 0.9749
-5.0639 2.9994 -2.4088 0.9749
-1.6035 0.4392 -0.6804 0.9928
-1.6200 0.2919 -0.6737 0.9929
-1.6390 0.1465 -0.6735 0.9929
-1.5015 -0.2705 -0.6649 0.9934
-1.5001 -0.4109 -0.6779 0.9932
-4.9874 -2.3823 -2.4088 0.9762
-4.7555 -2.8167 -2.4088 0.9762
-4.4860 -3.2288 -2.4088 0.9762
-3.0771 -4.5913 -2.4088 0.9762
-2.6562 -4.8470 -2.4088 0.9762
-1.7707 -5.2887 -2.4307 0.9760
-1.3361 -5.6066 -2.5119 0.9752
-0.3209 -5.7547 -2.5119 0.9752
0.1926 -5.7604 -2.5119 0.9752
0.7045 -5.7204 -2.5119 0.9752
1.7076 -5.5049 -2.5119 0.9752
2.1908 -5.3310 -2.5119 0.9752
2.6566 -5.1149 -2.5119 0.9752
3.1013 -4.8581 -2.5119 0.9752
3.9135 -4.2313 -2.5119 0.9752
4.6018 -3.4704 -2.5119 0.9752
4.8924 -3.0470 -2.5119 0.9752
5.5236 -1.6462 -2.5119 0.9752
5.6482 -1.1480 -2.5119 0.9752
5.7279 -0.6408 -2.5119 0.9752
5.7622 -0.1284 -2.5119 0.9752
5.7508 0.3850 -2.5119 0.9752
5.6937 0.8953 -2.5119 0.9752
5.5914 1.3985 -2.5119 0.9752
4.7518 3.2619 -2.5119 0.9752
4.4426 3.6719 -2.5119 0.9752
4.0982 4.0528 -2.5119 0.9752
0.9587 5.6834 -2.5119 0.9752
-0.0642 5.7633 -2.5119 0.9752
-1.0850 5.6606 -2.5119 0.9752
-2.4377 4.9605 -2.4088 0.9762
-3.2786 4.4497 -2.4088 0.9762
-3.6616 4.1402 -2.4088 0.9762
-4.6253 3.0257 -2.4088 0.9762
-1.5029 0.3405 -0.6716 0.9933
-1.5133 0.2035 -0.6654 0.9934
-1.5259 0.0680 -0.6657 0.9934
-1.5259 -0.0680 -0.6657 0.9934
-4.6253 -3.0258 -2.4088 0.9762
-4.3377 -3.4254 -2.4088 0.9762
-4.0156 -3.7979 -2.4088 0.9762
-3.2786 -4.4497 -2.4088 0.9762
-2.8695 -4.7239 -2.4088 0.9762
-2.4377 -4.9605 -2.4088 0.9762
-1.9865 -5.1578 -2.4088 0.9762
-1.5829 -5.5359 -2.5093 0.9752
0.9587 -5.6834 -2.5119 0.9752
2.8818 -4.9915 -2.5119 0.9752
3.3147 -4.7152 -2.5119 0.9752
4.4426 -3.6719 -2.5119 0.9752
5.5914 -1.3985 -2.5119 0.9752
5.7622 0.1284 -2.5119 0.9752
5.7279 0.6408 -2.5119 0.9752
5.6482 1.1480 -2.5119 0.9752
5.5236 1.6462 -2.5119 0.9752
5.3551 2.1313 -2.5119 0.9752
4.8924 3.0470 -2.5119 0.9752
4.6018 3.4704 -2.5119 0.9752
4.2746 3.8662 -2.5119 0.9752
3.9136 4.2313 -2.5119 0.9752
3.5214 4.5628 -2.5119 0.9752
3.1013 4.8581 -2.5119 0.9752
2.1908 5.3310 -2.5119 0.9752
1.7076 5.5049 -2.5119 0.9752
0.1926 5.7604 -2.5119 0.9752
-0.3209 5.7547 -2.5119 0.9752
-0.8318 5.7033 -2.5119 0.9752
-1.3361 5.6066 -2.5119 0.9752
-2.6562 4.8470 -2.4088 0.9762
-3.0771 4.5913 -2.4088 0.9762
-3.8424 3.9730 -2.4088 0.9762
-4.4860 3.2288 -2.4088 0.9762
-4.7555 2.8167 -2.4088 0.9762
-5.1796 1.9289 -2.4088 0.9762
-1.5001 0.4109 -0.6779 0.9932
-1.4219 0.0000 -0.6582 0.9938
-1.4172 -0.1266 -0.6586 0.9937
-1.3993 -0.2521 -0.6581 0.9938
-1.3946 -0.3820 -0.6693 0.9936
-4.8767 -1.8161 -2.4088 0.9773
-4.4774 -2.6520 -2.4088 0.9773
-4.2236 -3.0400 -2.4088 0.9773
-3.9363 -3.4038 -2.4088 0.9773
-3.6177 -3.7407 -2.4088 0.9773
-2.0848 -4.7680 -2.4088 0.9773
-1.2580 -5.2788 -2.5119 0.9764
-0.7832 -5.3698 -2.5119 0.9764
-0.3021 -5.4182 -2.5119 0.9764
0.6633 -5.3859 -2.5119 0.9764
1.6078 -5.1830 -2.5119 0.9764
2.0627 -5.0193 -2.5119 0.9764
2.9200 -4.5740 -2.5119 0.9764
4.0247 -3.6401 -2.5119 0.9764
4.3327 -3.2674 -2.5119 0.9764
5.0420 -2.0067 -2.5119 0.9764
5.3179 -1.0809 -2.5119 0.9764
5.4253 -0.1209 -2.5119 0.9764
5.4145 0.3625 -2.5119 0.9764
5.3607 0.8429 -2.5119 0.9764
4.7295 2.6608 -2.5119 0.9764
3.8585 3.8157 -2.5119 0.9764
3.1208 4.4394 -2.5119 0.9764
1.8371 5.1062 -2.5119 0.9764
-1.8703 4.8562 -2.4088 0.9773
-2.7017 4.4476 -2.4088 0.9773
-2.2181 3.0105 -1.7309 0.9837
-3.4475 3.8981 -2.4088 0.9773
-4.3549 2.8488 -2.4088 0.9773
-1.3890 0.4479 -0.6755 0.9936
-1.4099 0.1896 -0.6585 0.9937
-1.4212 -0.0634 -0.6585 0.9937
-1.3890 -0.4479 -0.6755 0.9936
-4.5911 -2.4499 -2.4088 0.9773
-4.3549 -2.8488 -2.4088 0.9773
-4.0840 -3.2251 -2.4088 0.9773
-3.7808 -3.5758 -2.4088 0.9773
-3.0868 -4.1895 -2.4088 0.9773
-2.7017 -4.4476 -2.4088 0.9773
-1.8703 -4.8562 -2.4088 0.9773
-0.5432 -5.3993 -2.5119 0.9764
0.4228 -5.4101 -2.5119 0.9764
0.9026 -5.3510 -2.5119 0.9764
2.2842 -4.9224 -2.5119 0.9764
3.5036 -4.1440 -2.5119 0.9764
4.1828 -3.4572 -2.5119 0.9764
4.4739 -3.0712 -2.5119 0.9764
4.9476 -2.2293 -2.5119 0.9764
5.3607 -0.8429 -2.5119 0.9764
5.4145 -0.3625 -2.5119 0.9764
5.3179 1.0809 -2.5119 0.9764
5.2006 1.5499 -2.5119 0.9764
4.3327 3.2674 -2.5119 0.9764
4.0247 3.6401 -2.5119 0.9764
3.3155 4.2960 -2.5119 0.9764
2.9200 4.5740 -2.5119 0.9764
1.6078 5.1830 -2.5119 0.9764
0.6633 5.3859 -2.5119 0.9764
0.1813 5.4236 -2.5119 0.9764
-0.3021 5.4182 -2.5119 0.9764
-2.5009 4.5636 -2.4088 0.9773
-3.9363 3.4038 -2.4088 0.9773
-4.2236 3.0400 -2.4088 0.9773
-4.4774 2.6520 -2.4088 0.9773
-4.6957 2.2430 -2.4088 0.9773
-1.3993 0.2521 -0.6581 0.9938
-1.4172 0.1266 -0.6586 0.9937
-1.3317 -0.1190 -0.6558 0.9941
-1.3159 -0.2371 -0.6559 0.9941
-1.3061 -0.3578 -0.6642 0.9940
-1.2931 -0.4815 -0.6768 0.9939
-4.2252 -2.5026 -2.4088 0.9784
-3.7145 -3.2121 -2.4088 0.9784
-3.0861 -3.8198 -2.4088 0.9784
-2.0404 -3.0445 -1.7978 0.9838
-2.3600 -4.3064 -2.4088 0.9784
-1.9673 -4.4994 -2.4088 0.9784
-0.2851 -5.1129 -2.5119 0.9774
0.1711 -5.1180 -2.5119 0.9774
0.6260 -5.0824 -2.5119 0.9774
2.3603 -4.5445 -2.5119 0.9774
2.7554 -4.3163 -2.5119 0.9774
3.1287 -4.0539 -2.5119 0.9774
4.0885 -3.0833 -2.5119 0.9774
4.3467 -2.7072 -2.5119 0.9774
4.9075 -1.4626 -2.5119 0.9774
5.1094 0.3420 -2.5119 0.9774
4.6688 2.1037 -2.5119 0.9774
3.9471 3.2624 -2.5119 0.9774
3.3062 3.9105 -2.5119 0.9774
2.5604 4.4348 -2.5119 0.9774
2.1555 4.6451 -2.5119 0.9774
1.2978 4.9537 -2.5119 0.9774
0.3989 5.1053 -2.5119 0.9774
-0.0570 5.1205 -2.5119 0.9774
-0.5126 5.0951 -2.5119 0.9774
-0.9640 5.0293 -2.5119 0.9774
-1.4078 4.9235 -2.5119 0.9774
-2.1658 4.4073 -2.4088 0.9784
-2.5495 4.1970 -2.4088 0.9784
-2.1819 2.9613 -1.8043 0.9837
-3.2532 3.6785 -2.4088 0.9784
-3.5677 3.3743 -2.4088 0.9784
-3.8539 3.0434 -2.4088 0.9784
-1.3003 0.4193 -0.6702 0.9939
-1.3355 0.0596 -0.6558 0.9941
-1.3251 -0.1782 -0.6559 0.9941
-1.3089 -0.2966 -0.6583 0.9940
-4.5210 -1.9171 -2.4088 0.9784
-4.3324 -2.3119 -2.4088 0.9784
-4.1095 -2.6883 -2.4088 0.9784
-3.5677 -3.3743 -2.4088 0.9784
-3.2532 -3.6785 -2.4088 0.9784
-2.1658 -4.4073 -2.4088 0.9784
-1.4078 -4.9235 -2.5119 0.9774
0.3989 -5.1053 -2.5119 0.9774
1.2978 -4.9537 -2.5119 0.9774
2.5604 -4.4348 -2.5119 0.9774
2.9450 -4.1893 -2.5119 0.9774
3.6411 -3.6008 -2.5119 0.9774
4.2218 -2.8981 -2.5119 0.9774
4.8375 -1.6798 -2.5119 0.9774
4.9678 -1.2425 -2.5119 0.9774
5.0891 0.5693 -2.5119 0.9774
4.5705 2.3096 -2.5119 0.9774
4.3468 2.7072 -2.5119 0.9774
3.7979 3.4350 -2.5119 0.9774
3.4771 3.7594 -2.5119 0.9774
2.3603 4.5444 -2.5119 0.9774
1.5172 4.8909 -2.5119 0.9774
1.0758 5.0066 -2.5119 0.9774
0.6260 5.0825 -2.5119 0.9774
0.1711 5.1180 -2.5119 0.9774
-0.2851 5.1129 -2.5119 0.9774
-0.7390 5.0672 -2.5119 0.9774
-1.5852 4.7346 -2.4492 0.9780
-2.0415 3.0462 -1.7987 0.9838
-4.2252 2.5026 -2.4088 0.9784
-1.3317 0.1190 -0.6558 0.9941
-1.2624 0.0000 -0.6549 0.9943
-1.2576 -0.1124 -0.6550 0.9943
-1.2426 -0.2239 -0.6550 0.9943
-3.9950 -2.3663 -2.4088 0.9793
-2.9180 -3.6117 -2.4088 0.9793
-2.0470 -3.0543 -1.9075 0.9836
-2.2314 -4.0719 -2.4088 0.9793
-1.5372 -4.5914 -2.5119 0.9784
-0.6988 -4.7912 -2.5119 0.9784
0.5919 -4.8056 -2.5119 0.9784
1.4345 -4.6245 -2.5119 0.9784
1.8405 -4.4785 -2.5119 0.9784
2.2318 -4.2969 -2.5119 0.9784
2.9583 -3.8332 -2.5119 0.9784
3.5910 -3.2479 -2.5119 0.9784
4.1100 -2.5597 -2.5119 0.9784
4.3215 -2.1838 -2.5119 0.9784
4.4987 -1.7905 -2.5119 0.9784
4.8407 -0.1079 -2.5119 0.9784
4.8311 0.3234 -2.5119 0.9784
4.7832 0.7521 -2.5119 0.9784
4.6972 1.1748 -2.5119 0.9784
4.4145 1.9891 -2.5119 0.9784
4.2199 2.3741 -2.5119 0.9784
3.7322 3.0847 -2.5119 0.9784
3.4428 3.4046 -2.5119 0.9784
2.7846 3.9611 -2.5119 0.9784
2.4210 4.1932 -2.5119 0.9784
2.0381 4.3921 -2.5119 0.9784
1.6391 4.5561 -2.5119 0.9784
0.8054 4.7745 -2.5119 0.9784
-0.4847 4.8176 -2.5119 0.9784
-1.6688 4.3330 -2.4088 0.9793
-2.0478 4.1672 -2.4088 0.9793
-2.4106 3.9684 -2.4088 0.9793
-3.0760 3.4781 -2.4088 0.9793
-3.3734 3.1905 -2.4088 0.9793
-3.6440 2.8776 -2.4088 0.9793
-4.2748 1.8127 -2.4088 0.9793
-1.2222 0.3941 -0.6662 0.9942
-1.2316 0.2790 -0.6551 0.9943
-1.2514 0.1683 -0.6551 0.9943
-1.2613 0.0562 -0.6550 0.9943
-1.2613 -0.0562 -0.6550 0.9943
-1.2316 -0.2790 -0.6551 0.9943
-4.2748 -1.8127 -2.4088 0.9793
-4.0965 -2.1859 -2.4088 0.9793
-3.8857 -2.5419 -2.4088 0.9793
-3.6440 -2.8776 -2.4088 0.9793
-3.3734 -3.1905 -2.4088 0.9793
-2.7543 -3.7381 -2.4088 0.9793
-2.0478 -4.1672 -2.4088 0.9793
-1.3312 -4.6554 -2.5119 0.9784
-0.9115 -4.7554 -2.5119 0.9784
-0.0539 -4.8416 -2.5119 0.9784
0.8054 -4.7745 -2.5119 0.9784
1.2271 -4.6839 -2.5119 0.9784
2.4210 -4.1932 -2.5119 0.9784
2.7846 -3.9611 -2.5119 0.9784
3.1261 -3.6975 -2.5119 0.9784
3.4428 -3.4046 -2.5119 0.9784
3.7321 -3.0847 -2.5119 0.9784
3.9919 -2.7403 -2.5119 0.9784
4.4145 -1.9891 -2.5119 0.9784
4.5740 -1.5883 -2.5119 0.9784
4.7832 -0.7521 -2.5119 0.9784
4.8407 0.1079 -2.5119 0.9784
4.8119 0.5383 -2.5119 0.9784
4.6402 1.3829 -2.5119 0.9784
3.8659 2.9154 -2.5119 0.9784
3.2877 3.5546 -2.5119 0.9784
2.9583 3.8331 -2.5119 0.9784
2.2318 4.2969 -2.5119 0.9784
1.8405 4.4785 -2.5119 0.9784
0.5919 4.8056 -2.5119 0.9784
0.1618 4.8392 -2.5119 0.9784
-0.2696 4.8344 -2.5119 0.9784
-1.1225 4.7100 -2.5119 0.9784
-2.2314 4.0719 -2.4088 0.9793
-2.9180 3.6117 -2.4088 0.9793
-3.2279 3.3377 -2.4088 0.9793
-3.5122 3.0371 -2.4088 0.9793
-3.9950 2.3663 -2.4088 0.9793
-4.1898 2.0013 -2.4088 0.9793
-1.2576 0.1124 -0.6550 0.9943
-1.1899 -0.1063 -0.6543 0.9946
-1.1577 -0.3171 -0.6575 0.9945
-3.7841 -2.2413 -2.4088 0.9801
-3.5695 -2.5692 -2.4088 0.9801
-2.7639 -3.4210 -2.4088 0.9801
-2.0404 -3.0445 -2.0074 0.9834
-1.7725 -4.0537 -2.4232 0.9800
-1.0632 -4.4613 -2.5119 0.9793
-0.2553 -4.5791 -2.5119 0.9793
0.5606 -4.5518 -2.5119 0.9793
1.7433 -4.2420 -2.5119 0.9793
2.8020 -3.6307 -2.5119 0.9793
3.1141 -3.3669 -2.5119 0.9793
3.4014 -3.0764 -2.5119 0.9793
3.8929 -2.4246 -2.5119 0.9793
4.0933 -2.0684 -2.5119 0.9793
4.4943 -0.9135 -2.5119 0.9793
4.5851 -0.1022 -2.5119 0.9793
4.5760 0.3063 -2.5119 0.9793
4.4492 1.1128 -2.5119 0.9793
3.5351 2.9218 -2.5119 0.9793
3.2610 3.2248 -2.5119 0.9793
2.9610 3.5023 -2.5119 0.9793
2.2931 3.9718 -2.5119 0.9793
1.9305 4.1601 -2.5119 0.9793
1.5526 4.3154 -2.5119 0.9793
0.7628 4.5223 -2.5119 0.9793
-0.0511 4.5860 -2.5119 0.9793
-0.8634 4.5042 -2.5119 0.9793
-1.5909 4.1307 -2.4244 0.9800
-2.2833 3.7588 -2.4088 0.9801
-2.1755 2.9526 -2.0087 0.9834
-2.9136 3.2945 -2.4088 0.9801
-3.6805 2.4077 -2.4088 0.9801
-1.1515 0.3713 -0.6626 0.9945
-1.1840 0.1592 -0.6543 0.9946
-1.1933 0.0532 -0.6542 0.9946
-1.1840 -0.1592 -0.6543 0.9946
-3.8801 -2.0705 -2.4088 0.9801
-3.6805 -2.4077 -2.4088 0.9801
-3.1953 -3.0221 -2.4088 0.9801
-2.6088 -3.5407 -2.4088 0.9801
-2.2833 -3.7588 -2.4088 0.9801
-1.2609 -4.4095 -2.5119 0.9793
-0.4591 -4.5632 -2.5119 0.9793
3.5351 -2.9218 -2.5119 0.9793
4.4492 -1.1128 -2.5119 0.9793
4.5306 -0.7124 -2.5119 0.9793
4.5760 -0.3063 -2.5119 0.9793
4.5851 0.1022 -2.5119 0.9793
4.4943 0.9135 -2.5119 0.9793
4.2612 1.6959 -2.5119 0.9793
4.0933 2.0684 -2.5119 0.9793
2.8020 3.6307 -2.5119 0.9793
1.7433 4.2420 -2.5119 0.9793
0.9635 4.4839 -2.5119 0.9793
0.5606 4.5518 -2.5119 0.9793
0.1533 4.5837 -2.5119 0.9793
-0.6619 4.5382 -2.5119 0.9793
-1.0632 4.4613 -2.5119 0.9793
-1.7725 4.0537 -2.4232 0.9800
-2.7639 3.4210 -2.4088 0.9801
-3.3267 2.8767 -2.4088 0.9801
-3.5695 2.5692 -2.4088 0.9801
-3.9685 1.8956 -2.4088 0.9801
-1.1464 0.4269 -0.6700 0.9944
-1.1899 0.1063 -0.6543 0.9946
-1.1319 0.0000 -0.6535 0.9948
-1.1141 -0.2007 -0.6536 0.9948
-1.0934 -0.2995 -0.6545 0.9948
-1.0827 -0.4032 -0.6671 0.9947
-3.5897 -2.1262 -2.4088 0.9809
-3.3863 -2.4373 -2.4088 0.9809
-3.1559 -2.7290 -2.4088 0.9809
-2.6220 -3.2453 -2.4088 0.9809
-2.0404 -3.0445 -2.1160 0.9832
-2.0051 -3.6588 -2.4088 0.9809
-1.6715 -3.8227 -2.4088 0.9809
-1.3813 -4.1256 -2.5119 0.9801
-1.0086 -4.2322 -2.5119 0.9801
-0.6279 -4.3052 -2.5119 0.9801
0.5318 -4.3181 -2.5119 0.9801
0.9140 -4.2536 -2.5119 0.9801
1.2890 -4.1554 -2.5119 0.9801
2.0054 -3.8610 -2.5119 0.9801
2.3411 -3.6672 -2.5119 0.9801
2.6582 -3.4443 -2.5119 0.9801
2.9542 -3.1940 -2.5119 0.9801
3.2267 -2.9184 -2.5119 0.9801
3.8831 -1.9622 -2.5119 0.9801
4.2635 -0.8666 -2.5119 0.9801
4.3497 -0.0969 -2.5119 0.9801
4.2979 0.6758 -2.5119 0.9801
3.7918 2.1332 -2.5119 0.9801
3.3535 2.7718 -2.5119 0.9801
3.0935 3.0592 -2.5119 0.9801
1.8314 3.9465 -2.5119 0.9801
1.1026 4.2087 -2.5119 0.9801
0.7237 4.2901 -2.5119 0.9801
-0.0485 4.3504 -2.5119 0.9801
-0.8191 4.2729 -2.5119 0.9801
-2.1661 3.5658 -2.4088 0.9809
-2.1722 2.9481 -2.1142 0.9832
-2.7640 3.1253 -2.4088 0.9809
-3.4915 2.2840 -2.4088 0.9809
-3.6809 1.9642 -2.4088 0.9809
-1.0870 0.3505 -0.6594 0.9947
-1.1039 0.2501 -0.6535 0.9948
-1.1220 0.1509 -0.6536 0.9948
-1.1309 -0.0504 -0.6536 0.9948
-1.0769 -0.4566 -0.6753 0.9946
-3.6809 -1.9642 -2.4088 0.9809
-3.2743 -2.5857 -2.4088 0.9809
-2.4748 -3.3589 -2.4088 0.9809
-1.8401 -3.7445 -2.4088 0.9809
-1.5637 -4.0600 -2.5119 0.9801
-0.8191 -4.2729 -2.5119 0.9801
-0.4355 -4.3289 -2.5119 0.9801
-0.0485 -4.3505 -2.5119 0.9801
0.3389 -4.3375 -2.5119 0.9801
1.1026 -4.2087 -2.5119 0.9801
1.4728 -4.0939 -2.5119 0.9801
2.5021 -3.5593 -2.5119 0.9801
3.3535 -2.7718 -2.5119 0.9801
3.5869 -2.4623 -2.5119 0.9801
3.7918 -2.1333 -2.5119 0.9801
3.9667 -1.7873 -2.5119 0.9801
4.1100 -1.4271 -2.5119 0.9801
4.2207 -1.0557 -2.5119 0.9801
4.3410 -0.2906 -2.5119 0.9801
4.2636 0.8666 -2.5119 0.9801
3.8831 1.9622 -2.5119 0.9801
3.4737 2.6196 -2.5119 0.9801
2.9542 3.1940 -2.5119 0.9801
2.3411 3.6672 -2.5119 0.9801
1.2890 4.1554 -2.5119 0.9801
0.9141 4.2536 -2.5119 0.9801
0.5318 4.3181 -2.5119 0.9801
-0.6279 4.3052 -2.5119 0.9801
-1.0086 4.2322 -2.5119 0.9801
-1.3813 4.1256 -2.5119 0.9801
-2.0286 3.0268 -2.1037 0.9833
-3.1559 2.7290 -2.4088 0.9809
-3.5897 2.1262 -2.4088 0.9809
-1.1141 0.2007 -0.6536 0.9948
-1.1276 0.1008 -0.6536 0.9948
