ply
format ascii 1.0
element vertex 1408
property float32 x
property float32 y
property float32 z
property float32 I
end_header
7.0660 -15.2269 2.5716 0.9343
7.0656 -15.2261 2.1858 0.9345
12.0285 15.5858 2.5637 0.9237
12.0285 15.5858 2.1141 0.9239
7.0649 -15.2245 1.4208 0.9348
11.9964 15.5442 1.6622 0.9242
7.0644 -15.2234 1.0407 0.9350
12.0353 15.5945 1.2215 0.9241
11.4575 16.2986 0.7856 0.9233
12.0353 15.5945 0.7767 0.9242
17.7860 -0.3963 0.3005 0.9313
11.4575 16.2986 0.3365 0.9234
7.0629 -15.2202 0.2834 0.9351
17.6476 -1.1814 0.2988 0.9317
-18.6280 6.9371 0.3358 0.9236
17.7860 -0.3963 -0.1002 0.9313
11.4575 16.2986 -0.1122 0.9234
-18.5775 5.9904 -0.1099 0.9249
17.6476 -1.1814 -0.0996 0.9317
17.9263 0.3995 -0.1010 0.9308
-18.4153 6.8579 -0.1106 0.9244
17.9263 0.3995 -0.5049 0.9308
-18.2246 6.7869 -0.5476 0.9251
17.7860 -0.3963 -0.9022 0.9312
-18.1033 5.8375 -0.9647 0.9266
17.6476 -1.1814 -0.8970 0.9316
17.9263 0.3995 -0.9093 0.9307
17.7860 -0.3964 -1.3044 0.9311
-9.2966 15.3043 -1.3130 0.9307
-10.2351 13.8912 -1.2652 0.9331
-12.5957 11.9129 -1.2712 0.9328
-14.3968 11.3690 -1.3451 0.9291
-17.9748 5.7961 -1.3848 0.9271
17.6476 -1.1814 -1.2969 0.9315
17.9263 0.3995 -1.3147 0.9306
12.0353 15.5945 -1.4443 0.9240
-9.6949 14.4657 -1.2768 0.9325
-13.3586 11.5516 -1.2949 0.9316
-16.0403 9.5007 -1.3669 0.9280
-17.6689 8.4397 -1.4357 0.9245
10.4619 -16.3884 -1.8666 0.9248
10.5261 -7.9381 -1.2657 0.9484
-8.6311 17.5639 -1.8788 0.9244
-9.7263 13.2006 -1.5742 0.9362
-10.9095 12.3355 -1.5810 0.9360
-11.9165 11.2706 -1.5747 0.9362
-14.5922 9.5458 -1.6741 0.9323
-17.8386 5.7522 -1.7994 0.9274
-5.8345 -15.1490 -1.5585 0.9368
7.0544 -15.2020 -1.6090 0.9349
10.4649 -14.8866 -1.7470 0.9295
10.5246 -8.6988 -1.3109 0.9466
17.6476 -1.1813 -1.6981 0.9314
17.9263 0.3995 -1.7214 0.9305
12.0353 15.5945 -1.8912 0.9239
-8.7808 16.0230 -1.7541 0.9292
-9.0498 13.5032 -1.5606 0.9368
-12.8803 11.1380 -1.6348 0.9339
-15.3556 9.0952 -1.7134 0.9308
-17.4629 6.5032 -1.7890 0.9279
-5.6236 -16.7968 -2.1041 0.9311
10.5251 -7.9374 -1.5659 0.9483
17.7860 -0.3963 -2.1133 0.9308
-9.3845 12.7368 -1.8793 0.9383
-11.5129 10.8888 -1.8824 0.9382
-14.1250 9.2402 -2.0050 0.9343
-16.0583 8.5690 -2.1621 0.9293
-17.7682 7.5343 -2.2925 0.9252
10.4699 -12.3838 -1.9263 0.9368
10.4739 -10.3579 -1.7498 0.9424
10.4925 -8.6723 -1.6170 0.9466
10.5346 -3.6580 -1.3247 0.9561
17.6476 -1.1814 -2.1010 0.9312
17.9292 0.3996 -2.1303 0.9303
12.0353 15.5945 -2.3399 0.9237
-13.7333 9.8846 -2.0099 0.9341
-14.7276 8.7232 -2.0333 0.9334
-17.3413 6.4580 -2.1981 0.9282
-5.6157 -12.8435 -1.9861 0.9449
-5.3705 -16.0410 -2.3968 0.9339
-3.9215 -16.4554 -2.3968 0.9339
-2.4413 -16.7391 -2.3968 0.9339
-0.9823 -17.6164 -2.4999 0.9312
6.4718 -15.7481 -2.4124 0.9335
10.4788 -7.9024 -1.8596 0.9484
10.4815 -6.5280 -1.7496 0.9513
10.4840 -5.2978 -1.6644 0.9537
10.6611 -4.2430 -1.6258 0.9547
10.5356 -3.1400 -1.5577 0.9566
16.9736 -1.8988 -2.4200 0.9333
16.8722 2.6530 -2.4200 0.9333
16.5691 4.1442 -2.4200 0.9333
15.5718 7.0163 -2.4200 0.9333
12.1441 12.0096 -2.4200 0.9333
9.7278 13.8379 -2.3967 0.9339
5.9729 16.6020 -2.4999 0.9312
4.4715 17.0677 -2.4999 0.9312
2.9347 17.3979 -2.4999 0.9312
1.3745 17.5901 -2.4999 0.9312
-1.6932 16.8312 -2.3968 0.9339
-3.1846 16.6137 -2.3968 0.9339
-4.6506 16.2643 -2.3968 0.9339
-7.8872 16.0499 -2.5339 0.9303
-9.1040 12.3561 -2.1746 0.9399
-10.1025 11.4231 -2.1607 0.9403
-15.3820 8.2081 -2.4704 0.9320
-17.4529 5.6278 -2.5983 0.9286
-5.6129 -11.4220 -1.8032 0.9499
-5.6192 -14.5899 -2.2153 0.9388
-4.6507 -16.2643 -2.3968 0.9339
-3.1846 -16.6137 -2.3968 0.9339
-1.6932 -16.8312 -2.3968 0.9339
-0.1966 -17.6426 -2.4999 0.9312
1.3745 -17.5901 -2.4999 0.9312
2.9347 -17.3980 -2.4999 0.9312
7.1201 -15.3435 -2.3967 0.9339
9.7278 -13.8379 -2.3967 0.9339
10.4739 -10.3579 -2.0872 0.9422
10.4773 -8.6597 -1.9260 0.9466
10.4802 -7.1943 -1.8011 0.9499
10.4828 -5.8975 -1.7042 0.9526
10.5661 -4.7609 -1.6421 0.9543
10.5258 -3.6550 -1.5787 0.9560
10.5366 -2.6354 -1.5389 0.9571
13.3337 -2.0966 -1.9125 0.9469
17.0414 -1.1408 -2.4200 0.9333
16.9736 1.8988 -2.4200 0.9333
16.7373 3.4020 -2.4200 0.9333
14.4977 9.0292 -2.4200 0.9333
13.6365 10.2838 -2.4200 0.9333
9.1017 14.2575 -2.3967 0.9339
7.7966 15.0111 -2.3967 0.9339
5.2274 16.8516 -2.4999 0.9312
2.1567 17.5114 -2.4999 0.9312
0.5896 17.6339 -2.4999 0.9312
-9.8313 12.1684 -2.2166 0.9388
-10.4070 10.7608 -2.1211 0.9413
-14.1902 8.4048 -2.3368 0.9355
-17.2427 6.4212 -2.6070 0.9284
-5.8650 -5.0716 -1.2773 0.9691
-5.6106 -10.2380 -1.9233 0.9538
-3.3728 -14.1529 -2.3968 0.9427
-2.0997 -14.3970 -2.3968 0.9427
1.8550 -15.0613 -2.4999 0.9403
6.7057 -12.9107 -2.3967 0.9427
10.4862 -4.1734 -1.8593 0.9553
10.4883 -3.1259 -1.8029 0.9566
14.6570 0.9812 -2.4200 0.9422
14.5115 2.2818 -2.4200 0.9422
13.8770 4.8186 -2.4200 0.9422
12.1109 8.3136 -2.4200 0.9422
9.3928 11.1099 -2.3967 0.9427
8.3667 11.9018 -2.3967 0.9427
2.5241 14.9637 -2.4999 0.9403
-1.5189 15.0989 -2.4999 0.9403
-2.7390 14.2891 -2.3968 0.9427
-3.9999 13.9887 -2.3968 0.9427
-5.2291 13.5771 -2.3968 0.9427
-7.9263 13.0484 -2.5151 0.9400
-9.7875 11.0669 -2.4339 0.9419
-13.1398 8.5957 -2.5867 0.9383
-14.7599 7.8761 -2.7561 0.9344
-17.1037 7.2526 -3.0605 0.9275
-5.6483 -5.3421 -1.2807 0.9690
-5.9126 -8.0247 -1.6421 0.9604
-5.6086 -9.2330 -1.7797 0.9572
-5.6129 -11.4220 -2.0966 0.9497
-0.1691 -15.1741 -2.4999 0.9403
1.1822 -15.1289 -2.4999 0.9403
2.5241 -14.9637 -2.4999 0.9403
5.1372 -14.2791 -2.4999 0.9403
10.3444 -10.2297 -2.3967 0.9427
10.4773 -8.6597 -2.2393 0.9464
10.4802 -7.1943 -2.0941 0.9498
10.4828 -5.8975 -1.9815 0.9524
10.4872 -3.6416 -1.8289 0.9560
10.4893 -2.6236 -1.7812 0.9571
14.6570 -0.9812 -2.4200 0.9422
14.5987 1.6331 -2.4200 0.9422
14.0779 4.1956 -2.4200 0.9422
13.6486 5.4320 -2.4200 0.9422
13.1109 6.6252 -2.4200 0.9422
11.7285 8.8449 -2.4200 0.9422
10.8947 9.8537 -2.4200 0.9422
9.8784 10.6804 -2.3967 0.9427
6.7057 12.9107 -2.3967 0.9427
5.7682 14.0361 -2.4999 0.9403
4.4960 14.4937 -2.4999 0.9403
0.5071 15.1666 -2.4999 0.9403
-0.8448 15.1515 -2.4999 0.9403
-2.0997 14.3970 -2.3968 0.9427
-4.6191 13.7966 -2.3968 0.9427
-5.5221 12.6294 -2.2708 0.9457
-7.7486 14.1394 -2.6562 0.9367
-8.2175 12.2614 -2.4316 0.9419
-9.4880 11.7435 -2.4871 0.9406
-13.7548 8.1470 -2.6336 0.9372
-16.0569 7.6697 -2.9315 0.9304
-17.0047 6.3326 -2.9893 0.9291
-5.8650 -5.0716 -1.4574 0.9689
-5.6493 -5.8413 -1.5274 0.9675
-5.6106 -10.2380 -2.1944 0.9536
-4.0485 -12.0921 -2.3968 0.9494
0.4444 -13.2929 -2.4999 0.9473
1.6258 -13.2005 -2.4999 0.9473
2.7943 -13.0034 -2.4999 0.9473
3.9405 -12.7031 -2.4999 0.9473
6.8611 -10.7477 -2.3967 0.9494
7.7904 -10.0944 -2.3967 0.9494
8.6580 -9.3609 -2.3967 0.9494
10.4840 -5.2978 -2.2079 0.9533
10.4862 -4.1734 -2.1214 0.9551
10.4883 -3.1259 -2.0571 0.9564
12.7951 -1.4314 -2.4200 0.9489
12.8462 0.8600 -2.4200 0.9489
12.4902 3.1240 -2.4200 0.9489
11.7384 5.2891 -2.4200 0.9489
11.2211 6.3129 -2.4200 0.9489
10.6146 7.2865 -2.4200 0.9489
9.0664 8.9659 -2.3967 0.9494
5.5985 12.0646 -2.4999 0.9473
3.3708 12.8660 -2.4999 0.9473
2.2122 13.1150 -2.4999 0.9473
-0.1482 13.2994 -2.4999 0.9473
-1.3313 13.2335 -2.4999 0.9473
-2.4006 12.5238 -2.3968 0.9494
-3.5058 12.2604 -2.3968 0.9494
-4.5831 11.8997 -2.3968 0.9494
-10.4701 9.9026 -2.7088 0.9430
-14.1820 7.5678 -3.0215 0.9367
-15.3243 6.4980 -3.1286 0.9345
-17.1665 5.5355 -3.3902 0.9292
-5.6483 -5.3421 -1.4613 0.9689
-5.6054 -7.6077 -1.7762 0.9623
-5.6129 -11.4220 -2.3921 0.9495
-4.5831 -11.8997 -2.3968 0.9494
-2.4006 -12.5238 -2.3968 0.9494
-1.3313 -13.2335 -2.4999 0.9473
-0.1482 -13.2995 -2.4999 0.9473
4.5025 -12.5150 -2.4999 0.9473
5.5985 -12.0646 -2.4999 0.9473
7.3330 -10.4313 -2.3967 0.9494
8.2324 -9.7373 -2.3967 0.9494
10.4802 -7.1943 -2.3893 0.9496
10.4851 -4.7244 -2.1616 0.9543
10.4893 -2.6236 -2.0323 0.9569
12.7951 1.4313 -2.4200 0.9489
11.9624 4.7609 -2.4200 0.9489
11.4911 5.8067 -2.4200 0.9489
10.1805 7.6775 -2.3967 0.9494
6.8611 10.7477 -2.3967 0.9494
2.7943 13.0034 -2.4999 0.9473
1.6258 13.2005 -2.4999 0.9473
-1.8403 12.6183 -2.3968 0.9494
-4.0484 12.0921 -2.3968 0.9494
-5.1086 11.6838 -2.3968 0.9494
-7.4548 13.6033 -2.9157 0.9388
-5.5136 8.2269 -1.8615 0.9605
-8.9911 11.1284 -2.6891 0.9434
-9.7863 10.1190 -2.6460 0.9443
-11.2357 9.7159 -2.7920 0.9413
-13.2774 7.8642 -2.9006 0.9391
-15.9564 5.9422 -3.2004 0.9330
-18.9042 5.1784 -3.6842 0.9233
-5.6017 -5.7922 -1.7033 0.9676
-5.6040 -6.9362 -1.8849 0.9642
-3.5999 -10.7524 -2.3968 0.9547
-2.6286 -11.0301 -2.3968 0.9547
-0.6584 -11.8084 -2.4999 0.9528
1.4457 -11.7380 -2.4999 0.9528
2.4847 -11.5627 -2.4999 0.9528
4.4954 -10.9390 -2.4999 0.9528
6.9273 -8.9760 -2.3967 0.9547
8.4090 -7.6055 -2.3967 0.9547
10.1196 -5.1137 -2.3967 0.9547
10.4862 -4.1734 -2.3857 0.9549
10.4883 -3.1258 -2.3134 0.9562
11.3775 -1.2728 -2.4200 0.9543
11.4457 -0.2551 -2.4200 0.9543
11.3096 1.7783 -2.4200 0.9543
11.1064 2.7779 -2.4200 0.9543
10.8151 3.7554 -2.4200 0.9543
8.7395 7.2234 -2.3967 0.9547
8.0619 7.9726 -2.3967 0.9547
6.5206 9.2757 -2.3967 0.9547
5.9134 10.2422 -2.4999 0.9528
4.0037 11.1284 -2.4999 0.9528
-4.0753 10.5814 -2.3968 0.9547
-5.0009 10.1766 -2.3968 0.9547
-7.3597 12.1157 -2.9965 0.9437
-5.5077 6.2276 -1.7574 0.9666
-10.1599 9.6091 -2.9560 0.9444
-12.8574 6.8609 -3.0805 0.9422
-13.7192 5.8174 -3.1499 0.9409
-5.9567 -4.7039 -1.6044 0.9694
-5.6028 -6.3352 -1.7877 0.9660
-5.6054 -7.6076 -1.9975 0.9621
-5.0009 -10.1766 -2.3968 0.9547
-3.1174 -10.9021 -2.3968 0.9547
1.9671 -11.6620 -2.4999 0.9528
4.0037 -11.1284 -2.4999 0.9528
5.9134 -10.2422 -2.4999 0.9528
6.5206 -9.2757 -2.3967 0.9547
8.0619 -7.9726 -2.3967 0.9547
9.3477 -6.4169 -2.3967 0.9547
10.3374 -4.6578 -2.3967 0.9547
11.4457 0.2551 -2.4200 0.9543
11.2191 2.2804 -2.4200 0.9543
10.6370 4.2334 -2.4200 0.9543
10.1196 5.1137 -2.3967 0.9547
9.6243 5.9941 -2.3967 0.9547
6.9273 8.9760 -2.3967 0.9547
5.4512 10.4955 -2.4999 0.9528
4.4954 10.9390 -2.4999 0.9528
3.5040 11.2957 -2.4999 0.9528
1.4457 11.7380 -2.4999 0.9528
0.3952 11.8201 -2.4999 0.9528
-0.6584 11.8084 -2.4999 0.9528
-1.6364 11.2203 -2.3968 0.9547
-4.5426 10.3893 -2.3968 0.9547
-5.4493 9.9437 -2.3968 0.9547
-8.4473 10.4554 -2.8412 0.9465
-11.4247 8.2230 -2.9755 0.9441
-12.4189 7.3557 -3.0510 0.9427
-14.3777 5.3543 -3.2431 0.9392
-5.6707 -4.0815 -1.6421 0.9717
-5.6017 -5.7922 -1.8938 0.9674
-5.6040 -6.9362 -2.0957 0.9640
-5.6069 -8.3660 -2.3669 0.9595
-4.9011 -8.9434 -2.3968 0.9590
-3.2378 -9.6707 -2.3968 0.9590
-0.5922 -10.6205 -2.4999 0.9572
0.3554 -10.6310 -2.4999 0.9572
2.2347 -10.3996 -2.4999 0.9572
3.1515 -10.1594 -2.4999 0.9572
4.9028 -9.4396 -2.4999 0.9572
6.4630 -8.3743 -2.4861 0.9575
6.9242 -7.4864 -2.3967 0.9590
8.1419 -6.1401 -2.3967 0.9590
8.6561 -5.3911 -2.3967 0.9590
9.1016 -4.5992 -2.3967 0.9590
9.9933 -2.0312 -2.3967 0.9590
10.0739 1.5840 -2.3967 0.9590
9.8929 2.4744 -2.3967 0.9590
9.6334 3.3451 -2.3967 0.9590
9.2974 4.1892 -2.3967 0.9590
7.8603 6.4967 -2.3967 0.9590
6.1173 8.7020 -2.4999 0.9572
4.4775 9.6487 -2.4999 0.9572
3.6009 10.0089 -2.4999 0.9572
2.6958 10.2897 -2.4999 0.9572
-0.1185 10.6363 -2.4999 0.9572
-1.9199 10.0160 -2.3968 0.9590
-2.8038 9.8053 -2.3968 0.9590
-7.5382 10.2309 -2.9867 0.9491
-10.1147 7.9875 -3.0290 0.9484
-5.5251 3.6143 -1.5517 0.9732
-11.7404 6.2649 -3.1275 0.9468
-12.5942 5.3404 -3.2150 0.9453
-5.6008 -5.2972 -1.8118 0.9688
-5.6028 -6.3352 -1.9877 0.9658
-5.6054 -7.6076 -2.2209 0.9619
-4.4979 -9.1529 -2.3968 0.9590
-2.8038 -9.8053 -2.3968 0.9590
-0.1185 -10.6363 -2.4999 0.9572
0.8287 -10.6046 -2.4999 0.9572
1.7692 -10.4888 -2.4999 0.9572
2.6958 -10.2897 -2.4999 0.9572
3.6009 -10.0089 -2.4999 0.9572
5.3185 -9.2119 -2.4999 0.9572
8.4073 -5.7713 -2.3967 0.9590
8.8877 -5.0001 -2.3967 0.9590
6.7933 -3.0609 -1.7512 0.9698
9.8929 -2.4744 -2.3967 0.9590
10.1344 1.1337 -2.3967 0.9590
9.9933 2.0312 -2.3967 0.9590
9.7728 2.9126 -2.3967 0.9590
9.4748 3.7709 -2.3967 0.9590
8.1419 6.1401 -2.3967 0.9590
6.9243 7.4864 -2.3967 0.9590
6.4630 8.3743 -2.4861 0.9575
5.7236 8.9658 -2.4999 0.9572
4.9028 9.4396 -2.4999 0.9572
4.0432 9.8386 -2.4999 0.9572
3.1515 10.1594 -2.4999 0.9572
-0.5922 10.6205 -2.4999 0.9572
-2.3642 9.9205 -2.3968 0.9590
-4.0857 9.3442 -2.3968 0.9590
-4.9011 8.9434 -2.3968 0.9590
-7.1868 10.7234 -3.0339 0.9483
-8.9902 9.2958 -3.0393 0.9482
-9.7421 8.4243 -3.0269 0.9485
-5.5009 3.9593 -1.5929 0.9725
-11.3549 6.7255 -3.1017 0.9472
-12.1226 5.7905 -3.1574 0.9463
-13.2187 4.9227 -3.3151 0.9437
-15.4003 4.2186 -3.7528 0.9365
-5.5968 -3.3150 -1.6842 0.9735
-5.5982 -4.0294 -1.7859 0.9719
-5.5999 -4.8424 -1.9168 0.9699
-5.6017 -5.7922 -2.0863 0.9673
-4.4488 -8.1180 -2.3968 0.9625
-3.7086 -8.4818 -2.3968 0.9625
-2.9390 -8.7782 -2.3968 0.9625
-2.1460 -9.0050 -2.3968 0.9625
-1.3934 -9.5542 -2.4999 0.9609
0.3226 -9.6499 -2.4999 0.9609
1.1802 -9.5829 -2.4999 0.9609
2.0285 -9.4398 -2.4999 0.9609
3.6701 -8.9306 -2.4999 0.9609
5.8991 -7.6437 -2.4999 0.9609
8.6004 -3.4229 -2.3967 0.9625
9.0710 -1.8438 -2.3967 0.9625
9.1991 -1.0291 -2.3967 0.9625
9.2542 -0.2062 -2.3967 0.9625
9.2359 0.6183 -2.3967 0.9625
8.9799 2.2460 -2.3967 0.9625
8.7443 3.0364 -2.3967 0.9625
8.0674 4.5387 -2.3967 0.9625
7.6315 5.2387 -2.3967 0.9625
6.2337 7.3733 -2.4999 0.9609
5.5527 7.8989 -2.4999 0.9609
4.0642 8.7582 -2.4999 0.9609
3.2686 9.0852 -2.4999 0.9609
1.6060 9.5208 -2.4999 0.9609
0.7522 9.6259 -2.4999 0.9609
-0.9664 9.6068 -2.4999 0.9609
-5.4911 7.4527 -2.3968 0.9625
-10.1916 6.6671 -3.1533 0.9509
-15.2226 3.4490 -4.0413 0.9375
-5.8388 -2.4759 -1.6421 0.9741
-5.5962 -2.9862 -1.6423 0.9741
-5.6028 -6.3352 -2.1898 0.9657
-3.3271 -8.6386 -2.3968 0.9625
-2.5450 -8.9004 -2.3968 0.9625
-0.1076 -9.6547 -2.4999 0.9609
0.7522 -9.6260 -2.4999 0.9609
1.6060 -9.5208 -2.4999 0.9609
2.4470 -9.3401 -2.4999 0.9609
6.2337 -7.3733 -2.4999 0.9609
8.0674 -4.5387 -2.3967 0.9625
6.7821 -3.0559 -1.9260 0.9697
8.7443 -3.0364 -2.3967 0.9625
9.1442 -1.4379 -2.3967 0.9625
9.2359 -0.6183 -2.3967 0.9625
9.1991 1.0291 -2.3967 0.9625
9.0710 1.8438 -2.3967 0.9625
8.6004 3.4229 -2.3967 0.9625
7.3905 5.5734 -2.3967 0.9625
6.4630 6.9877 -2.4645 0.9614
5.1954 8.1384 -2.4999 0.9609
3.6701 8.9306 -2.4999 0.9609
1.1802 9.5829 -2.4999 0.9609
-0.5375 9.6403 -2.4999 0.9609
-2.1460 9.0050 -2.3968 0.9625
-2.9390 8.7782 -2.3968 0.9625
-3.7086 8.4818 -2.3968 0.9625
-5.1537 7.6899 -2.3968 0.9625
-5.5011 2.6276 -1.5785 0.9751
-13.4981 3.6975 -3.6237 0.9438
-5.5016 -0.0000 -1.5575 0.9774
-5.5956 -2.6728 -1.7555 0.9746
-5.5968 -3.3150 -1.8415 0.9733
-5.5982 -4.0294 -1.9526 0.9717
-5.5999 -4.8424 -2.0958 0.9697
-5.3209 -6.5857 -2.3968 0.9654
-4.7136 -7.0332 -2.3968 0.9654
-4.0689 -7.4248 -2.3968 0.9654
-1.9627 -8.2360 -2.3968 0.9654
-0.4916 -8.8171 -2.4999 0.9640
0.2951 -8.8259 -2.4999 0.9640
2.6163 -8.4343 -2.4999 0.9640
3.3567 -8.1680 -2.4999 0.9640
5.3953 -6.9909 -2.4999 0.9640
6.4630 -5.8454 -2.4670 0.9644
6.7594 -5.0975 -2.3967 0.9654
7.1863 -4.4757 -2.3967 0.9654
7.8660 -3.1306 -2.3967 0.9654
8.2964 -1.6863 -2.3967 0.9654
8.4640 -0.1886 -2.3967 0.9654
8.4471 0.5655 -2.3967 0.9654
7.9976 2.7771 -2.3967 0.9654
7.3785 4.1511 -2.3967 0.9654
6.9798 4.7913 -2.3967 0.9654
6.2790 6.2094 -2.4999 0.9640
3.7172 8.0103 -2.4999 0.9640
2.2380 8.5425 -2.4999 0.9640
0.6880 8.8039 -2.4999 0.9640
-2.3277 8.1404 -2.3968 0.9654
-4.3956 7.2362 -2.3968 0.9654
-5.0222 6.8162 -2.3968 0.9654
-7.2012 8.1425 -3.0772 0.9558
-7.9418 7.5113 -3.0946 0.9556
-8.7776 6.9316 -3.1663 0.9546
-5.5214 3.6119 -1.8678 0.9729
-10.1637 5.4235 -3.2613 0.9532
-5.5016 0.2453 -1.5590 0.9774
-5.5016 -0.2454 -1.5590 0.9774
-5.6915 -1.8353 -1.6929 0.9754
-5.5962 -2.9862 -1.7957 0.9740
-5.5990 -4.4215 -2.0197 0.9708
-5.6008 -5.2972 -2.1824 0.9685
-5.0222 -6.8162 -2.3968 0.9654
-4.3956 -7.2362 -2.3968 0.9654
-1.5939 -8.3152 -2.3968 0.9654
0.6880 -8.8039 -2.4999 0.9640
2.2380 -8.5425 -2.4999 0.9640
2.9895 -8.3094 -2.4999 0.9640
5.7014 -6.7437 -2.4999 0.9640
6.5256 -5.3936 -2.3967 0.9654
6.9798 -4.7913 -2.3967 0.9654
7.3785 -4.1511 -2.3967 0.9654
6.7821 -3.0559 -2.1059 0.9695
7.9976 -2.7771 -2.3967 0.9654
8.2130 -2.0542 -2.3967 0.9654
8.3633 -1.3151 -2.3967 0.9654
8.4136 0.9412 -2.3967 0.9654
8.2964 1.6863 -2.3967 0.9654
8.1134 2.4180 -2.3967 0.9654
7.8660 3.1306 -2.3967 0.9654
7.5561 3.8183 -2.3967 0.9654
7.1863 4.4756 -2.3967 0.9654
6.7594 5.0975 -2.3967 0.9654
6.4630 5.8454 -2.4670 0.9644
5.3953 6.9909 -2.4999 0.9640
3.3567 8.1679 -2.4999 0.9640
1.8553 8.6337 -2.4999 0.9640
1.0795 8.7646 -2.4999 0.9640
-0.4916 8.8171 -2.4999 0.9640
-1.2744 8.7383 -2.4999 0.9640
-1.9627 8.2360 -2.3968 0.9654
-2.6880 8.0286 -2.3968 0.9654
-3.3919 7.7575 -2.3968 0.9654
-5.3209 6.5857 -2.3968 0.9654
-5.5082 3.2625 -1.8123 0.9737
-11.4407 4.2606 -3.4561 0.9505
-5.5956 -2.6728 -1.9073 0.9744
-5.4174 -5.6015 -2.3968 0.9679
-4.8973 -6.0614 -2.3968 0.9679
-4.3384 -6.4733 -2.3968 0.9679
-3.7450 -6.8337 -2.3968 0.9679
-1.8065 -7.5803 -2.3968 0.9679
-1.1730 -8.0427 -2.4999 0.9666
-0.4525 -8.1152 -2.4999 0.9666
0.2716 -8.1232 -2.4999 0.9666
2.4081 -7.7629 -2.4999 0.9666
3.0894 -7.5177 -2.4999 0.9666
3.7463 -7.2129 -2.4999 0.9666
4.9658 -6.4344 -2.4999 0.9666
6.0280 -5.4520 -2.4999 0.9666
6.6142 -4.1194 -2.3967 0.9679
7.7438 -0.8663 -2.3967 0.9679
7.7902 -0.1736 -2.3967 0.9679
7.7747 0.5204 -2.3967 0.9679
7.6975 1.2104 -2.3967 0.9679
7.5592 1.8907 -2.3967 0.9679
7.3609 2.5560 -2.3967 0.9679
6.2649 5.1780 -2.4999 0.9666
5.7791 5.7151 -2.4999 0.9666
5.2475 6.2068 -2.4999 0.9666
4.6743 6.6492 -2.4999 0.9666
3.4213 7.3726 -2.4999 0.9666
2.7515 7.6479 -2.4999 0.9666
2.0599 7.8624 -2.4999 0.9666
1.3519 8.0146 -2.4999 0.9666
-0.8136 8.0870 -2.4999 0.9666
-1.5301 7.9825 -2.4999 0.9666
-2.1424 7.4923 -2.3968 0.9679
-2.8007 7.2719 -2.3968 0.9679
-3.4368 6.9938 -2.3968 0.9679
-5.1625 5.8373 -2.3968 0.9679
-7.4655 7.0608 -3.1606 0.9579
-8.2436 6.5099 -3.2308 0.9570
-8.9007 5.8226 -3.2714 0.9565
-10.3719 4.3980 -3.4651 0.9539
-11.1678 3.6012 -3.6091 0.9521
-5.5014 1.2464 -1.7350 0.9767
-18.8670 0.8413 -5.8089 0.9240
-5.5950 -2.3725 -1.8692 0.9749
-5.5962 -2.9862 -1.9510 0.9738
-5.5990 -4.4215 -2.1944 0.9706
-5.1625 -5.8373 -2.3968 0.9679
-4.0457 -6.6601 -2.3968 0.9679
-2.1424 -7.4923 -2.3968 0.9679
-1.5301 -7.9825 -2.4999 0.9666
-0.8136 -8.0870 -2.4999 0.9666
1.3519 -8.0146 -2.4999 0.9666
2.0599 -7.8624 -2.4999 0.9666
2.7515 -7.6479 -2.4999 0.9666
3.4213 -7.3726 -2.4999 0.9666
4.0639 -7.0389 -2.4999 0.9666
6.2649 -5.1780 -2.4999 0.9666
6.7821 -3.0559 -2.2880 0.9693
7.7747 -0.5205 -2.3967 0.9679
7.7902 0.1736 -2.3967 0.9679
7.4675 2.2255 -2.3967 0.9679
6.9546 3.5143 -2.3967 0.9679
6.6142 4.1194 -2.3967 0.9679
6.4630 4.8740 -2.4898 0.9667
6.0280 5.4520 -2.4999 0.9666
5.5188 5.9669 -2.4999 0.9666
4.3734 6.8509 -2.4999 0.9666
3.7463 7.2129 -2.4999 0.9666
3.0894 7.5177 -2.4999 0.9666
2.4081 7.7629 -2.4999 0.9666
-0.4525 8.1152 -2.4999 0.9666
-1.1730 8.0427 -2.4999 0.9666
-4.3384 6.4733 -2.3968 0.9679
-5.4174 5.6015 -2.3968 0.9679
-8.5788 6.1747 -3.2511 0.9567
-9.9900 4.7718 -3.4053 0.9547
-10.7695 4.0106 -3.5347 0.9530
-11.7837 3.2279 -3.7579 0.9502
-18.7731 1.6776 -5.7972 0.9242
-18.5673 0.0000 -6.1719 0.9247
-18.5285 -1.6558 -6.1835 0.9246
-5.5944 -2.0834 -1.9844 0.9752
-5.5956 -2.6728 -2.0613 0.9742
-2.2892 -6.8375 -2.3968 0.9701
-1.6716 -7.0141 -2.3968 0.9701
-1.0854 -7.4420 -2.4999 0.9688
-0.4187 -7.5091 -2.4999 0.9688
3.4665 -6.6742 -2.4999 0.9688
4.0468 -6.3391 -2.4999 0.9688
4.5949 -5.9538 -2.4999 0.9688
5.5778 -5.0448 -2.4999 0.9688
6.0046 -4.5283 -2.4999 0.9688
6.3838 -3.9759 -2.4999 0.9688
6.4722 -3.2706 -2.4105 0.9699
6.9098 -2.0593 -2.3967 0.9701
7.0656 -1.4362 -2.3967 0.9701
7.1654 -0.8016 -2.3967 0.9701
7.1940 0.4816 -2.3967 0.9701
7.1226 1.1200 -2.3967 0.9701
6.2004 4.2563 -2.4999 0.9688
5.3475 5.2882 -2.4999 0.9688
3.1657 6.8220 -2.4999 0.9688
2.5460 7.0767 -2.4999 0.9688
1.2509 7.4160 -2.4999 0.9688
-3.7435 6.1627 -2.3968 0.9701
-4.2772 5.8050 -2.3968 0.9701
-7.7611 6.1289 -3.2873 0.9592
-9.1050 4.8586 -3.4305 0.9574
-10.5674 3.4075 -3.6908 0.9543
-15.8534 2.1321 -5.3172 0.9348
-18.8456 -0.8404 -6.2706 0.9236
-18.7948 -2.5277 -6.3038 0.9232
-5.5950 -2.3725 -2.0201 0.9747
-5.5962 -2.9862 -2.1085 0.9736
-5.5975 -3.6617 -2.2234 0.9722
-5.2387 -4.9547 -2.3968 0.9701
-4.7769 -5.4013 -2.3968 0.9701
-4.2772 -5.8050 -2.3968 0.9701
-1.9824 -6.9327 -2.3968 0.9701
-0.7528 -7.4829 -2.4999 0.9688
0.5859 -7.4979 -2.4999 0.9688
1.2509 -7.4160 -2.4999 0.9688
3.1657 -6.8220 -2.4999 0.9688
6.5736 -2.9619 -2.3967 0.9701
6.8112 -2.3651 -2.3967 0.9701
6.9946 -1.7495 -2.3967 0.9701
7.1226 -1.1200 -2.3967 0.9701
7.1940 -0.4816 -2.3967 0.9701
7.0656 1.4361 -2.3967 0.9701
6.9098 2.0593 -2.3967 0.9701
6.6990 2.6662 -2.3967 0.9701
6.3838 3.9759 -2.4999 0.9688
4.5949 5.9538 -2.4999 0.9688
2.8587 6.9562 -2.4999 0.9688
1.5800 7.3529 -2.4999 0.9688
0.9193 7.4643 -2.4999 0.9688
-0.4187 7.5091 -2.4999 0.9688
-2.2892 6.8375 -2.3968 0.9701
-3.4653 6.3233 -2.3968 0.9701
-4.0143 5.9898 -2.3968 0.9701
-5.0127 5.1831 -2.3968 0.9701
-5.4542 4.7164 -2.3968 0.9701
-8.0815 5.8167 -3.3098 0.9589
-9.4589 4.5181 -3.4845 0.9568
-5.5084 2.0513 -1.9539 0.9755
-11.1057 3.0422 -3.8276 0.9526
-5.5968 -3.3150 -2.3262 0.9727
-5.0698 -4.3840 -2.3968 0.9719
-4.6595 -4.8179 -2.3968 0.9719
-4.2122 -5.2135 -2.3968 0.9719
-3.7314 -5.5677 -2.3968 0.9719
-3.2211 -5.8777 -2.3968 0.9719
-2.6851 -6.1411 -2.3968 0.9719
-1.0089 -6.9175 -2.4999 0.9707
0.2336 -6.9868 -2.4999 0.9707
2.6572 -6.4660 -2.4999 0.9707
3.2222 -6.2038 -2.4999 0.9707
3.7616 -5.8924 -2.4999 0.9707
4.2711 -5.5342 -2.4999 0.9707
5.1847 -4.6893 -2.4999 0.9707
5.5815 -4.2092 -2.4999 0.9707
6.2393 -3.1529 -2.4999 0.9707
6.4630 -2.5722 -2.4875 0.9709
6.5677 -1.3350 -2.3967 0.9719
6.6752 -0.7467 -2.4020 0.9719
6.6870 0.4476 -2.3967 0.9719
6.5017 1.6262 -2.3967 0.9719
6.3736 2.8718 -2.4999 0.9707
5.7634 3.9564 -2.4999 0.9707
5.3884 4.4537 -2.4999 0.9707
4.9706 4.9156 -2.4999 0.9707
4.5134 5.3385 -2.4999 0.9707
4.0203 5.7190 -2.4999 0.9707
3.4954 6.0541 -2.4999 0.9707
2.9426 6.3412 -2.4999 0.9707
1.1628 6.8933 -2.4999 0.9707
-0.0779 6.9903 -2.4999 0.9707
-0.6997 6.9556 -2.4999 0.9707
-1.8427 6.4442 -2.3968 0.9719
-2.4089 6.2546 -2.3968 0.9719
-3.4797 5.7284 -2.3968 0.9719
-3.9757 5.3959 -2.3968 0.9719
-4.4402 5.0206 -2.3968 0.9719
-5.2601 4.1538 -2.3968 0.9719
-8.6424 4.6118 -3.5031 0.9592
-9.2983 3.9428 -3.6117 0.9580
-18.6342 -2.5061 -6.7238 0.9232
-5.6915 -1.8353 -2.1385 0.9749
-5.5950 -2.3725 -2.1732 0.9745
-5.5962 -2.9862 -2.2683 0.9734
-5.2601 -4.1538 -2.3968 0.9719
-3.9758 -5.3959 -2.3968 0.9719
-3.4797 -5.7284 -2.3968 0.9719
-2.9560 -6.0154 -2.3968 0.9719
-2.4089 -6.2546 -2.3968 0.9719
-1.8427 -6.4442 -2.3968 0.9719
-1.3160 -6.8657 -2.4999 0.9707
-0.6997 -6.9556 -2.4999 0.9707
0.5446 -6.9695 -2.4999 0.9707
1.1628 -6.8933 -2.4999 0.9707
1.7717 -6.7625 -2.4999 0.9707
2.9426 -6.3412 -2.4999 0.9707
4.9706 -4.9156 -2.4999 0.9707
5.3884 -4.4536 -2.4999 0.9707
5.7634 -3.9564 -2.4999 0.9707
6.4630 -2.2442 -2.4466 0.9714
6.5017 -1.6262 -2.3967 0.9719
6.6870 -0.4476 -2.3967 0.9719
6.7003 0.1493 -2.3967 0.9719
6.6752 0.7467 -2.4020 0.9719
6.5677 1.3349 -2.3967 0.9719
6.4630 2.5722 -2.4875 0.9709
6.2393 3.1529 -2.4999 0.9707
5.9340 3.6957 -2.4999 0.9707
5.5815 4.2092 -2.4999 0.9707
5.1847 4.6893 -2.4999 0.9707
4.7467 5.1321 -2.4999 0.9707
4.2711 5.5342 -2.4999 0.9707
3.7616 5.8924 -2.4999 0.9707
3.2222 6.2038 -2.4999 0.9707
1.4687 6.8347 -2.4999 0.9707
0.2336 6.9868 -2.4999 0.9707
-0.3892 6.9799 -2.4999 0.9707
-1.0089 6.9175 -2.4999 0.9707
-1.5838 6.6459 -2.4432 0.9714
-5.0698 4.3840 -2.3968 0.9719
-5.4399 3.9154 -2.3968 0.9719
-5.5078 3.2622 -2.2892 0.9732
-8.9719 4.2855 -3.5556 0.9586
-9.6234 3.5838 -3.6723 0.9573
-10.5242 2.8829 -3.9022 0.9547
-11.7604 2.1187 -4.2733 0.9505
-5.5956 -2.6728 -2.3764 0.9738
-5.3814 -3.1874 -2.3968 0.9736
-5.0763 -3.6537 -2.3968 0.9736
-3.9307 -4.8650 -2.3968 0.9736
-2.5057 -5.7306 -2.3968 0.9736
-1.9857 -5.9309 -2.3968 0.9736
-1.5123 -6.3458 -2.4999 0.9724
-0.9415 -6.4552 -2.4999 0.9724
-0.3632 -6.5134 -2.4999 0.9724
0.7974 -6.4746 -2.4999 0.9724
1.3705 -6.3779 -2.4999 0.9724
1.9328 -6.2306 -2.4999 0.9724
2.4796 -6.0339 -2.4999 0.9724
3.5102 -5.4986 -2.4999 0.9724
3.9857 -5.1644 -2.4999 0.9724
4.4295 -4.7891 -2.4999 0.9724
5.2085 -3.9279 -2.4999 0.9724
6.4630 -0.1440 -2.4773 0.9727
6.4443 1.0133 -2.4999 0.9724
6.1626 2.1399 -2.4999 0.9724
5.9476 2.6799 -2.4999 0.9724
5.6855 3.1986 -2.4999 0.9724
5.3783 3.6920 -2.4999 0.9724
4.2118 4.9817 -2.4999 0.9724
3.7517 5.3368 -2.4999 0.9724
3.2618 5.6495 -2.4999 0.9724
0.5082 6.5037 -2.4999 0.9724
-0.6530 6.4908 -2.4999 0.9724
-1.7195 6.0135 -2.3968 0.9736
-2.7585 5.6134 -2.3968 0.9736
-3.7100 5.0353 -2.3968 0.9736
-4.5440 4.2977 -2.3968 0.9736
-5.2341 3.4240 -2.3968 0.9736
-5.5180 2.9445 -2.3968 0.9736
-9.5776 3.0884 -3.8564 0.9578
-5.5014 1.2464 -2.1617 0.9761
-5.5180 -2.9445 -2.3968 0.9736
-5.2341 -3.4240 -2.3968 0.9736
-4.1435 -4.6851 -2.3968 0.9736
-3.7100 -5.0353 -2.3968 0.9736
-3.2472 -5.3455 -2.3968 0.9736
-2.7585 -5.6133 -2.3968 0.9736
-1.7195 -6.0135 -2.3968 0.9736
-1.2281 -6.4069 -2.4999 0.9724
-0.6530 -6.4908 -2.4999 0.9724
-0.0727 -6.5231 -2.4999 0.9724
1.0851 -6.4326 -2.4999 0.9724
2.2084 -6.1384 -2.4999 0.9724
3.7517 -5.3368 -2.4999 0.9724
4.6384 -4.5871 -2.4999 0.9724
6.4443 -1.0133 -2.4999 0.9724
6.4630 -0.4326 -2.4823 0.9726
6.4630 0.1440 -2.4773 0.9727
6.4630 0.7230 -2.4922 0.9725
6.3928 1.2994 -2.4999 0.9724
6.0611 2.4123 -2.4999 0.9724
5.5374 3.4487 -2.4999 0.9724
5.2085 3.9279 -2.4999 0.9724
4.8382 4.3759 -2.4999 0.9724
4.4295 4.7891 -2.4999 0.9724
3.9857 5.1644 -2.4999 0.9724
3.5102 5.4986 -2.4999 0.9724
2.4796 6.0339 -2.4999 0.9724
1.9328 6.2306 -2.4999 0.9724
1.3705 6.3779 -2.4999 0.9724
-0.3632 6.5134 -2.4999 0.9724
-0.9415 6.4552 -2.4999 0.9724
-1.5123 6.3458 -2.4999 0.9724
-3.0058 5.4849 -2.3968 0.9736
-4.3481 4.4959 -2.3968 0.9736
-4.7310 4.0911 -2.3968 0.9736
-5.0763 3.6537 -2.3968 0.9736
-5.3814 3.1874 -2.3968 0.9736
-8.5251 4.0721 -3.6205 0.9603
-9.1470 3.4064 -3.7405 0.9591
-17.9737 0.0000 -7.3562 0.9253
-1.6200 -0.2919 -0.6737 0.9929
-1.6035 -0.4392 -0.6804 0.9928
-5.4881 -2.0438 -2.3968 0.9750
-5.2844 -2.5242 -2.3968 0.9750
-4.7531 -3.4211 -2.3968 0.9750
-4.4298 -3.8306 -2.3968 0.9750
-3.6804 -4.5553 -2.3968 0.9750
-3.2604 -4.8648 -2.3968 0.9750
-2.8144 -5.1357 -2.3968 0.9750
-2.3462 -5.3658 -2.3968 0.9750
-1.4160 -5.9418 -2.4999 0.9739
0.7467 -6.0624 -2.4999 0.9739
1.8097 -5.8339 -2.4999 0.9739
2.3218 -5.6497 -2.4999 0.9739
3.2867 -5.1486 -2.4999 0.9739
4.1475 -4.4842 -2.4999 0.9739
4.5301 -4.0973 -2.4999 0.9739
5.1848 -3.2291 -2.4999 0.9739
5.4517 -2.7548 -2.4999 0.9739
6.1067 -0.1361 -2.4999 0.9739
6.0945 0.4080 -2.4999 0.9739
6.0340 0.9488 -2.4999 0.9739
5.9257 1.4821 -2.4999 0.9739
5.7702 2.0037 -2.4999 0.9739
5.5690 2.5093 -2.4999 0.9739
5.0358 3.4569 -2.4999 0.9739
4.7082 3.8914 -2.4999 0.9739
3.5128 4.9970 -2.4999 0.9739
3.0541 5.2898 -2.4999 0.9739
2.5711 5.5407 -2.4999 0.9739
1.0160 6.0231 -2.4999 0.9739
0.4758 6.0896 -2.4999 0.9739
-0.0680 6.1078 -2.4999 0.9739
-0.6114 6.0775 -2.4999 0.9739
-1.1499 5.9990 -2.4999 0.9739
-1.6100 5.6306 -2.3968 0.9750
-2.1048 5.4650 -2.3968 0.9750
-2.5829 5.2560 -2.3968 0.9750
-3.0404 5.0052 -2.3968 0.9750
-3.4738 4.7147 -2.3968 0.9750
-3.8797 4.3868 -2.3968 0.9750
-4.5960 3.6295 -2.3968 0.9750
-4.9008 3.2060 -2.3968 0.9750
-5.5089 -0.2457 -2.2569 0.9764
-1.6301 -0.2192 -0.6732 0.9929
-1.5889 -0.5124 -0.6833 0.9928
-5.3916 -2.2862 -2.3968 0.9750
-5.1667 -2.7570 -2.3968 0.9750
-4.9008 -3.2060 -2.3968 0.9750
-4.5960 -3.6295 -2.3968 0.9750
-4.2547 -4.0241 -2.3968 0.9750
-2.5829 -5.2560 -2.3968 0.9750
-1.6100 -5.6306 -2.3968 0.9750
-1.1499 -5.9990 -2.4999 0.9739
-0.6114 -6.0775 -2.4999 0.9739
-0.0680 -6.1078 -2.4999 0.9739
0.4759 -6.0896 -2.4999 0.9739
1.5480 -5.9088 -2.4999 0.9739
3.0541 -5.2898 -2.4999 0.9739
3.5128 -4.9970 -2.4999 0.9739
3.9436 -4.6645 -2.4999 0.9739
4.3431 -4.2950 -2.4999 0.9739
4.7082 -3.8914 -2.4999 0.9739
5.3235 -2.9950 -2.4999 0.9739
5.5690 -2.5093 -2.4999 0.9739
5.7702 -2.0036 -2.4999 0.9739
5.9257 -1.4821 -2.4999 0.9739
6.0340 -0.9488 -2.4999 0.9739
6.1067 0.1361 -2.4999 0.9739
5.9858 1.2167 -2.4999 0.9739
5.1848 3.2291 -2.4999 0.9739
4.1475 4.4842 -2.4999 0.9739
3.2867 5.1486 -2.4999 0.9739
2.3218 5.6497 -2.4999 0.9739
1.8097 5.8339 -2.4999 0.9739
0.2041 6.1048 -2.4999 0.9739
-0.3401 6.0987 -2.4999 0.9739
-0.8815 6.0443 -2.4999 0.9739
-2.8144 5.1357 -2.3968 0.9750
-3.2604 4.8648 -2.3968 0.9750
-3.6804 4.5553 -2.3968 0.9750
-5.2844 2.5241 -2.3968 0.9750
-5.4881 2.0438 -2.3968 0.9750
-1.6035 0.4392 -0.6804 0.9928
-1.6390 0.1465 -0.6735 0.9929
-1.5015 -0.2705 -0.6649 0.9934
-1.5001 -0.4109 -0.6779 0.9932
-4.4637 -3.2128 -2.3968 0.9763
-4.1600 -3.5973 -2.3968 0.9763
-3.8233 -3.9533 -2.3968 0.9763
-3.4563 -4.2779 -2.3968 0.9763
-3.0618 -4.5685 -2.3968 0.9763
-2.2033 -5.0390 -2.3968 0.9763
-1.7460 -5.2151 -2.3968 0.9763
0.7012 -5.6932 -2.4999 0.9753
1.2051 -5.6082 -2.4999 0.9753
1.6995 -5.4787 -2.4999 0.9753
3.5046 -4.5411 -2.4999 0.9753
3.8949 -4.2111 -2.4999 0.9753
4.8691 -3.0325 -2.4999 0.9753
5.1197 -2.5871 -2.4999 0.9753
5.3296 -2.1211 -2.4999 0.9753
5.6212 -1.1426 -2.4999 0.9753
5.7006 -0.6377 -2.4999 0.9753
5.7234 0.3831 -2.4999 0.9753
5.6666 0.8910 -2.4999 0.9753
5.2298 2.3564 -2.4999 0.9753
4.7292 3.2464 -2.4999 0.9753
4.4214 3.6544 -2.4999 0.9753
4.0786 4.0334 -2.4999 0.9753
3.7034 4.3804 -2.4999 0.9753
3.2989 4.6927 -2.4999 0.9753
2.4146 5.2032 -2.4999 0.9753
1.9419 5.3975 -2.4999 0.9753
0.9541 5.6563 -2.4999 0.9753
0.4469 5.7188 -2.4999 0.9753
-0.0639 5.7358 -2.4999 0.9753
-0.5742 5.7074 -2.4999 0.9753
-1.9766 5.1321 -2.3968 0.9763
-2.4256 4.9359 -2.3968 0.9763
-3.6434 4.1197 -2.3968 0.9763
-3.9956 3.7790 -2.3968 0.9763
-5.0633 2.1470 -2.3968 0.9763
-1.5029 0.3405 -0.6716 0.9933
-1.5259 -0.0680 -0.6657 0.9934
-1.5133 -0.2035 -0.6654 0.9934
-1.4861 -0.4792 -0.6805 0.9932
-4.3161 -3.4084 -2.3968 0.9763
-3.9956 -3.7790 -2.3968 0.9763
-2.4256 -4.9359 -2.3968 0.9763
-1.9766 -5.1321 -2.3968 0.9763
-0.0639 -5.7358 -2.4999 0.9753
0.4469 -5.7188 -2.4999 0.9753
1.9419 -5.3975 -2.4999 0.9753
2.4146 -5.2032 -2.4999 0.9753
3.2989 -4.6927 -2.4999 0.9753
3.7034 -4.3804 -2.4999 0.9753
4.4214 -3.6544 -2.4999 0.9753
5.2298 -2.3564 -2.4999 0.9753
5.5648 -1.3919 -2.4999 0.9753
5.7234 -0.3831 -2.4999 0.9753
5.7348 0.1278 -2.4999 0.9753
5.7006 0.6377 -2.4999 0.9753
5.6212 1.1426 -2.4999 0.9753
4.8691 3.0325 -2.4999 0.9753
4.5798 3.4538 -2.4999 0.9753
3.8949 4.2111 -2.4999 0.9753
3.5046 4.5411 -2.4999 0.9753
3.0865 4.8350 -2.4999 0.9753
2.6440 5.0905 -2.4999 0.9753
-1.3298 5.5799 -2.4999 0.9753
-1.7460 5.2151 -2.3968 0.9763
-2.6430 4.8229 -2.3968 0.9763
-4.1600 3.5973 -2.3968 0.9763
-4.4637 3.2128 -2.3968 0.9763
-4.7319 2.8027 -2.3968 0.9763
-4.9626 2.3704 -2.3968 0.9763
-1.5015 0.2705 -0.6649 0.9934
-1.5215 0.1360 -0.6657 0.9934
-1.4219 0.0000 -0.6582 0.9938
-1.3993 -0.2521 -0.6581 0.9938
-1.3946 -0.3820 -0.6693 0.9936
-4.8525 -1.8071 -2.3968 0.9774
-4.6724 -2.2318 -2.3968 0.9774
-4.4552 -2.6388 -2.3968 0.9774
-4.2026 -3.0249 -2.3968 0.9774
-3.9167 -3.3869 -2.3968 0.9774
-2.8828 -4.3014 -2.3968 0.9774
-1.6439 -4.9102 -2.3968 0.9774
-1.2520 -5.2536 -2.4999 0.9765
-0.7794 -5.3442 -2.4999 0.9765
0.6602 -5.3603 -2.4999 0.9765
1.6001 -5.1583 -2.4999 0.9765
2.0529 -4.9954 -2.4999 0.9765
2.4893 -4.7929 -2.4999 0.9765
2.9061 -4.5523 -2.4999 0.9765
3.2997 -4.2755 -2.4999 0.9765
4.3120 -3.2519 -2.4999 0.9765
5.0179 -1.9971 -2.4999 0.9765
5.1758 -1.5426 -2.4999 0.9765
5.2925 -1.0758 -2.4999 0.9765
5.3887 0.3607 -2.4999 0.9765
5.3352 0.8389 -2.4999 0.9765
5.2394 1.3104 -2.4999 0.9765
4.9240 2.2186 -2.4999 0.9765
4.7070 2.6481 -2.4999 0.9765
4.4526 3.0565 -2.4999 0.9765
3.8401 3.7976 -2.4999 0.9765
2.7004 4.6772 -2.4999 0.9765
2.2734 4.8990 -2.4999 0.9765
1.8283 5.0819 -2.4999 0.9765
0.4207 5.3844 -2.4999 0.9765
-0.0602 5.4004 -2.4999 0.9765
-0.5406 5.3736 -2.4999 0.9765
-1.0167 5.3042 -2.4999 0.9765
-1.8610 4.8321 -2.3968 0.9774
-2.6883 4.4255 -2.3968 0.9774
-2.2028 2.9897 -1.7190 0.9838
-3.4304 3.8787 -2.3968 0.9774
-4.3332 2.8347 -2.3968 0.9774
-4.5683 2.4377 -2.3968 0.9774
-4.7672 2.0215 -2.3968 0.9774
-1.3890 0.4479 -0.6755 0.9936
-1.3967 0.3165 -0.6629 0.9937
-1.4099 0.1896 -0.6585 0.9937
-1.4212 0.0634 -0.6585 0.9937
-1.4212 -0.0634 -0.6585 0.9937
-1.4099 -0.1896 -0.6585 0.9937
-1.3967 -0.3165 -0.6629 0.9937
-1.3890 -0.4479 -0.6755 0.9936
-3.7620 -3.5580 -2.3968 0.9774
-3.4304 -3.8788 -2.3968 0.9774
-2.2837 -4.6472 -2.3968 0.9774
-1.0167 -5.3042 -2.4999 0.9765
-0.0602 -5.4004 -2.4999 0.9765
0.8983 -5.3255 -2.4999 0.9765
1.3687 -5.2244 -2.4999 0.9765
1.8283 -5.0819 -2.4999 0.9765
3.1060 -4.4183 -2.4999 0.9765
3.4869 -4.1243 -2.4999 0.9765
3.8401 -3.7976 -2.4999 0.9765
4.1629 -3.4407 -2.4999 0.9765
5.1019 -1.7716 -2.4999 0.9765
5.3887 -0.3607 -2.4999 0.9765
5.3994 0.1203 -2.4999 0.9765
5.0179 1.9971 -2.4999 0.9765
4.8203 2.4358 -2.4999 0.9765
4.3120 3.2519 -2.4999 0.9765
3.6671 3.9649 -2.4999 0.9765
3.2997 4.2755 -2.4999 0.9765
2.9061 4.5523 -2.4999 0.9765
2.4893 4.7929 -2.4999 0.9765
1.6001 5.1583 -2.4999 0.9765
0.1805 5.3978 -2.4999 0.9765
-0.3007 5.3924 -2.4999 0.9765
-0.7794 5.3442 -2.4999 0.9765
-1.2520 5.2536 -2.4999 0.9765
-1.6439 4.9101 -2.3968 0.9774
-2.0744 4.7444 -2.3968 0.9774
-2.4885 4.5409 -2.3968 0.9774
-2.0674 3.0848 -1.7190 0.9838
-3.2542 4.0277 -2.3968 0.9774
-3.9167 3.3869 -2.3968 0.9774
-4.4552 2.6388 -2.3968 0.9774
-4.6724 2.2318 -2.3968 0.9774
-4.8525 1.8071 -2.3968 0.9774
-1.3993 0.2521 -0.6581 0.9938
-1.4172 0.1266 -0.6586 0.9937
-1.3317 -0.1190 -0.6558 0.9941
-1.3159 -0.2371 -0.6559 0.9941
-1.2931 -0.4815 -0.6768 0.9939
-3.3969 -3.5124 -2.3968 0.9785
-2.0470 -3.0543 -1.8036 0.9838
-2.3483 -4.2850 -2.3968 0.9785
-1.1815 -4.9576 -2.4999 0.9775
-0.7355 -5.0431 -2.4999 0.9775
-0.2837 -5.0885 -2.4999 0.9775
0.6230 -5.0582 -2.4999 0.9775
1.0707 -4.9827 -2.4999 0.9775
1.9372 -4.7139 -2.4999 0.9775
2.3491 -4.5228 -2.4999 0.9775
3.4605 -3.7415 -2.4999 0.9775
3.7798 -3.4186 -2.4999 0.9775
4.3260 -2.6943 -2.4999 0.9775
4.5487 -2.2986 -2.4999 0.9775
4.8842 -1.4556 -2.4999 0.9775
4.9943 -1.0152 -2.4999 0.9775
5.0649 -0.5666 -2.4999 0.9775
5.0346 0.7917 -2.4999 0.9775
4.4418 2.4989 -2.4999 0.9775
3.9283 3.2468 -2.4999 0.9775
3.6238 3.5836 -2.4999 0.9775
2.9310 4.1693 -2.4999 0.9775
2.5482 4.4137 -2.4999 0.9775
1.7253 4.7955 -2.4999 0.9775
1.2916 4.9301 -2.4999 0.9775
-0.0568 5.0961 -2.4999 0.9775
-0.9594 5.0053 -2.4999 0.9775
-1.4011 4.9001 -2.4999 0.9775
-1.7710 4.5984 -2.4171 0.9783
-2.1815 2.9608 -1.8040 0.9837
-3.2371 3.6602 -2.3968 0.9785
-4.3109 2.3004 -2.3968 0.9785
-4.4986 1.9076 -2.3968 0.9785
-1.3251 0.1782 -0.6559 0.9941
-1.3355 0.0596 -0.6558 0.9941
-1.3089 -0.2966 -0.6583 0.9940
-1.3003 -0.4193 -0.6702 0.9939
-4.4986 -1.9076 -2.3968 0.9785
-1.4011 -4.9001 -2.4999 0.9775
-0.9594 -5.0053 -2.4999 0.9775
-0.5101 -5.0709 -2.4999 0.9775
-0.0568 -5.0961 -2.4999 0.9775
0.3970 -5.0810 -2.4999 0.9775
1.2916 -4.9301 -2.4999 0.9775
1.7253 -4.7955 -2.4999 0.9775
2.5482 -4.4137 -2.4999 0.9775
3.2904 -3.8919 -2.4999 0.9775
3.6238 -3.5836 -2.4999 0.9775
3.9283 -3.2468 -2.4999 0.9775
4.2017 -2.8843 -2.4999 0.9775
4.4418 -2.4989 -2.4999 0.9775
4.6466 -2.0936 -2.4999 0.9775
4.8145 -1.6718 -2.4999 0.9775
4.9441 -1.2366 -2.4999 0.9775
5.0346 -0.7916 -2.4999 0.9775
5.0851 -0.3404 -2.4999 0.9775
4.8842 1.4556 -2.4999 0.9775
4.7352 1.8846 -2.4999 0.9775
4.5487 2.2986 -2.4999 0.9775
3.4605 3.7415 -2.4999 0.9775
3.1138 4.0346 -2.4999 0.9775
2.3491 4.5228 -2.4999 0.9775
1.9372 4.7139 -2.4999 0.9775
1.0707 4.9827 -2.4999 0.9775
0.6230 5.0582 -2.4999 0.9775
-0.2837 5.0885 -2.4999 0.9775
-0.7355 5.0431 -2.4999 0.9775
-1.1815 4.9576 -2.4999 0.9775
-1.5829 4.7280 -2.4457 0.9780
-2.3483 4.2850 -2.3968 0.9785
-2.0410 3.0454 -1.7983 0.9838
-3.6960 3.1961 -2.3968 0.9785
-3.9658 2.8544 -2.3968 0.9785
-4.4091 2.1061 -2.3968 0.9785
-1.3061 0.3578 -0.6642 0.9940
-1.3317 0.1190 -0.6558 0.9941
-1.2624 0.0000 -0.6549 0.9943
-1.2576 -0.1124 -0.6550 0.9943
-4.1690 -1.9913 -2.3968 0.9794
-3.9752 -2.3545 -2.3968 0.9794
-3.4947 -3.0220 -2.3968 0.9794
-2.9036 -3.5938 -2.3968 0.9794
-2.0470 -3.0543 -1.9075 0.9836
-1.5299 -4.5696 -2.4999 0.9785
-0.6955 -4.7684 -2.4999 0.9785
0.1610 -4.8162 -2.4999 0.9785
0.5890 -4.7827 -2.4999 0.9785
1.8317 -4.4572 -2.4999 0.9785
2.2211 -4.2765 -2.4999 0.9785
2.9442 -3.8149 -2.4999 0.9785
3.8474 -2.9015 -2.4999 0.9785
4.6181 -1.3764 -2.4999 0.9785
4.7223 -0.9599 -2.4999 0.9785
4.7604 0.7485 -2.4999 0.9785
4.5522 1.5807 -2.4999 0.9785
4.3935 1.9796 -2.4999 0.9785
4.1998 2.3628 -2.4999 0.9785
3.1112 3.6799 -2.4999 0.9785
2.7713 3.9423 -2.4999 0.9785
2.0284 4.3712 -2.4999 0.9785
1.6313 4.5343 -2.4999 0.9785
-0.0537 4.8186 -2.4999 0.9785
-0.4823 4.7947 -2.4999 0.9785
-0.9072 4.7327 -2.4999 0.9785
-2.0377 4.1465 -2.3968 0.9794
-2.3986 3.9487 -2.3968 0.9794
-2.1783 2.9565 -1.9051 0.9836
-3.0608 3.4609 -2.3968 0.9794
-3.3566 3.1747 -2.3968 0.9794
-3.6259 2.8633 -2.3968 0.9794
-4.0761 2.1751 -2.3968 0.9794
-4.2535 1.8037 -2.3968 0.9794
-1.2514 0.1683 -0.6551 0.9943
-1.2613 -0.0562 -0.6550 0.9943
-4.0761 -2.1751 -2.3968 0.9794
-3.6259 -2.8633 -2.3968 0.9794
-3.3566 -3.1747 -2.3968 0.9794
-0.9072 -4.7327 -2.4999 0.9785
-0.4823 -4.7947 -2.4999 0.9785
-0.0537 -4.8186 -2.4999 0.9785
0.3754 -4.8042 -2.4999 0.9785
0.8015 -4.7517 -2.4999 0.9785
2.4094 -4.1733 -2.4999 0.9785
2.7713 -3.9422 -2.4999 0.9785
3.1112 -3.6799 -2.4999 0.9785
3.9729 -2.7272 -2.4999 0.9785
4.7604 -0.7485 -2.4999 0.9785
4.8177 0.1073 -2.4999 0.9785
4.7890 0.5357 -2.4999 0.9785
4.6181 1.3764 -2.4999 0.9785
4.4773 1.7819 -2.4999 0.9785
4.3009 2.1734 -2.4999 0.9785
4.0904 2.5475 -2.4999 0.9785
2.5930 4.0618 -2.4999 0.9785
1.0124 4.7113 -2.4999 0.9785
0.5891 4.7827 -2.4999 0.9785
-0.6955 4.7684 -2.4999 0.9785
-1.8509 4.2332 -2.3968 0.9794
-2.2204 4.0516 -2.3968 0.9794
-3.4947 3.0220 -2.3968 0.9794
-3.7498 2.6990 -2.3968 0.9794
-3.9752 2.3545 -2.3968 0.9794
-1.2162 0.4529 -0.6733 0.9942
-1.2283 0.3365 -0.6607 0.9943
-1.2426 0.2239 -0.6550 0.9943
-1.2576 0.1124 -0.6550 0.9943
-1.1944 0.0000 -0.6542 0.9946
-1.1899 -0.1063 -0.6543 0.9946
-1.1756 -0.2118 -0.6543 0.9946
-1.1577 -0.3171 -0.6575 0.9945
-1.1464 -0.4269 -0.6700 0.9944
-3.7653 -2.2302 -2.3968 0.9802
-3.5518 -2.5564 -2.3968 0.9802
-3.3102 -2.8624 -2.3968 0.9802
-3.0423 -3.1457 -2.3968 0.9802
-2.7502 -3.4040 -2.3968 0.9802
-1.7532 -4.0096 -2.3968 0.9802
-1.4491 -4.3282 -2.4999 0.9794
-1.0581 -4.4400 -2.4999 0.9794
-0.6587 -4.5166 -2.4999 0.9794
0.5579 -4.5302 -2.4999 0.9794
0.9589 -4.4625 -2.4999 0.9794
1.3523 -4.3595 -2.4999 0.9794
1.7350 -4.2218 -2.4999 0.9794
2.4560 -3.8473 -2.4999 0.9794
2.7887 -3.6134 -2.4999 0.9794
3.3852 -3.0617 -2.4999 0.9794
3.8744 -2.4130 -2.4999 0.9794
4.0738 -2.0586 -2.4999 0.9794
4.4729 -0.9092 -2.4999 0.9794
4.5633 -0.1017 -2.4999 0.9794
4.5542 0.3049 -2.4999 0.9794
4.5090 0.7090 -2.4999 0.9794
4.1615 1.8751 -2.4999 0.9794
3.7631 2.5832 -2.4999 0.9794
3.5182 2.9079 -2.4999 0.9794
3.2454 3.2095 -2.4999 0.9794
2.9469 3.4856 -2.4999 0.9794
2.6250 3.7341 -2.4999 0.9794
1.9213 4.1403 -2.4999 0.9794
-1.2549 4.3885 -2.4999 0.9794
-1.5889 4.1254 -2.4213 0.9800
-2.1751 2.9521 -2.0084 0.9834
-3.1794 3.0070 -2.3968 0.9802
-3.6622 2.3957 -2.3968 0.9802
-3.8609 2.0602 -2.3968 0.9802
-1.1411 0.4838 -0.6788 0.9944
-1.1515 0.3713 -0.6626 0.9945
-1.1840 0.1592 -0.6543 0.9946
-1.1933 0.0532 -0.6542 0.9946
-1.1933 -0.0532 -0.6542 0.9946
-1.1840 -0.1592 -0.6543 0.9946
-1.1649 -0.2639 -0.6542 0.9946
-1.1515 -0.3713 -0.6626 0.9945
-3.6622 -2.3957 -2.3968 0.9802
-3.1794 -3.0070 -2.3968 0.9802
-2.8991 -3.2781 -2.3968 0.9802
-2.5959 -3.5231 -2.3968 0.9802
-1.9301 -3.9275 -2.3968 0.9802
-1.2549 -4.3885 -2.4999 0.9794
-0.8593 -4.4828 -2.4999 0.9794
-0.0508 -4.5641 -2.4999 0.9794
0.3556 -4.5505 -2.4999 0.9794
1.1568 -4.4154 -2.4999 0.9794
1.5452 -4.2949 -2.4999 0.9794
2.9469 -3.4856 -2.4999 0.9794
3.2454 -3.2095 -2.4999 0.9794
3.5182 -2.9079 -2.4999 0.9794
3.7631 -2.5832 -2.4999 0.9794
4.1615 -1.8751 -2.4999 0.9794
4.4280 -1.1075 -2.4999 0.9794
4.5090 -0.7090 -2.4999 0.9794
4.5542 -0.3049 -2.4999 0.9794
4.5633 0.1017 -2.4999 0.9794
4.4729 0.9091 -2.4999 0.9794
4.0738 2.0586 -2.4999 0.9794
3.8744 2.4130 -2.4999 0.9794
3.3852 3.0617 -2.4999 0.9794
2.7887 3.6134 -2.4999 0.9794
2.4560 3.8473 -2.4999 0.9794
1.7350 4.2218 -2.4999 0.9794
1.3523 4.3595 -2.4999 0.9794
0.9589 4.4625 -2.4999 0.9794
0.5579 4.5302 -2.4999 0.9794
0.1525 4.5618 -2.4999 0.9794
-0.2541 4.5573 -2.4999 0.9794
-0.6587 4.5166 -2.4999 0.9794
-1.0581 4.4400 -2.4999 0.9794
-1.4491 4.3283 -2.4999 0.9794
-2.0325 3.0327 -1.9995 0.9835
-2.7502 3.4040 -2.3968 0.9802
-3.0423 3.1457 -2.3968 0.9802
-3.3102 2.8624 -2.3968 0.9802
-3.7653 2.2302 -2.3968 0.9802
-3.9488 1.8862 -2.3968 0.9802
-1.1464 0.4269 -0.6700 0.9944
-1.1577 0.3171 -0.6575 0.9945
-1.1756 0.2118 -0.6543 0.9946
-1.1899 0.1063 -0.6543 0.9946
-1.1319 0.0000 -0.6535 0.9948
-1.1141 -0.2007 -0.6536 0.9948
-3.7460 -1.7893 -2.3968 0.9810
-3.1402 -2.7154 -2.3968 0.9810
-2.6090 -3.2292 -2.3968 0.9810
-1.6632 -3.8037 -2.3968 0.9810
-0.6249 -4.2847 -2.4999 0.9802
0.1447 -4.3276 -2.4999 0.9802
0.5293 -4.2975 -2.4999 0.9802
1.6459 -4.0050 -2.4999 0.9802
2.3299 -3.6497 -2.4999 0.9802
2.6455 -3.4279 -2.4999 0.9802
3.4571 -2.6071 -2.4999 0.9802
4.2432 -0.8625 -2.4999 0.9802
4.3032 -0.4814 -2.4999 0.9802
4.3289 -0.0965 -2.4999 0.9802
4.2774 0.6726 -2.4999 0.9802
4.2006 1.0506 -2.4999 0.9802
4.0904 1.4204 -2.4999 0.9802
3.9478 1.7788 -2.4999 0.9802
3.7738 2.1231 -2.4999 0.9802
3.3376 2.7586 -2.4999 0.9802
3.0788 3.0447 -2.4999 0.9802
2.7956 3.3066 -2.4999 0.9802
2.4902 3.5423 -2.4999 0.9802
1.4658 4.0743 -2.4999 0.9802
1.0974 4.1887 -2.4999 0.9802
-0.0482 4.3297 -2.4999 0.9802
-0.4334 4.3083 -2.4999 0.9802
-1.1904 4.1632 -2.4999 0.9802
-2.1553 3.5481 -2.3968 0.9810
-3.4741 2.2727 -2.3968 0.9810
-3.6626 1.9544 -2.3968 0.9810
-1.0769 0.4566 -0.6753 0.9946
-1.1039 0.2501 -0.6535 0.9948
-1.1220 0.1509 -0.6536 0.9948
-1.1309 -0.0504 -0.6536 0.9948
-1.0769 -0.4566 -0.6753 0.9946
-3.4741 -2.2727 -2.3968 0.9810
-2.1553 -3.5481 -2.3968 0.9810
-0.4334 -4.3082 -2.4999 0.9802
-0.0482 -4.3297 -2.4999 0.9802
0.3373 -4.3168 -2.4999 0.9802
0.7202 -4.2697 -2.4999 0.9802
1.0974 -4.1887 -2.4999 0.9802
1.4658 -4.0743 -2.4999 0.9802
1.8226 -3.9277 -2.4999 0.9802
2.1650 -3.7499 -2.4999 0.9802
3.5698 -2.4505 -2.4999 0.9802
3.9478 -1.7788 -2.4999 0.9802
4.0904 -1.4204 -2.4999 0.9802
4.2774 -0.6726 -2.4999 0.9802
4.3032 0.4814 -2.4999 0.9802
4.0231 1.6012 -2.4999 0.9802
3.4571 2.6071 -2.4999 0.9802
3.2114 2.9045 -2.4999 0.9802
2.9401 3.1788 -2.4999 0.9802
2.6455 3.4279 -2.4999 0.9802
1.9958 3.8426 -2.4999 0.9802
1.2829 4.1356 -2.4999 0.9802
0.9097 4.2334 -2.4999 0.9802
0.5293 4.2975 -2.4999 0.9802
-0.2411 4.3233 -2.4999 0.9802
-0.6249 4.2847 -2.4999 0.9802
-1.0038 4.2121 -2.4999 0.9802
-1.3747 4.1060 -2.4999 0.9802
-1.6632 3.8037 -2.3968 0.9810
-1.9951 3.6406 -2.3968 0.9810
-2.8861 2.9842 -2.3968 0.9810
-3.3694 2.4252 -2.3968 0.9810
-3.7460 1.7893 -2.3968 0.9810
-1.0827 0.4032 -0.6671 0.9947
-1.0934 0.2995 -0.6545 0.9948
-1.1141 0.2007 -0.6536 0.9948
-1.1276 0.1008 -0.6536 0.9948
