ply
format ascii 1.0
element vertex 1440
property float32 x
property float32 y
property float32 z
property float32 I
end_header
12.0285 15.5858 3.4715 0.9231
12.0285 15.5858 3.0160 0.9234
12.0285 15.5858 2.5637 0.9237
7.0652 -15.2251 1.8024 0.9347
12.0285 15.5858 2.1141 0.9239
11.4502 16.2882 1.6854 0.9232
7.0643 -15.2231 1.0407 0.9350
11.4575 16.2986 0.7856 0.9233
17.9263 0.3995 0.7070 0.9307
17.7860 -0.3963 0.3005 0.9313
7.0628 -15.2199 0.2834 0.9351
-18.5908 6.9233 0.3351 0.9237
17.7860 -0.3963 -0.1002 0.9313
11.4575 16.2986 -0.1122 0.9234
-18.5452 5.9800 -0.1097 0.9250
-18.3825 6.8457 -0.1104 0.9245
17.7860 -0.3964 -0.5009 0.9313
12.8979 15.2557 -0.5625 0.9232
-18.3077 5.9034 -0.5416 0.9259
7.0613 -15.2166 -0.4724 0.9351
12.0353 15.5945 -0.5547 0.9242
-18.2092 6.7811 -0.5471 0.9252
17.7860 -0.3963 -0.9022 0.9312
12.8796 15.2341 -1.0117 0.9232
7.0605 -15.2150 -0.8507 0.9350
17.6476 -1.1814 -0.8970 0.9316
12.0353 15.5945 -0.9990 0.9241
10.5148 -13.6245 -1.2619 0.9333
11.4575 16.2986 -1.4608 0.9232
-10.0182 13.5968 -1.2383 0.9345
-14.2332 11.2398 -1.3298 0.9298
-17.4570 9.3154 -1.4508 0.9237
-17.8115 7.5527 -1.4186 0.9253
-17.9637 5.7925 -1.3839 0.9271
7.0598 -15.2134 -1.2297 0.9349
10.7015 -12.6578 -1.2153 0.9357
-10.8952 13.4852 -1.2712 0.9328
-11.6449 12.0407 -1.2282 0.9350
-15.0138 10.8063 -1.3563 0.9285
-15.9129 9.4252 -1.3561 0.9285
-17.6674 8.4389 -1.4356 0.9245
-17.7478 6.6093 -1.3886 0.9269
-5.9514 -10.8599 -1.1889 0.9515
-5.6236 -16.7968 -1.7006 0.9313
10.4619 -16.3884 -1.8666 0.9248
17.7860 -0.3963 -1.7080 0.9310
-8.8477 14.5653 -1.6361 0.9338
-9.6549 13.1037 -1.5626 0.9367
-13.4023 10.5837 -1.6395 0.9337
-14.5007 9.4859 -1.6636 0.9327
-18.0280 7.6445 -1.8800 0.9243
-17.8185 5.7457 -1.7974 0.9275
7.0264 -15.1415 -1.6025 0.9351
17.6476 -1.1813 -1.6981 0.9314
17.9263 0.3995 -1.7214 0.9305
-8.7111 15.8957 -1.7402 0.9298
-8.9761 13.3933 -1.5479 0.9373
-10.4901 12.9837 -1.6025 0.9351
-12.7894 11.0594 -1.6232 0.9343
-14.2776 10.2763 -1.6889 0.9318
-15.2344 9.0234 -1.6999 0.9313
-17.5794 8.3969 -1.8704 0.9247
-17.4200 6.4872 -1.7846 0.9280
-5.6582 -10.3248 -1.3985 0.9537
-5.6157 -12.8436 -1.6651 0.9451
9.0077 -17.3430 -2.3214 0.9243
10.4619 -16.3884 -2.3096 0.9247
10.4675 -13.5632 -2.0351 0.9333
10.4720 -11.3222 -1.8320 0.9398
19.6948 1.3184 -2.3447 0.9236
19.4993 3.0661 -2.3447 0.9236
19.1490 4.7895 -2.3447 0.9236
15.2147 12.5753 -2.3447 0.9236
14.0351 13.8796 -2.3447 0.9236
12.7440 15.0737 -2.3447 0.9236
9.7714 16.9245 -2.3214 0.9243
6.6158 18.3888 -2.3214 0.9243
-3.6793 19.1946 -2.3216 0.9243
-5.3731 18.7910 -2.3216 0.9243
-8.4999 13.9927 -1.9448 0.9362
-9.3209 12.6504 -1.8665 0.9387
-10.3828 11.7400 -1.8617 0.9388
-12.9501 10.2265 -1.9601 0.9357
-14.0365 9.1823 -1.9924 0.9347
-15.9308 8.5009 -2.1449 0.9298
-17.5505 5.6593 -2.1905 0.9284
-5.6418 -11.4808 -1.5195 0.9498
-5.6192 -14.5899 -1.8572 0.9390
-5.3731 -18.7910 -2.3216 0.9243
-3.6793 -19.1946 -2.3216 0.9243
-1.9563 -19.4459 -2.3216 0.9243
10.5346 -3.6580 -1.3247 0.9561
10.5366 -2.6354 -1.2902 0.9572
17.6476 -1.1814 -2.1010 0.9312
19.6166 2.1944 -2.3447 0.9236
19.3434 3.9317 -2.3447 0.9236
18.3398 7.2991 -2.3447 0.9236
16.7551 10.4352 -2.3447 0.9236
13.4029 14.4910 -2.3447 0.9236
12.0353 15.5945 -2.3399 0.9237
-2.8206 19.3395 -2.3216 0.9243
-4.5307 19.0117 -2.3216 0.9243
-14.6113 8.6543 -2.0172 0.9339
-17.4387 8.3298 -2.2957 0.9251
-17.3271 6.4527 -2.1963 0.9282
-5.6106 -10.2380 -1.6542 0.9539
-5.6157 -12.8435 -1.9861 0.9449
-3.7983 -15.9385 -2.3216 0.9359
-2.3647 -16.2133 -2.3216 0.9359
2.0918 -16.9841 -2.4246 0.9332
3.5952 -16.7305 -2.4246 0.9332
5.0700 -16.3441 -2.4246 0.9332
6.4630 -15.7268 -2.4091 0.9336
7.5517 -14.5396 -2.3214 0.9360
10.4720 -11.3222 -2.1852 0.9396
10.4815 -6.5280 -1.7496 0.9513
10.4840 -5.2978 -1.6644 0.9537
10.4862 -4.1734 -1.5991 0.9554
10.6170 -2.1580 -1.5351 0.9572
16.3474 2.5705 -2.3447 0.9353
15.6326 5.4282 -2.3447 0.9353
15.0874 6.7980 -2.3447 0.9353
14.4225 8.1139 -2.3447 0.9353
12.7553 10.5425 -2.3447 0.9353
11.7664 11.6360 -2.3447 0.9353
10.6840 12.6371 -2.3447 0.9353
9.4222 13.4033 -2.3214 0.9360
8.1919 14.1887 -2.3214 0.9360
6.8965 14.8615 -2.3214 0.9360
4.3369 16.5537 -2.4246 0.9332
-0.1906 17.1114 -2.4246 0.9332
-1.6400 16.3026 -2.3216 0.9359
-5.5068 11.2060 -1.7691 0.9508
-5.4999 9.0541 -1.5010 0.9581
-10.0329 11.3444 -2.1458 0.9407
-17.4157 7.3849 -2.6803 0.9264
-17.4421 5.6243 -2.5967 0.9286
-5.7303 -9.4334 -1.5639 0.9564
-5.6192 -14.5899 -2.2153 0.9388
-3.0846 -16.0919 -2.3216 0.9359
1.3331 -17.0604 -2.4246 0.9332
4.3369 -16.5537 -2.4246 0.9332
5.7930 -16.1020 -2.4246 0.9332
6.8965 -14.8615 -2.3214 0.9360
8.1919 -14.1887 -2.3214 0.9360
9.4222 -13.4033 -2.3214 0.9360
10.4699 -12.3838 -2.2977 0.9366
10.4739 -10.3579 -2.0872 0.9422
10.4828 -5.8975 -1.7042 0.9526
10.4851 -4.7244 -1.6295 0.9546
10.5087 -2.6284 -1.5348 0.9572
13.4040 -2.1077 -1.9225 0.9467
16.5113 -1.1053 -2.3447 0.9353
16.5441 0.3687 -2.3447 0.9353
16.2166 3.2962 -2.3447 0.9353
14.7696 7.4634 -2.3447 0.9353
14.0467 8.7484 -2.3447 0.9353
12.2730 11.1003 -2.3447 0.9353
11.2363 12.1486 -2.3447 0.9353
7.5517 14.5396 -2.3214 0.9360
5.0700 16.3441 -2.4246 0.9332
3.5952 16.7305 -2.4246 0.9332
2.0918 16.9841 -2.4246 0.9332
-0.9527 17.0859 -2.4246 0.9332
-2.3646 16.2133 -2.3216 0.9359
-3.7983 15.9385 -2.3216 0.9359
-8.0025 14.6026 -2.3594 0.9349
-8.4051 12.5412 -2.1391 0.9408
-9.7592 12.0791 -2.2003 0.9392
-11.9193 10.3070 -2.2327 0.9383
-12.9622 9.3296 -2.2629 0.9375
-14.1012 8.3522 -2.3222 0.9359
-5.8650 -5.0716 -1.2773 0.9691
-5.6493 -5.8413 -1.3387 0.9676
-5.6069 -8.3660 -1.6591 0.9600
-5.6157 -12.8436 -2.3092 0.9448
-4.4740 -13.3633 -2.3216 0.9445
-2.0338 -13.9448 -2.3216 0.9445
-0.8194 -14.6953 -2.4246 0.9421
5.5945 -13.6134 -2.4246 0.9421
7.5823 -11.8775 -2.3214 0.9445
8.6094 -11.1555 -2.3214 0.9445
9.5681 -10.3449 -2.3214 0.9445
10.4509 -9.4523 -2.3214 0.9445
10.4788 -7.9024 -2.1621 0.9482
10.4815 -6.5280 -2.0342 0.9512
10.4862 -4.1734 -1.8593 0.9553
10.4883 -3.1259 -1.8029 0.9566
14.2293 -0.3171 -2.3447 0.9439
11.7341 8.0550 -2.3447 0.9439
10.9706 9.0675 -2.3447 0.9439
7.0457 12.2035 -2.3214 0.9445
6.1954 13.3507 -2.4246 0.9421
3.7301 14.2376 -2.4246 0.9421
2.4481 14.5131 -2.4246 0.9421
1.1466 14.6734 -2.4246 0.9421
-1.4732 14.6442 -2.4246 0.9421
-2.6530 13.8404 -2.3216 0.9445
-14.6433 7.8139 -2.7343 0.9349
-5.6415 -7.6568 -1.5668 0.9622
-3.8743 -13.5493 -2.3216 0.9445
-2.6530 -13.8404 -2.3216 0.9445
-1.4732 -14.6442 -2.4246 0.9421
-0.1640 -14.7172 -2.4246 0.9421
2.4481 -14.5131 -2.4246 0.9421
6.1954 -13.3507 -2.4246 0.9421
7.0457 -12.2035 -2.3214 0.9445
8.1039 -11.5279 -2.3214 0.9445
9.0978 -10.7609 -2.3214 0.9445
10.0194 -9.9084 -2.3214 0.9445
10.4828 -5.8975 -1.9815 0.9524
10.4851 -4.7244 -1.8945 0.9544
10.4893 -2.6236 -1.7812 0.9571
14.0601 -2.2109 -2.3447 0.9439
14.2011 -0.9506 -2.3447 0.9439
14.2293 0.3171 -2.3447 0.9439
13.9476 2.8350 -2.3447 0.9439
13.6400 4.0651 -2.3447 0.9439
12.7031 6.4191 -2.3447 0.9439
11.3637 8.5697 -2.3447 0.9439
10.4509 9.4523 -2.3214 0.9445
9.5681 10.3449 -2.3214 0.9445
8.6094 11.1555 -2.3214 0.9445
6.4951 12.5052 -2.3214 0.9445
5.5945 13.6134 -2.4246 0.9421
4.3606 14.0573 -2.4246 0.9421
1.7991 14.6077 -2.4246 0.9421
0.4918 14.7099 -2.4246 0.9421
-2.0338 13.9448 -2.3216 0.9445
-4.4740 13.3633 -2.3216 0.9445
-7.1785 16.4176 -2.9519 0.9299
-7.6867 14.0264 -2.6349 0.9372
-8.1657 12.1841 -2.4163 0.9423
-10.0188 10.3593 -2.3741 0.9433
-12.3660 8.9005 -2.5100 0.9401
-5.6069 -8.3660 -1.8930 0.9598
-5.6106 -10.2380 -2.1944 0.9536
-4.9482 -11.3168 -2.3216 0.9510
-3.9213 -11.7123 -2.3216 0.9510
-2.8633 -12.0148 -2.3216 0.9510
-1.7825 -12.2220 -2.3216 0.9510
-0.7182 -12.8797 -2.4246 0.9489
1.5768 -12.8030 -2.4246 0.9489
2.7101 -12.6118 -2.4246 0.9489
4.9033 -11.9315 -2.4246 0.9489
7.5457 -9.7773 -2.3214 0.9510
9.1597 -8.2845 -2.3214 0.9510
10.4815 -6.5280 -2.3210 0.9510
10.4862 -4.1734 -2.1214 0.9551
12.3971 -1.3868 -2.3447 0.9505
12.4713 -0.2779 -2.3447 0.9505
12.4466 0.8332 -2.3447 0.9505
12.3230 1.9377 -2.3447 0.9505
9.5197 7.8682 -2.3214 0.9510
8.7816 8.6843 -2.3214 0.9510
4.3669 12.1381 -2.4246 0.9489
3.2693 12.4786 -2.4246 0.9489
2.1456 12.7201 -2.4246 0.9489
1.0049 12.8605 -2.4246 0.9489
-0.1437 12.8990 -2.4246 0.9489
-2.3252 12.1304 -2.3216 0.9510
-4.4391 11.5260 -2.3216 0.9510
-5.4474 11.0852 -2.3216 0.9510
-7.5715 12.4644 -2.7412 0.9424
-8.4974 11.5327 -2.6926 0.9434
-9.4240 10.6559 -2.6738 0.9437
-5.6086 -9.2330 -2.0305 0.9570
-5.4474 -11.0851 -2.3216 0.9510
1.0049 -12.8606 -2.4246 0.9489
2.1456 -12.7201 -2.4246 0.9489
4.3669 -12.1381 -2.4246 0.9489
7.1027 -10.1037 -2.3214 0.9510
8.7816 -8.6843 -2.3214 0.9510
10.1822 -6.9897 -2.3214 0.9510
10.4828 -5.8975 -2.2608 0.9522
10.4851 -4.7244 -2.1616 0.9543
10.4893 -2.6236 -2.0323 0.9569
12.3230 -1.9377 -2.3447 0.9505
12.4466 -0.8332 -2.3447 0.9505
12.4713 0.2779 -2.3447 0.9505
12.2245 2.4847 -2.3447 0.9505
11.9548 3.5629 -2.3447 0.9505
10.5887 6.5947 -2.3447 0.9505
9.8607 7.4363 -2.3214 0.9510
9.1597 8.2845 -2.3214 0.9510
8.3860 9.0669 -2.3214 0.9510
7.5457 9.7773 -2.3214 0.9510
6.6456 10.4101 -2.3214 0.9510
5.9458 11.4478 -2.4246 0.9489
4.9033 11.9315 -2.4246 0.9489
3.8219 12.3206 -2.4246 0.9489
0.4311 12.8926 -2.4246 0.9489
-0.7182 12.8797 -2.4246 0.9489
-1.7825 12.2220 -2.3216 0.9510
-4.9482 11.3168 -2.3216 0.9510
-7.3941 13.4926 -2.8919 0.9393
-7.9380 11.8443 -2.6800 0.9436
-5.5006 5.6875 -1.4872 0.9683
-13.1210 7.7716 -2.8664 0.9398
-14.3942 6.8755 -2.9983 0.9371
-15.6014 5.8100 -3.1292 0.9345
-18.6687 5.1139 -3.6383 0.9242
-5.6017 -5.7922 -1.7033 0.9676
-5.6040 -6.9362 -1.8849 0.9642
-5.2782 -9.6314 -2.3216 0.9561
-2.5461 -10.6837 -2.3216 0.9561
-1.5921 -10.9164 -2.3319 0.9559
-0.6386 -11.4528 -2.4246 0.9542
2.4099 -11.2146 -2.4246 0.9542
3.3985 -10.9556 -2.4246 0.9542
4.3601 -10.6096 -2.4246 0.9542
5.2871 -10.1795 -2.4246 0.9542
6.1721 -9.6685 -2.4246 0.9542
6.7097 -8.6940 -2.3214 0.9561
7.4569 -8.0623 -2.3214 0.9561
8.7683 -6.6124 -2.3214 0.9561
9.3220 -5.8058 -2.3214 0.9561
9.8017 -4.9530 -2.3214 0.9561
10.2037 -4.0610 -2.3214 0.9561
10.4883 -3.1258 -2.3134 0.9562
11.0236 -1.2332 -2.3447 0.9557
11.0896 -0.2471 -2.3447 0.9557
11.0676 0.7409 -2.3447 0.9557
10.9577 1.7230 -2.3447 0.9557
10.7609 2.6915 -2.3447 0.9557
10.3745 3.6024 -2.3214 0.9561
10.0127 4.5115 -2.3214 0.9561
9.5714 5.3848 -2.3214 0.9561
7.8087 7.7221 -2.3214 0.9561
7.0904 8.3865 -2.3214 0.9561
6.4630 9.1937 -2.3755 0.9551
5.7353 9.9338 -2.4246 0.9542
4.8284 10.4048 -2.4246 0.9542
3.8831 10.7933 -2.4246 0.9542
2.9070 11.0961 -2.4246 0.9542
-1.1481 11.4130 -2.4246 0.9542
-3.0194 10.5596 -2.3216 0.9561
-7.9234 10.7538 -2.8235 0.9469
-8.9207 10.0867 -2.8463 0.9464
-9.9962 9.4544 -2.9084 0.9453
-5.5008 4.3439 -1.4816 0.9718
-11.6496 7.6208 -2.9426 0.9447
-12.5889 6.7177 -3.0162 0.9433
-5.6054 -7.6076 -1.9975 0.9621
-3.9473 -10.2490 -2.3216 0.9561
-1.1482 -11.4130 -2.4246 0.9542
-0.1278 -11.4699 -2.4246 0.9542
0.8936 -11.4357 -2.4246 0.9542
1.9079 -11.3108 -2.4246 0.9542
3.8831 -10.7933 -2.4246 0.9542
6.4630 -9.1937 -2.3755 0.9551
7.8087 -7.7221 -2.3214 0.9561
9.5714 -5.3848 -2.3214 0.9561
10.4893 -2.6236 -2.2855 0.9568
10.9577 -1.7230 -2.3447 0.9557
11.0676 -0.7409 -2.3447 0.9557
11.0896 0.2471 -2.3447 0.9557
11.0236 1.2332 -2.3447 0.9557
10.8701 2.2094 -2.3447 0.9557
10.2037 4.0610 -2.3214 0.9561
9.8017 4.9530 -2.3214 0.9561
8.1449 7.3666 -2.3214 0.9561
5.2871 10.1795 -2.4246 0.9542
0.3833 11.4642 -2.4246 0.9542
-0.6386 11.4528 -2.4246 0.9542
-1.5921 10.9164 -2.3319 0.9559
-4.4000 10.0630 -2.3216 0.9561
-5.2782 9.6314 -2.3216 0.9561
-8.3251 10.3041 -2.8002 0.9473
-10.3513 8.9511 -2.8927 0.9456
-11.2413 8.0910 -2.9277 0.9449
-13.0164 6.2174 -3.0492 0.9427
-14.1149 5.2564 -3.1838 0.9403
-17.0219 4.6628 -3.7306 0.9304
-5.7359 -3.3974 -1.5668 0.9730
-5.5982 -4.0294 -1.6211 0.9721
-5.5999 -4.8424 -1.7399 0.9700
-4.7472 -8.6625 -2.3216 0.9602
-2.2899 -9.6089 -2.3216 0.9602
0.3447 -10.3109 -2.4246 0.9585
1.2611 -10.2393 -2.4246 0.9585
2.1674 -10.0864 -2.4246 0.9585
3.0566 -9.8535 -2.4246 0.9585
3.9214 -9.5423 -2.4246 0.9585
6.3031 -8.1672 -2.4246 0.9585
6.7068 -7.2513 -2.3214 0.9602
7.8862 -5.9472 -2.3214 0.9602
9.4659 -2.8211 -2.3214 0.9602
9.8161 -1.0981 -2.3214 0.9602
9.8749 -0.2201 -2.3214 0.9602
9.7574 1.5343 -2.3214 0.9602
9.5821 2.3967 -2.3214 0.9602
9.3308 3.2400 -2.3214 0.9602
9.0054 4.0577 -2.3214 0.9602
8.1433 5.5900 -2.3214 0.9602
5.9331 8.4399 -2.4246 0.9585
5.1583 8.9345 -2.4246 0.9585
4.3426 9.3581 -2.4246 0.9585
0.8037 10.2853 -2.4246 0.9585
-1.0326 10.2648 -2.4246 0.9585
-2.7157 9.4974 -2.3216 0.9602
-3.5502 9.2180 -2.3216 0.9602
-5.1284 8.4425 -2.3216 0.9602
-7.4176 10.0673 -2.9389 0.9499
-8.3509 9.4425 -2.9626 0.9495
-9.9174 7.8317 -2.9700 0.9494
-5.8815 -3.1385 -1.5668 0.9730
-5.6028 -6.3352 -1.9877 0.9658
-5.6054 -7.6076 -2.2209 0.9619
-4.3566 -8.8654 -2.3216 0.9602
-2.7157 -9.4974 -2.3216 0.9602
-1.0326 -10.2648 -2.4246 0.9585
-0.1149 -10.3160 -2.4246 0.9585
0.8037 -10.2853 -2.4246 0.9585
1.7160 -10.1729 -2.4246 0.9585
2.6146 -9.9798 -2.4246 0.9585
6.4674 -7.6496 -2.3543 0.9597
7.6134 -6.2927 -2.3214 0.9602
8.1433 -5.5900 -2.3214 0.9602
6.7903 -3.0596 -1.7504 0.9699
9.3308 -3.2400 -2.3214 0.9602
9.5821 -2.3967 -2.3214 0.9602
9.8749 0.2201 -2.3214 0.9602
9.8161 1.0981 -2.3214 0.9602
9.4659 2.8211 -2.3214 0.9602
8.8157 4.4548 -2.3214 0.9602
8.3842 5.2217 -2.3214 0.9602
7.3255 6.6255 -2.3214 0.9602
6.7068 7.2513 -2.3214 0.9602
6.3031 8.1672 -2.4246 0.9585
4.7552 9.1554 -2.4246 0.9585
2.1674 10.0864 -2.4246 0.9585
0.3447 10.3109 -2.4246 0.9585
-2.2899 9.6089 -2.3216 0.9602
-3.1361 9.3670 -2.3216 0.9602
-3.9573 9.0507 -2.3216 0.9602
-7.8461 9.7112 -2.9342 0.9500
-8.7867 9.0854 -2.9705 0.9494
-5.5079 4.7629 -1.7114 0.9705
-10.3508 7.4501 -2.9973 0.9489
-5.5010 3.2582 -1.5026 0.9741
-11.8695 5.6696 -3.0915 0.9474
-12.9830 4.8349 -3.2560 0.9447
-5.6708 -2.1118 -1.5668 0.9753
-5.5956 -2.6728 -1.6056 0.9747
-5.5982 -4.0294 -1.7859 0.9719
-5.5999 -4.8424 -1.9168 0.9699
-5.6017 -5.7922 -2.0863 0.9673
-5.6040 -6.9362 -2.3088 0.9638
-3.5921 -8.2154 -2.3216 0.9636
-2.0786 -8.7221 -2.3216 0.9636
1.9674 -9.1556 -2.4246 0.9620
2.7745 -8.9441 -2.4246 0.9620
3.5596 -8.6617 -2.4246 0.9620
5.0389 -7.8933 -2.4246 0.9620
6.6495 -6.0141 -2.3214 0.9636
7.1584 -5.3984 -2.3214 0.9636
8.3303 -3.3154 -2.3214 0.9636
8.7861 -1.7859 -2.3214 0.9636
8.9635 -0.1997 -2.3214 0.9636
8.9458 0.5988 -2.3214 0.9636
8.6978 2.1755 -2.3214 0.9636
7.8140 4.3961 -2.3214 0.9636
7.3918 5.0742 -2.3214 0.9636
6.4672 6.3955 -2.3550 0.9631
6.0460 7.1512 -2.4246 0.9620
3.9419 8.4945 -2.4246 0.9620
3.1702 8.8116 -2.4246 0.9620
2.3733 9.0588 -2.4246 0.9620
1.5576 9.2341 -2.4246 0.9620
-2.4651 8.6209 -2.3216 0.9636
-3.2226 8.3673 -2.3216 0.9636
-3.9545 8.0472 -2.3216 0.9636
-4.6551 7.6633 -2.3216 0.9636
-5.3187 7.2186 -2.3216 0.9636
-8.4166 7.9604 -2.9995 0.9533
-9.2064 7.2703 -3.0374 0.9527
-9.9987 6.5409 -3.0936 0.9518
-10.6612 5.6890 -3.1288 0.9513
-5.5013 1.7739 -1.4966 0.9764
-5.5019 -1.7742 -1.4968 0.9764
-5.5962 -2.9862 -1.6423 0.9741
-5.5990 -4.4215 -1.8472 0.9710
-5.6008 -5.2972 -1.9960 0.9686
-5.6028 -6.3352 -2.1898 0.9657
-5.3187 -7.2186 -2.3216 0.9636
-4.6551 -7.6633 -2.3216 0.9636
-3.2226 -8.3673 -2.3216 0.9636
-2.4651 -8.6209 -2.3216 0.9636
-1.6880 -8.8061 -2.3216 0.9636
-0.9374 -9.3175 -2.4246 0.9620
-0.1043 -9.3640 -2.4246 0.9620
0.7295 -9.3361 -2.4246 0.9620
4.6823 -8.1099 -2.4246 0.9620
6.0460 -7.1513 -2.4246 0.9620
6.4672 -6.3955 -2.3550 0.9631
7.3918 -5.0742 -2.3214 0.9636
8.6978 -2.1755 -2.3214 0.9636
8.9458 -0.5988 -2.3214 0.9636
8.5923 2.5608 -2.3214 0.9636
4.3164 8.3105 -2.4246 0.9620
3.5596 8.6617 -2.4246 0.9620
1.9674 9.1555 -2.4246 0.9620
1.1447 9.2943 -2.4246 0.9620
-0.5213 9.3500 -2.4246 0.9620
-1.3515 9.2665 -2.4246 0.9620
-2.0786 8.7221 -2.3216 0.9636
-2.8467 8.5025 -2.3216 0.9636
-3.5921 8.2154 -2.3216 0.9636
-4.3091 7.8631 -2.3216 0.9636
-4.9918 7.4483 -2.3216 0.9636
-8.0393 8.3126 -2.9942 0.9533
-8.7796 7.5920 -3.0052 0.9532
-19.1843 0.0000 -5.4309 0.9233
-5.5101 -0.4924 -1.5661 0.9773
-5.5956 -2.6728 -1.7555 0.9746
-5.5968 -3.3150 -1.8415 0.9733
-5.5999 -4.8424 -2.0958 0.9697
-5.6017 -5.7922 -2.2811 0.9671
-4.5656 -6.8123 -2.3216 0.9665
-1.9011 -7.9773 -2.3216 0.9665
-1.2361 -8.4752 -2.4246 0.9650
-0.4768 -8.5516 -2.4246 0.9650
1.7994 -8.3737 -2.4246 0.9650
2.5376 -8.1803 -2.4246 0.9650
3.2556 -7.9220 -2.4246 0.9650
3.9478 -7.6008 -2.4246 0.9650
4.6086 -7.2193 -2.4246 0.9650
5.8156 -6.2877 -2.4246 0.9650
6.3521 -5.7452 -2.4246 0.9650
6.5471 -4.9374 -2.3214 0.9665
6.9605 -4.3351 -2.3214 0.9665
7.8585 -2.3421 -2.3214 0.9665
8.1981 -0.1827 -2.3214 0.9665
8.1818 0.5477 -2.3214 0.9665
8.1006 1.2738 -2.3214 0.9665
7.7464 2.6898 -2.3214 0.9665
7.4763 3.3687 -2.3214 0.9665
6.7605 4.6408 -2.3214 0.9665
6.0899 6.0224 -2.4246 0.9650
5.5297 6.5406 -2.4246 0.9650
2.8994 8.0592 -2.4246 0.9650
0.6672 8.5388 -2.4246 0.9650
-0.0954 8.5643 -2.4246 0.9650
-0.8573 8.5218 -2.4246 0.9650
-2.9474 7.6527 -2.3216 0.9665
-3.6168 7.3600 -2.3216 0.9665
-7.7993 7.3765 -3.0390 0.9564
-5.5082 3.6033 -1.8633 0.9730
-10.0074 5.3401 -3.2111 0.9539
-5.5084 2.3357 -1.6938 0.9754
-11.7216 3.7797 -3.4865 0.9501
-5.5014 1.2464 -1.5969 0.9768
-5.5950 -2.3725 -1.7204 0.9751
-5.5962 -2.9862 -1.7957 0.9740
-5.5975 -3.6617 -1.8936 0.9726
-5.5990 -4.4215 -2.0197 0.9708
-5.6008 -5.2972 -2.1824 0.9685
-4.8645 -6.6021 -2.3216 0.9665
-4.2576 -7.0089 -2.3216 0.9665
-2.9474 -7.6527 -2.3216 0.9665
-1.5829 -8.2580 -2.3804 0.9656
2.8994 -8.0592 -2.4246 0.9650
4.2824 -7.4174 -2.4246 0.9650
6.4630 -5.3418 -2.3737 0.9657
7.1467 -4.0207 -2.3214 0.9665
8.1006 -1.2737 -2.3214 0.9665
8.1981 0.1827 -2.3214 0.9665
7.6189 3.0322 -2.3214 0.9665
6.9606 4.3351 -2.3214 0.9665
6.5471 4.9374 -2.3214 0.9665
5.8156 6.2877 -2.4246 0.9650
5.2329 6.7804 -2.4246 0.9650
4.6086 7.2192 -2.4246 0.9650
3.2556 7.9220 -2.4246 0.9650
-0.4768 8.5516 -2.4246 0.9650
-2.6036 7.7764 -2.3216 0.9665
-3.2854 7.5138 -2.3216 0.9665
-4.5656 6.8123 -2.3216 0.9665
-9.6560 5.7193 -3.1771 0.9544
-10.4130 4.9739 -3.2669 0.9532
-11.2578 4.1925 -3.4008 0.9513
-5.5085 1.5089 -1.6169 0.9765
-5.5968 -3.3150 -2.0008 0.9731
-5.5999 -4.8424 -2.2771 0.9695
-5.2472 -5.4256 -2.3216 0.9689
-4.7435 -5.8711 -2.3216 0.9689
-3.0238 -6.9157 -2.3216 0.9689
-1.7497 -7.3422 -2.3216 0.9689
-1.1377 -7.8005 -2.4246 0.9675
0.2634 -7.8786 -2.4246 0.9675
0.9636 -7.8239 -2.4246 0.9675
2.3355 -7.5291 -2.4246 0.9675
2.9964 -7.2913 -2.4246 0.9675
3.6335 -6.9957 -2.4246 0.9675
4.2417 -6.6445 -2.4246 0.9675
5.3526 -5.7872 -2.4246 0.9675
6.2939 -4.7465 -2.4246 0.9675
6.7361 -3.4039 -2.3214 0.9689
7.2329 -2.1556 -2.3214 0.9689
7.5006 -0.8391 -2.3214 0.9689
7.5305 0.5041 -2.3214 0.9689
7.4557 1.1723 -2.3214 0.9689
7.3218 1.8313 -2.3214 0.9689
6.8811 3.1005 -2.3214 0.9689
6.5778 3.7006 -2.3214 0.9689
6.0762 5.0221 -2.4246 0.9675
5.6051 5.5430 -2.4246 0.9675
4.5335 6.4490 -2.4246 0.9675
3.9415 6.8269 -2.4246 0.9675
3.3182 7.1506 -2.4246 0.9675
2.6686 7.4176 -2.4246 0.9675
1.3112 7.7732 -2.4246 0.9675
-1.4840 7.7421 -2.4246 0.9675
-2.0751 7.2570 -2.3216 0.9689
-2.7128 7.0435 -2.3216 0.9689
-3.3289 6.7741 -2.3216 0.9689
-4.4772 6.0766 -2.3216 0.9689
-5.4837 5.1864 -2.3216 0.9689
-5.5080 4.3496 -2.1587 0.9711
-10.2101 4.3295 -3.4111 0.9546
-5.5014 1.2464 -1.7350 0.9767
-5.5087 0.7408 -1.7096 0.9770
-18.8055 0.8386 -5.7899 0.9242
-5.5950 -2.3725 -1.8692 0.9749
-5.5962 -2.9862 -1.9510 0.9738
-5.5975 -3.6617 -2.0573 0.9724
-5.5990 -4.4215 -2.1944 0.9706
-4.4772 -6.0765 -2.3216 0.9689
-3.9186 -6.4509 -2.3216 0.9689
-1.4840 -7.7421 -2.4246 0.9675
-0.0878 -7.8825 -2.4246 0.9675
0.6141 -7.8591 -2.4246 0.9675
1.3112 -7.7732 -2.4246 0.9675
2.6686 -7.4176 -2.4246 0.9675
3.9415 -6.8269 -2.4246 0.9675
4.5335 -6.4490 -2.4246 0.9675
5.6051 -5.5430 -2.4246 0.9675
6.0762 -5.0221 -2.4246 0.9675
7.3218 -1.8313 -2.3214 0.9689
7.5305 -0.5041 -2.3214 0.9689
7.5006 0.8391 -2.3214 0.9689
7.0124 2.7909 -2.3214 0.9689
6.4699 4.0295 -2.3444 0.9686
5.8465 5.2878 -2.4246 0.9675
4.2417 6.6446 -2.4246 0.9675
3.6335 6.9957 -2.4246 0.9675
2.9964 7.2913 -2.4246 0.9675
2.3356 7.5291 -2.4246 0.9675
0.2634 7.8786 -2.4246 0.9675
-1.1377 7.8005 -2.4246 0.9675
-3.0238 6.9157 -2.3216 0.9689
-3.6274 6.6191 -2.3216 0.9689
-4.2021 6.2700 -2.3216 0.9689
-4.7435 5.8711 -2.3216 0.9689
-5.2472 5.4256 -2.3216 0.9689
-7.7152 6.6716 -3.1372 0.9582
-8.4274 6.0657 -3.1937 0.9575
-5.5082 3.2625 -1.9691 0.9736
-9.8364 4.6984 -3.3529 0.9554
-5.5084 2.0513 -1.8080 0.9757
-11.6058 3.1792 -3.7012 0.9509
-13.8136 2.4886 -4.3172 0.9430
-18.7353 1.6742 -5.7856 0.9243
-18.5010 -1.6533 -6.1744 0.9247
-5.5944 -2.0834 -1.9844 0.9752
-5.5956 -2.6728 -2.0613 0.9742
-5.5968 -3.3150 -2.1623 0.9730
-5.5982 -4.0294 -2.2928 0.9713
-4.8553 -5.0204 -2.3216 0.9710
-4.3892 -5.4326 -2.3216 0.9710
-2.7980 -6.3991 -2.3216 0.9710
-1.6191 -6.7939 -2.3216 0.9710
-1.0527 -7.2179 -2.4246 0.9697
-0.4061 -7.2829 -2.4246 0.9697
0.2437 -7.2902 -2.4246 0.9697
0.8916 -7.2396 -2.4246 0.9697
4.4566 -5.7745 -2.4246 0.9697
5.4098 -4.8929 -2.4246 0.9697
5.8238 -4.3920 -2.4246 0.9697
6.6927 -1.9946 -2.3214 0.9710
6.8437 -1.3910 -2.3214 0.9710
6.9403 -0.7764 -2.3214 0.9710
6.9680 0.4664 -2.3214 0.9710
6.5972 2.2908 -2.3214 0.9710
6.4665 2.9137 -2.3576 0.9705
6.3572 3.5765 -2.4246 0.9697
5.6224 4.6470 -2.4246 0.9697
5.1865 5.1290 -2.4246 0.9697
4.1949 5.9673 -2.4246 0.9697
3.0704 6.6165 -2.4246 0.9697
1.8486 7.0561 -2.4246 0.9697
-1.3732 7.1638 -2.4246 0.9697
-1.9201 6.7150 -2.3216 0.9710
-2.5101 6.5174 -2.3216 0.9710
-3.0803 6.2682 -2.3216 0.9710
-3.6259 5.9691 -2.3216 0.9710
-4.1428 5.6227 -2.3216 0.9710
-4.6268 5.2317 -2.3216 0.9710
-5.4811 4.3284 -2.3216 0.9710
-5.5190 3.6103 -2.1922 0.9726
-8.9640 4.7833 -3.3774 0.9581
-5.5084 2.3357 -1.9888 0.9751
-5.5212 1.7803 -1.9283 0.9758
-15.3012 2.0578 -5.1320 0.9370
-18.5024 0.8250 -6.1564 0.9249
-18.7836 -0.8376 -6.2500 0.9238
-5.6915 -1.8353 -1.9878 0.9751
-5.5950 -2.3725 -2.0201 0.9747
-5.5962 -2.9862 -2.1085 0.9736
-5.4811 -4.3284 -2.3216 0.9710
-5.0741 -4.7991 -2.3216 0.9710
-4.1428 -5.6227 -2.3216 0.9710
-3.0803 -6.2682 -2.3216 0.9710
-1.3732 -7.1638 -2.4246 0.9697
0.5682 -7.2721 -2.4246 0.9697
1.2132 -7.1927 -2.4246 0.9697
2.4693 -6.8636 -2.4246 0.9697
3.0704 -6.6165 -2.4246 0.9697
3.6471 -6.3170 -2.4246 0.9697
4.1949 -5.9673 -2.4246 0.9697
6.0137 -4.1282 -2.4246 0.9697
6.4665 -2.9137 -2.3576 0.9705
6.5972 -2.2908 -2.3214 0.9710
6.7749 -1.6945 -2.3214 0.9710
6.9680 -0.4665 -2.3214 0.9710
6.9403 0.7764 -2.3214 0.9710
6.8437 1.3910 -2.3214 0.9710
6.6927 1.9946 -2.3214 0.9710
5.8238 4.3920 -2.4246 0.9697
5.4098 4.8929 -2.4246 0.9697
4.9528 5.3549 -2.4246 0.9697
3.9249 6.1483 -2.4246 0.9697
3.3621 6.4732 -2.4246 0.9697
2.7726 6.7468 -2.4246 0.9697
0.2437 7.2902 -2.4246 0.9697
-0.4061 7.2829 -2.4246 0.9697
-1.6191 6.7939 -2.3216 0.9710
-2.7980 6.3992 -2.3216 0.9710
-3.3564 6.1247 -2.3216 0.9710
-10.0100 3.7278 -3.5506 0.9560
-12.4570 2.2443 -4.2075 0.9480
-18.4354 0.0000 -6.5926 0.9247
-18.4835 -1.6517 -6.6362 0.9242
-5.5091 -1.5091 -2.0427 0.9760
-5.5944 -2.0834 -2.1348 0.9750
-5.5956 -2.6728 -2.2176 0.9740
-5.2690 -3.7924 -2.3216 0.9728
-4.9106 -4.2463 -2.3216 0.9728
-4.5131 -4.6666 -2.3216 0.9728
-4.0799 -5.0497 -2.3216 0.9728
-3.6142 -5.3928 -2.3216 0.9728
-2.0611 -6.1561 -2.3216 0.9728
-1.5718 -6.5955 -2.4246 0.9716
-0.9785 -6.7092 -2.4246 0.9716
-0.3775 -6.7697 -2.4246 0.9716
1.4245 -6.6289 -2.4246 0.9716
2.0088 -6.4758 -2.4246 0.9716
3.1252 -6.0170 -2.4246 0.9716
4.1425 -5.3676 -2.4246 0.9716
4.6038 -4.9776 -2.4246 0.9716
5.4134 -4.0824 -2.4246 0.9716
5.7553 -3.5844 -2.4246 0.9716
6.0515 -3.0579 -2.4246 0.9716
6.4899 -0.1446 -2.3214 0.9728
6.4704 1.0174 -2.3423 0.9726
6.1817 2.7853 -2.4246 0.9716
5.9092 3.3245 -2.4246 0.9716
5.5899 3.8372 -2.4246 0.9716
5.2262 4.3195 -2.4246 0.9716
4.8210 4.7675 -2.4246 0.9716
3.8993 5.5468 -2.4246 0.9716
2.8540 6.1503 -2.4246 0.9716
2.2953 6.3799 -2.4246 0.9716
1.7183 6.5588 -2.4246 0.9716
1.1277 6.6858 -2.4246 0.9716
0.5282 6.7596 -2.4246 0.9716
-0.0755 6.7798 -2.4246 0.9716
-0.6787 6.7462 -2.4246 0.9716
-2.3332 6.0581 -2.3216 0.9728
-2.8632 5.8264 -2.3216 0.9728
-3.3704 5.5485 -2.3216 0.9728
-3.8509 5.2265 -2.3216 0.9728
-4.3008 4.8630 -2.3216 0.9728
-4.7165 4.4609 -2.3216 0.9728
-5.0949 4.0234 -2.3216 0.9728
-9.1542 3.8817 -3.5558 0.9586
-9.9136 3.1967 -3.7249 0.9567
-5.5014 1.2464 -2.0172 0.9763
-18.4970 -0.8249 -6.6213 0.9244
-5.5089 -0.7409 -1.9878 0.9767
-5.6915 -1.8353 -2.1385 0.9749
-5.5962 -2.9862 -2.2683 0.9734
-5.4327 -3.5539 -2.3216 0.9728
-5.0949 -4.0234 -2.3216 0.9728
-4.3008 -4.8630 -2.3216 0.9728
-3.8509 -5.2264 -2.3216 0.9728
-2.8632 -5.8264 -2.3216 0.9728
-2.3332 -6.0581 -2.3216 0.9728
-1.7848 -6.2418 -2.3216 0.9728
-0.6787 -6.7462 -2.4246 0.9716
0.5282 -6.7596 -2.4246 0.9716
1.1277 -6.6858 -2.4246 0.9716
1.7183 -6.5588 -2.4246 0.9716
2.2953 -6.3799 -2.4246 0.9716
3.3901 -5.8718 -2.4246 0.9716
4.8210 -4.7676 -2.4246 0.9716
5.5899 -3.8372 -2.4246 0.9716
5.9092 -3.3245 -2.4246 0.9716
6.1817 -2.7853 -2.4246 0.9716
6.4630 -1.6165 -2.3824 0.9721
6.4704 -1.0174 -2.3423 0.9726
6.4737 0.7242 -2.3295 0.9727
6.4630 1.9262 -2.4117 0.9718
6.2996 2.5072 -2.4246 0.9716
5.0286 4.5481 -2.4246 0.9716
4.6038 4.9776 -2.4246 0.9716
1.4245 6.6289 -2.4246 0.9716
0.8288 6.7294 -2.4246 0.9716
0.2266 6.7764 -2.4246 0.9716
-0.3775 6.7697 -2.4246 0.9716
-2.6008 5.9482 -2.3216 0.9728
-3.6142 5.3928 -2.3216 0.9728
-4.0799 5.0497 -2.3216 0.9728
-5.2690 3.7924 -2.3216 0.9728
-5.5857 3.3084 -2.3216 0.9728
-8.8329 4.2191 -3.5005 0.9593
-10.3791 2.8431 -3.8484 0.9553
-18.5215 1.6551 -6.6498 0.9240
-5.5089 -0.4923 -2.1195 0.9766
-5.5944 -2.0834 -2.2877 0.9748
-5.2124 -3.0873 -2.3216 0.9744
-4.5824 -3.9626 -2.3216 0.9744
-4.2115 -4.3547 -2.3216 0.9744
-1.9233 -5.7446 -2.3216 0.9744
-1.4667 -6.1547 -2.4246 0.9733
-0.9131 -6.2608 -2.4246 0.9733
2.9163 -5.6149 -2.4246 0.9733
4.2961 -4.6449 -2.4246 0.9733
4.6925 -4.2441 -2.4246 0.9733
5.0516 -3.8096 -2.4246 0.9733
5.8786 -2.3396 -2.4246 0.9733
6.0635 -1.8071 -2.4246 0.9733
6.2503 0.9828 -2.4246 0.9733
5.9770 2.0754 -2.4246 0.9733
5.7685 2.5992 -2.4246 0.9733
5.5143 3.1023 -2.4246 0.9733
5.2163 3.5808 -2.4246 0.9733
4.4988 4.4489 -2.4246 0.9733
4.0849 4.8317 -2.4246 0.9733
2.6633 5.7392 -2.4246 0.9733
1.6035 6.1205 -2.4246 0.9733
0.4929 6.3079 -2.4246 0.9733
-0.6333 6.2953 -2.4246 0.9733
-1.6655 5.8246 -2.3216 0.9744
-2.6718 5.4370 -2.3216 0.9744
-4.0134 4.5380 -2.3216 0.9744
-4.4013 4.1628 -2.3216 0.9744
-4.7544 3.7545 -2.3216 0.9744
-5.5774 2.3650 -2.3216 0.9744
-5.5081 1.7761 -2.2178 0.9755
-5.5014 1.2464 -2.1617 0.9761
-11.5635 1.5551 -4.4712 0.9512
-18.5645 -0.8279 -7.1214 0.9235
-5.6915 -1.8353 -2.2917 0.9747
-5.3447 -2.8520 -2.3216 0.9744
-5.0697 -3.3164 -2.3216 0.9744
-4.7544 -3.7545 -2.3216 0.9744
-4.4013 -4.1628 -2.3216 0.9744
-4.0134 -4.5380 -2.3216 0.9744
-3.5935 -4.8772 -2.3216 0.9744
-2.6718 -5.4371 -2.3216 0.9744
-1.6655 -5.8246 -2.3216 0.9744
-0.6333 -6.2953 -2.4246 0.9733
1.0524 -6.2389 -2.4246 0.9733
1.6035 -6.1205 -2.4246 0.9733
2.1419 -5.9535 -2.4246 0.9733
2.6633 -5.7392 -2.4246 0.9733
3.1635 -5.4794 -2.4246 0.9733
3.6387 -5.1761 -2.4246 0.9733
4.0849 -4.8317 -2.4246 0.9733
4.4988 -4.4489 -2.4246 0.9733
6.3129 -0.4226 -2.4246 0.9733
5.3706 3.3449 -2.4246 0.9733
2.9163 5.6149 -2.4246 0.9733
2.4050 5.8522 -2.4246 0.9733
1.8746 6.0430 -2.4246 0.9733
-0.3522 6.3173 -2.4246 0.9733
-0.9131 6.2608 -2.4246 0.9733
-2.4270 5.5507 -2.3216 0.9744
-2.9114 5.3126 -2.3216 0.9744
-3.3727 5.0324 -2.3216 0.9744
-4.2115 4.3547 -2.3216 0.9744
-4.9169 3.5390 -2.3216 0.9744
-5.4665 2.6111 -2.3216 0.9744
-9.0161 3.3577 -3.6870 0.9596
-13.1173 1.1721 -5.0468 0.9451
-17.9873 0.0000 -7.3617 0.9252
-1.6390 -0.1465 -0.6735 0.9929
-1.6200 -0.2919 -0.6737 0.9929
-5.3157 -1.9796 -2.3216 0.9758
-4.8805 -2.8907 -2.3216 0.9758
-3.9434 -4.0774 -2.3216 0.9758
-3.1580 -4.7120 -2.3216 0.9758
-2.2725 -5.1973 -2.3216 0.9758
-0.8550 -5.8622 -2.4246 0.9747
2.2519 -5.4796 -2.4246 0.9747
2.7306 -5.2574 -2.4246 0.9747
3.6195 -4.6900 -2.4246 0.9747
4.0226 -4.3492 -2.4246 0.9747
4.7300 -3.5671 -2.4246 0.9747
5.2875 -2.6719 -2.4246 0.9747
5.5043 -2.1907 -2.4246 0.9747
5.6775 -1.6921 -2.4246 0.9747
5.8055 -1.1800 -2.4246 0.9747
5.8523 0.9202 -2.4246 0.9747
5.7472 1.4375 -2.4246 0.9747
5.5965 1.9433 -2.4246 0.9747
5.4013 2.4337 -2.4246 0.9747
3.8249 4.5241 -2.4246 0.9747
3.4070 4.8466 -2.4246 0.9747
2.9621 5.1305 -2.4246 0.9747
2.0055 5.5745 -2.4246 0.9747
0.9854 5.8417 -2.4246 0.9747
0.4615 5.9062 -2.4246 0.9747
-0.5930 5.8945 -2.4246 0.9747
-1.5855 5.5450 -2.3604 0.9754
-2.0387 5.2933 -2.3216 0.9758
-2.5017 5.0909 -2.3216 0.9758
-2.9449 4.8480 -2.3216 0.9758
-3.3647 4.5667 -2.3216 0.9758
-3.7578 4.2490 -2.3216 0.9758
-4.1211 3.8977 -2.3216 0.9758
-5.0044 2.6704 -2.3216 0.9758
-5.2223 2.2144 -2.3216 0.9758
-1.6146 0.3658 -0.6776 0.9929
-17.5706 0.7835 -7.1984 0.9268
-1.6146 -0.3658 -0.6776 0.9929
-5.2223 -2.2144 -2.3216 0.9758
-5.0044 -2.6704 -2.3216 0.9758
-4.1211 -3.8977 -2.3216 0.9758
-2.5017 -5.0909 -2.3216 0.9758
-2.0387 -5.2934 -2.3216 0.9758
-1.5855 -5.5449 -2.3604 0.9754
3.8249 -4.5241 -2.4246 0.9747
4.2123 -4.1657 -2.4246 0.9747
4.5664 -3.7742 -2.4246 0.9747
4.8842 -3.3528 -2.4246 0.9747
5.1632 -2.9048 -2.4246 0.9747
5.4013 -2.4337 -2.4246 0.9747
5.7472 -1.4375 -2.4246 0.9747
5.8523 -0.9202 -2.4246 0.9747
5.9110 -0.3957 -2.4246 0.9747
5.8055 1.1800 -2.4246 0.9747
5.6775 1.6921 -2.4246 0.9747
4.7300 3.5671 -2.4246 0.9747
4.0226 4.3492 -2.4246 0.9747
3.6195 4.6900 -2.4246 0.9747
3.1877 4.9935 -2.4246 0.9747
2.7306 5.2574 -2.4246 0.9747
1.2446 5.7920 -2.4246 0.9747
0.1980 5.9210 -2.4246 0.9747
-0.3298 5.9151 -2.4246 0.9747
-0.8550 5.8622 -2.4246 0.9747
-2.7260 4.9744 -2.3216 0.9758
-3.5648 4.4122 -2.3216 0.9758
-3.9434 4.0775 -2.3216 0.9758
-4.2907 3.7103 -2.3216 0.9758
-4.6039 3.3137 -2.3216 0.9758
-4.8805 2.8907 -2.3216 0.9758
-5.1184 2.4449 -2.3216 0.9758
-1.6035 0.4392 -0.6804 0.9928
-1.6200 0.2919 -0.6737 0.9929
-1.6390 0.1465 -0.6735 0.9929
-1.5266 0.0000 -0.6653 0.9934
-1.5001 -0.4109 -0.6779 0.9932
-4.9920 -1.8590 -2.3216 0.9770
-4.8067 -2.2960 -2.3216 0.9770
-4.5833 -2.7147 -2.3216 0.9770
-4.3235 -3.1118 -2.3216 0.9770
-4.0293 -3.4843 -2.3216 0.9770
-3.7032 -3.8291 -2.3216 0.9770
-3.3477 -4.1435 -2.3216 0.9770
-2.1341 -4.8807 -2.3216 0.9770
-1.6912 -5.0513 -2.3216 0.9770
-1.2897 -5.4119 -2.4246 0.9760
-0.8029 -5.5052 -2.4246 0.9760
0.1859 -5.5604 -2.4246 0.9760
1.1688 -5.4393 -2.4246 0.9760
1.6483 -5.3137 -2.4246 0.9760
3.3991 -4.4043 -2.4246 0.9760
4.4419 -3.3498 -2.4246 0.9760
5.5290 -0.6185 -2.4246 0.9760
5.5621 -0.1239 -2.4246 0.9760
5.4959 0.8642 -2.4246 0.9760
5.0723 2.2855 -2.4246 0.9760
4.8488 2.7279 -2.4246 0.9760
3.1995 4.5514 -2.4246 0.9760
2.3419 5.0466 -2.4246 0.9760
1.8834 5.2350 -2.4246 0.9760
1.4100 5.3818 -2.4246 0.9760
0.9254 5.4860 -2.4246 0.9760
-0.0620 5.5631 -2.4246 0.9760
-0.5569 5.5355 -2.4246 0.9760
-1.0474 5.4640 -2.4246 0.9760
-1.9145 4.9710 -2.3216 0.9770
-2.3494 4.7808 -2.3216 0.9770
-2.7656 4.5528 -2.3216 0.9770
-3.5290 3.9903 -2.3216 0.9770
-4.1806 3.3013 -2.3216 0.9770
-4.4578 2.9162 -2.3216 0.9770
-1.4861 0.4792 -0.6805 0.9932
-1.5029 0.3405 -0.6716 0.9933
-1.5259 0.0680 -0.6657 0.9934
-1.5259 -0.0680 -0.6657 0.9934
-1.5029 -0.3405 -0.6716 0.9933
-4.6997 -2.5078 -2.3216 0.9770
-4.1806 -3.3013 -2.3216 0.9770
-3.5290 -3.9903 -2.3216 0.9770
-1.9145 -4.9710 -2.3216 0.9770
-1.5295 -5.3491 -2.4246 0.9760
-1.0474 -5.4640 -2.4246 0.9760
-0.0620 -5.5631 -2.4246 0.9760
0.9254 -5.4860 -2.4246 0.9760
1.4100 -5.3818 -2.4246 0.9760
1.8834 -5.2350 -2.4246 0.9760
2.3419 -5.0466 -2.4246 0.9760
2.7817 -4.8181 -2.4246 0.9760
3.1995 -4.5514 -2.4246 0.9760
3.9558 -3.9120 -2.4246 0.9760
4.8488 -2.7279 -2.4246 0.9760
5.2556 -1.8250 -2.4246 0.9760
5.3972 -1.3499 -2.4246 0.9760
5.4959 -0.8642 -2.4246 0.9760
5.5510 -0.3716 -2.4246 0.9760
5.4520 1.1081 -2.4246 0.9760
5.1691 2.0573 -2.4246 0.9760
4.9655 2.5092 -2.4246 0.9760
4.7225 2.9412 -2.4246 0.9760
4.1262 3.7319 -2.4246 0.9760
3.7776 4.0843 -2.4246 0.9760
2.5643 4.9372 -2.4246 0.9760
1.1688 5.4393 -2.4246 0.9760
0.6801 5.5217 -2.4246 0.9760
0.1859 5.5604 -2.4246 0.9760
-0.8029 5.5052 -2.4246 0.9760
-1.6912 5.0513 -2.3216 0.9770
-2.1341 4.8808 -2.3216 0.9770
-2.0997 3.1329 -1.6437 0.9837
-4.0293 3.4843 -2.3216 0.9770
-4.3235 3.1118 -2.3216 0.9770
-4.5833 2.7147 -2.3216 0.9770
-4.9920 1.8590 -2.3216 0.9770
-1.5215 0.1360 -0.6657 0.9934
-1.4219 0.0000 -0.6582 0.9938
-1.3993 -0.2521 -0.6581 0.9938
-1.3946 -0.3820 -0.6693 0.9936
-4.7001 -1.7503 -2.3216 0.9781
-4.3153 -2.5559 -2.3216 0.9781
-3.7937 -3.2805 -2.3216 0.9781
-3.1520 -3.9012 -2.3216 0.9781
-2.4103 -4.3983 -2.3216 0.9781
-2.0093 -4.5953 -2.3216 0.9781
-1.5939 -4.7609 -2.3240 0.9781
-1.2143 -5.0954 -2.4246 0.9772
-0.2916 -5.2300 -2.4246 0.9772
0.1750 -5.2352 -2.4246 0.9772
0.6403 -5.1988 -2.4246 0.9772
1.1005 -5.1212 -2.4246 0.9772
1.5519 -5.0029 -2.4246 0.9772
1.9911 -4.8450 -2.4246 0.9772
3.2003 -4.1468 -2.4246 0.9772
3.5567 -3.8455 -2.4246 0.9772
3.8849 -3.5137 -2.4246 0.9772
4.8668 -1.9370 -2.4246 0.9772
5.0199 -1.4961 -2.4246 0.9772
5.1332 -1.0434 -2.4246 0.9772
5.2368 -0.1167 -2.4246 0.9772
5.0816 1.2710 -2.4246 0.9772
4.9483 1.7182 -2.4246 0.9772
4.5652 2.5684 -2.4246 0.9772
4.0375 3.3371 -2.4246 0.9772
3.7245 3.6832 -2.4246 0.9772
3.3819 4.0001 -2.4246 0.9772
3.0124 4.2852 -2.4246 0.9772
1.7733 4.9288 -2.4246 0.9772
-0.9861 5.1445 -2.4246 0.9772
-1.4401 5.0363 -2.4246 0.9772
-2.2120 4.5013 -2.3216 0.9781
-2.6039 4.2865 -2.3216 0.9781
-3.3226 3.7569 -2.3216 0.9781
-3.6438 3.4463 -2.3216 0.9781
-4.1971 2.7456 -2.3216 0.9781
-4.4248 2.3612 -2.3216 0.9781
-1.4099 0.1896 -0.6585 0.9937
-1.4212 0.0634 -0.6585 0.9937
-1.4099 -0.1896 -0.6585 0.9937
-1.3890 -0.4479 -0.6755 0.9936
-4.6174 -1.9580 -2.3216 0.9781
-4.1971 -2.7456 -2.3216 0.9781
-3.9361 -3.1083 -2.3216 0.9781
-3.6438 -3.4463 -2.3216 0.9781
-3.3226 -3.7570 -2.3216 0.9781
-2.9750 -4.0378 -2.3216 0.9781
-2.6039 -4.2865 -2.3216 0.9781
-1.8026 -4.6803 -2.3216 0.9781
-1.4401 -5.0363 -2.4246 0.9772
-0.9861 -5.1445 -2.4246 0.9772
0.4081 -5.2222 -2.4246 0.9772
0.8713 -5.1652 -2.4246 0.9772
2.2049 -4.7514 -2.4246 0.9772
2.6191 -4.5363 -2.4246 0.9772
3.7245 -3.6832 -2.4246 0.9772
4.3185 -2.9645 -2.4246 0.9772
4.5652 -2.5684 -2.4246 0.9772
4.9483 -1.7182 -2.4246 0.9772
5.2264 -0.3498 -2.4246 0.9772
5.2368 0.1167 -2.4246 0.9772
5.2057 0.5823 -2.4246 0.9772
5.1332 1.0434 -2.4246 0.9772
5.0199 1.4961 -2.4246 0.9772
4.6751 2.3624 -2.4246 0.9772
4.4463 2.7692 -2.4246 0.9772
3.8849 3.5137 -2.4246 0.9772
3.2003 4.1468 -2.4246 0.9772
2.4144 4.6485 -2.4246 0.9772
1.9911 4.8449 -2.4246 0.9772
0.1750 5.2352 -2.4246 0.9772
-0.2916 5.2300 -2.4246 0.9772
-0.7560 5.1833 -2.4246 0.9772
-1.2143 5.0954 -2.4246 0.9772
-2.0093 4.5954 -2.3216 0.9781
-2.4103 4.3983 -2.3216 0.9781
-3.4867 3.6052 -2.3216 0.9781
-4.3153 2.5559 -2.3216 0.9781
-1.3946 0.3820 -0.6693 0.9936
-1.4172 0.1266 -0.6586 0.9937
-1.3317 -0.1190 -0.6558 0.9941
-1.3061 -0.3578 -0.6642 0.9940
-1.2931 -0.4815 -0.6768 0.9939
-3.8413 -2.7648 -2.3216 0.9791
-3.2902 -3.4021 -2.3216 0.9791
-2.9744 -3.6814 -2.3216 0.9791
-2.0470 -3.0543 -1.8036 0.9838
-1.8961 -4.3364 -2.3216 0.9791
-1.1459 -4.8083 -2.4246 0.9782
-0.2752 -4.9353 -2.4246 0.9782
3.0200 -3.9131 -2.4246 0.9782
4.1958 -2.6132 -2.4246 0.9782
4.4117 -2.2293 -2.4246 0.9782
4.7371 -1.4118 -2.4246 0.9782
4.8439 -0.9846 -2.4246 0.9782
4.9123 -0.5495 -2.4246 0.9782
4.9319 0.3302 -2.4246 0.9782
4.8830 0.7678 -2.4246 0.9782
4.7953 1.1994 -2.4246 0.9782
4.5066 2.0306 -2.4246 0.9782
4.0752 2.7975 -2.4246 0.9782
3.5146 3.4757 -2.4246 0.9782
2.4715 4.2808 -2.4246 0.9782
1.2527 4.7816 -2.4246 0.9782
-0.4948 4.9182 -2.4246 0.9782
-0.9305 4.8546 -2.4246 0.9782
-1.3589 4.7525 -2.4246 0.9782
-2.1792 2.9577 -1.8021 0.9838
-3.7143 2.9332 -2.3216 0.9791
-1.3003 0.4193 -0.6702 0.9939
-1.3089 0.2966 -0.6583 0.9940
-4.3573 -1.8477 -2.3216 0.9791
-3.7143 -2.9332 -2.3216 0.9791
-1.7010 -4.4166 -2.3216 0.9791
-1.3589 -4.7525 -2.4246 0.9782
-0.9306 -4.8546 -2.4246 0.9782
-0.4948 -4.9182 -2.4246 0.9782
0.3851 -4.9280 -2.4246 0.9782
0.8222 -4.8741 -2.4246 0.9782
2.0807 -4.4837 -2.4246 0.9782
2.4715 -4.2807 -2.4246 0.9782
3.8100 -3.1491 -2.4246 0.9782
4.0752 -2.7975 -2.4246 0.9782
4.3080 -2.4237 -2.4246 0.9782
4.6695 -1.6214 -2.4246 0.9782
4.7953 -1.1994 -2.4246 0.9782
4.9123 0.5495 -2.4246 0.9782
4.8439 0.9846 -2.4246 0.9782
4.1958 2.6131 -2.4246 0.9782
3.9465 2.9762 -2.4246 0.9782
2.2783 4.3866 -2.4246 0.9782
1.8789 4.5720 -2.4246 0.9782
1.4645 4.7211 -2.4246 0.9782
0.1652 4.9402 -2.4246 0.9782
-0.7134 4.8912 -2.4246 0.9782
-1.1459 4.8083 -2.4246 0.9782
-1.8961 4.3364 -2.3216 0.9791
-2.0379 3.0408 -1.7956 0.9838
-2.9744 3.6814 -2.3216 0.9791
-3.2902 3.4021 -2.3216 0.9791
-3.5800 3.0957 -2.3216 0.9791
-4.0721 2.4119 -2.3216 0.9791
-4.2706 2.0399 -2.3216 0.9791
-1.2931 0.4815 -0.6768 0.9939
-1.3061 0.3578 -0.6642 0.9940
-1.3159 0.2371 -0.6559 0.9941
-1.3317 0.1190 -0.6558 0.9941
-1.2426 -0.2239 -0.6550 0.9943
-3.8503 -2.2806 -2.3216 0.9800
-3.6321 -2.6142 -2.3216 0.9800
-3.3850 -2.9271 -2.3216 0.9800
-2.0404 -3.0445 -1.9013 0.9836
-2.1506 -3.9244 -2.3216 0.9800
-1.4838 -4.4320 -2.4246 0.9792
-1.0835 -4.5464 -2.4246 0.9792
-0.2602 -4.6665 -2.4246 0.9792
0.1562 -4.6712 -2.4246 0.9792
0.9819 -4.5695 -2.4246 0.9792
2.1543 -4.1477 -2.4246 0.9792
2.5149 -3.9395 -2.4246 0.9792
2.8555 -3.7000 -2.4246 0.9792
3.7316 -2.8141 -2.4246 0.9792
3.9672 -2.4708 -2.4246 0.9792
4.4791 -1.3349 -2.4246 0.9792
4.6726 -0.1041 -2.4246 0.9792
4.5341 1.1341 -2.4246 0.9792
3.8532 2.6451 -2.4246 0.9792
3.6025 2.9776 -2.4246 0.9792
3.3232 3.2864 -2.4246 0.9792
2.6879 3.8235 -2.4246 0.9792
2.3369 4.0476 -2.4246 0.9792
1.1845 4.5212 -2.4246 0.9792
0.7774 4.6087 -2.4246 0.9792
0.3641 4.6596 -2.4246 0.9792
-0.0521 4.6735 -2.4246 0.9792
-0.4678 4.6503 -2.4246 0.9792
-1.6084 4.1760 -2.3216 0.9800
-1.9737 4.0163 -2.3216 0.9800
-2.3233 3.8247 -2.3216 0.9800
-2.1761 2.9534 -1.9031 0.9836
-3.2512 3.0750 -2.3216 0.9800
-3.7449 2.4498 -2.3216 0.9800
-4.1199 1.7470 -2.3216 0.9800
-1.2316 0.2790 -0.6551 0.9943
-1.2514 0.1683 -0.6551 0.9943
-1.2613 0.0562 -0.6550 0.9943
-1.2613 -0.0562 -0.6550 0.9943
-1.2222 -0.3941 -0.6662 0.9942
-4.1199 -1.7470 -2.3216 0.9800
-3.9481 -2.1068 -2.3216 0.9800
-2.9646 -3.3521 -2.3216 0.9800
-2.6545 -3.6027 -2.3216 0.9800
-1.6084 -4.1760 -2.3216 0.9800
-0.0521 -4.6735 -2.4246 0.9792
0.3641 -4.6596 -2.4246 0.9792
0.7774 -4.6087 -2.4246 0.9792
1.1845 -4.5212 -2.4246 0.9792
1.5822 -4.3978 -2.4246 0.9792
1.9673 -4.2395 -2.4246 0.9792
2.6879 -3.8235 -2.4246 0.9792
3.0175 -3.5691 -2.4246 0.9792
3.3232 -3.2864 -2.4246 0.9792
3.6025 -2.9776 -2.4246 0.9792
4.4152 -1.5331 -2.4246 0.9792
4.5341 -1.1341 -2.4246 0.9792
4.6633 -0.3122 -2.4246 0.9792
4.6726 0.1041 -2.4246 0.9792
4.6448 0.5196 -2.4246 0.9792
4.4791 1.3349 -2.4246 0.9792
3.9672 2.4708 -2.4246 0.9792
3.7316 2.8141 -2.4246 0.9792
3.1735 3.4312 -2.4246 0.9792
2.5149 3.9395 -2.4246 0.9792
1.7765 4.3229 -2.4246 0.9792
0.5713 4.6387 -2.4246 0.9792
-0.2602 4.6665 -2.4246 0.9792
-1.0835 4.5464 -2.4246 0.9792
-1.4838 4.4320 -2.4246 0.9792
-1.7928 4.1002 -2.3216 0.9800
-2.0337 3.0345 -1.8951 0.9837
-3.1110 3.2168 -2.3216 0.9800
-3.6321 2.6142 -2.3216 0.9800
-3.8503 2.2806 -2.3216 0.9800
-4.0380 1.9288 -2.3216 0.9800
-1.2162 0.4529 -0.6733 0.9942
-1.2283 0.3365 -0.6607 0.9943
-1.2576 0.1124 -0.6550 0.9943
-1.1944 0.0000 -0.6542 0.9946
-1.1899 -0.1063 -0.6543 0.9946
-1.1756 -0.2118 -0.6543 0.9946
-1.1464 -0.4269 -0.6700 0.9944
-2.9467 -3.0469 -2.3216 0.9809
-2.0404 -3.0445 -2.0074 0.9834
-2.0370 -3.7171 -2.3216 0.9809
-1.4055 -4.1979 -2.4246 0.9800
-1.0263 -4.3063 -2.4246 0.9800
0.1479 -4.4245 -2.4246 0.9800
0.5411 -4.3937 -2.4246 0.9800
1.3116 -4.2282 -2.4246 0.9800
2.0405 -3.9286 -2.4246 0.9800
2.3821 -3.7314 -2.4246 0.9800
2.7047 -3.5046 -2.4246 0.9800
3.0059 -3.2500 -2.4246 0.9800
3.2832 -2.9695 -2.4246 0.9800
3.5345 -2.6655 -2.4246 0.9800
3.7577 -2.3403 -2.4246 0.9800
4.1132 -1.6370 -2.4246 0.9800
4.2425 -1.2644 -2.4246 0.9800
4.3382 -0.8818 -2.4246 0.9800
4.3995 -0.4921 -2.4246 0.9800
4.4258 -0.0986 -2.4246 0.9800
4.2946 1.0742 -2.4246 0.9800
3.6498 2.5054 -2.4246 0.9800
2.5459 3.6216 -2.4246 0.9800
2.2135 3.8338 -2.4246 0.9800
0.7363 4.3653 -2.4246 0.9800
0.3449 4.4135 -2.4246 0.9800
-0.8334 4.3478 -2.4246 0.9800
-1.8694 3.8042 -2.3216 0.9809
-3.3265 2.6269 -2.3216 0.9809
-3.5471 2.3204 -2.3216 0.9809
-3.7396 1.9955 -2.3216 0.9809
-1.1411 0.4838 -0.6788 0.9944
-1.1515 0.3713 -0.6626 0.9945
-1.1840 0.1592 -0.6543 0.9946
-1.1933 0.0532 -0.6542 0.9946
-1.1649 -0.2639 -0.6542 0.9946
-1.1515 -0.3713 -0.6626 0.9945
-1.1411 -0.4838 -0.6788 0.9944
-3.5472 -2.3204 -2.3216 0.9809
-3.3265 -2.6269 -2.3216 0.9809
-2.8081 -3.1751 -2.3216 0.9809
-2.5143 -3.4125 -2.3216 0.9809
-1.2171 -4.2563 -2.4246 0.9800
-0.8334 -4.3478 -2.4246 0.9800
-0.4431 -4.4047 -2.4246 0.9800
-0.0493 -4.4267 -2.4246 0.9800
0.3449 -4.4135 -2.4246 0.9800
1.4986 -4.1655 -2.4246 0.9800
2.2135 -3.8338 -2.4246 0.9800
3.4123 -2.8203 -2.4246 0.9800
3.6497 -2.5054 -2.4246 0.9800
4.0361 -1.8186 -2.4246 0.9800
4.1820 -1.4521 -2.4246 0.9800
4.2946 -1.0742 -2.4246 0.9800
4.3732 -0.6877 -2.4246 0.9800
4.4171 -0.2957 -2.4246 0.9800
4.3995 0.4921 -2.4246 0.9800
4.2425 1.2644 -2.4246 0.9800
4.1132 1.6370 -2.4246 0.9800
3.9511 1.9966 -2.4246 0.9800
3.7577 2.3403 -2.4246 0.9800
3.5345 2.6655 -2.4246 0.9800
3.2832 2.9695 -2.4246 0.9800
2.0405 3.9287 -2.4246 0.9800
1.6827 4.0947 -2.4246 0.9800
1.3116 4.2282 -2.4246 0.9800
0.9301 4.3281 -2.4246 0.9800
0.5411 4.3937 -2.4246 0.9800
0.1479 4.4245 -2.4246 0.9800
-0.6389 4.3806 -2.4246 0.9800
-1.0263 4.3063 -2.4246 0.9800
-1.4055 4.1979 -2.4246 0.9800
-2.0294 3.0281 -1.9965 0.9835
-3.2062 2.7725 -2.3216 0.9809
-3.4403 2.4762 -2.3216 0.9809
-3.6470 2.1601 -2.3216 0.9809
-3.8248 1.8270 -2.3216 0.9809
-1.1899 0.1063 -0.6543 0.9946
-1.1319 0.0000 -0.6535 0.9948
-1.1276 -0.1008 -0.6536 0.9948
-1.1141 -0.2007 -0.6536 0.9948
-1.0934 -0.2995 -0.6545 0.9948
-1.0827 -0.4032 -0.6671 0.9947
-3.6284 -1.7331 -2.3216 0.9816
-2.7954 -2.8904 -2.3216 0.9816
-2.0404 -3.0445 -2.1160 0.9832
-1.3333 -3.9823 -2.4246 0.9808
-0.6061 -4.1557 -2.4246 0.9808
-0.2338 -4.1931 -2.4246 0.9808
0.1403 -4.1973 -2.4246 0.9808
0.8823 -4.1059 -2.4246 0.9808
1.2442 -4.0111 -2.4246 0.9808
1.5963 -3.8844 -2.4246 0.9808
2.5658 -3.3246 -2.4246 0.9808
2.8516 -3.0831 -2.4246 0.9808
3.3530 -2.5286 -2.4246 0.9808
3.5648 -2.2202 -2.4246 0.9808
3.7482 -1.8941 -2.4246 0.9808
4.1155 -0.8365 -2.4246 0.9808
4.1736 -0.4669 -2.4246 0.9808
4.1986 -0.0936 -2.4246 0.9808
4.0741 1.0190 -2.4246 0.9808
3.8289 1.7252 -2.4246 0.9808
3.4623 2.3768 -2.4246 0.9808
2.7114 3.2070 -2.4246 0.9808
2.4152 3.4356 -2.4246 0.9808
1.4217 3.9516 -2.4246 0.9808
1.0643 4.0625 -2.4246 0.9808
0.6985 4.1411 -2.4246 0.9808
0.3272 4.1868 -2.4246 0.9808
-0.7906 4.1245 -2.4246 0.9808
-1.1546 4.0378 -2.4246 0.9808
-1.5094 3.9190 -2.4246 0.9808
-1.7753 3.6127 -2.3240 0.9816
-2.0876 3.4367 -2.3216 0.9816
-3.1557 2.4921 -2.3216 0.9816
-3.3650 2.2013 -2.3216 0.9816
-3.5476 1.8930 -2.3216 0.9816
-1.0870 0.3505 -0.6594 0.9947
-1.1039 0.2501 -0.6535 0.9948
-1.1309 0.0504 -0.6536 0.9948
-1.1309 -0.0504 -0.6536 0.9948
-3.5476 -1.8930 -2.3216 0.9816
-3.1557 -2.4921 -2.3216 0.9816
-1.1546 -4.0378 -2.4246 0.9808
-0.7906 -4.1245 -2.4246 0.9808
-0.4204 -4.1785 -2.4246 0.9808
-0.0468 -4.1994 -2.4246 0.9808
0.6985 -4.1411 -2.4246 0.9808
1.0643 -4.0625 -2.4246 0.9808
1.4217 -3.9516 -2.4246 0.9808
2.0998 -3.6370 -2.4246 0.9808
2.4152 -3.4356 -2.4246 0.9808
2.9861 -2.9530 -2.4246 0.9808
3.9672 -1.3776 -2.4246 0.9808
4.1486 -0.6523 -2.4246 0.9808
4.1736 0.4669 -2.4246 0.9808
3.7482 1.8941 -2.4246 0.9808
3.1147 2.8170 -2.4246 0.9808
2.2597 3.5398 -2.4246 0.9808
0.1403 4.1973 -2.4246 0.9808
-0.2338 4.1931 -2.4246 0.9808
-0.6061 4.1556 -2.4246 0.9808
-1.6109 3.6843 -2.3216 0.9816
-2.5271 3.1278 -2.3216 0.9816
-2.7954 2.8904 -2.3216 0.9816
-3.0416 2.6302 -2.3216 0.9816
-3.2636 2.3490 -2.3216 0.9816
-3.4597 2.0492 -2.3216 0.9816
-3.6284 1.7331 -2.3216 0.9816
-1.0827 0.4032 -0.6671 0.9947
-1.1141 0.2007 -0.6536 0.9948
