ply
format ascii 1.0
element vertex 1418
property float32 x
property float32 y
property float32 z
property float32 I
end_header
7.0663 -15.2276 2.9600 0.9341
7.0656 -15.2259 2.1858 0.9345
12.0285 15.5858 2.5637 0.9237
7.0652 -15.2251 1.8024 0.9347
12.0285 15.5858 2.1141 0.9239
7.0648 -15.2244 1.4208 0.9348
7.0643 -15.2231 1.0407 0.9350
12.0353 15.5945 1.2215 0.9241
12.0353 15.5945 0.7767 0.9242
17.7860 -0.3963 0.3005 0.9313
11.4575 16.2986 0.3365 0.9234
17.6476 -1.1814 0.2988 0.9317
17.9263 0.3995 0.3029 0.9308
12.0353 15.5945 0.3327 0.9242
11.4575 16.2986 -0.1122 0.9234
-18.5478 5.9809 -0.1097 0.9250
17.9263 0.3995 -0.1010 0.9308
12.0353 15.5945 -0.1109 0.9242
17.7860 -0.3964 -0.5009 0.9313
12.8979 15.2557 -0.5625 0.9232
11.4575 16.2986 -0.5610 0.9234
-18.3115 5.9047 -0.5418 0.9259
17.6476 -1.1814 -0.4980 0.9317
17.9263 0.3995 -0.5049 0.9308
12.0353 15.5945 -0.5547 0.9242
-18.2101 6.7815 -0.5472 0.9252
12.8796 15.2341 -1.0117 0.9232
-18.0794 5.8298 -0.9634 0.9267
17.6476 -1.1814 -0.8970 0.9316
12.0353 15.5945 -0.9990 0.9241
-17.9949 6.7013 -0.9738 0.9260
11.4575 16.2986 -1.4608 0.9232
-9.2292 15.1933 -1.3034 0.9312
-12.2672 11.6022 -1.2380 0.9345
-14.2460 11.2500 -1.3310 0.9298
-17.4681 9.3212 -1.4517 0.9237
-17.8102 7.5521 -1.4184 0.9253
-17.9646 5.7928 -1.3840 0.9271
-5.8567 -15.2066 -1.1948 0.9367
17.6476 -1.1814 -1.2969 0.9315
17.9263 0.3995 -1.3147 0.9306
-9.1151 16.6330 -1.3907 0.9268
-10.9016 13.4930 -1.2719 0.9328
-15.9229 9.4312 -1.3569 0.9285
-17.6676 8.4390 -1.4356 0.9245
-17.7520 6.6109 -1.3890 0.9268
-5.6236 -16.7968 -1.7006 0.9313
10.4675 -13.5632 -1.6448 0.9335
10.5261 -7.9381 -1.2657 0.9484
-8.8532 14.5743 -1.6371 0.9338
-9.6605 13.1113 -1.5635 0.9367
-11.8390 11.1972 -1.5644 0.9366
-16.6703 8.8955 -1.8140 0.9269
-5.7190 -14.8491 -1.5277 0.9381
7.0265 -15.1417 -1.6026 0.9351
10.4649 -14.8866 -1.7470 0.9295
17.6476 -1.1813 -1.6981 0.9314
17.9263 0.3995 -1.7214 0.9305
12.0353 15.5945 -1.8912 0.9239
-8.7166 15.9057 -1.7413 0.9297
-8.9819 13.4020 -1.5489 0.9372
-14.2879 10.2838 -1.6901 0.9317
-15.2439 9.0290 -1.7009 0.9313
-17.5810 8.3977 -1.8705 0.9247
-17.4234 6.4885 -1.7850 0.9280
-5.6582 -10.3248 -1.3985 0.9537
-5.6157 -12.8436 -1.6651 0.9451
-5.6236 -16.7968 -2.1041 0.9311
-4.5423 -19.0602 -2.3275 0.9241
-2.8278 -19.3888 -2.3275 0.9241
10.4675 -13.5632 -2.0351 0.9333
10.4720 -11.3222 -1.8320 0.9398
10.4757 -9.4747 -1.6778 0.9447
10.4864 -7.9082 -1.5601 0.9485
19.6661 -2.2000 -2.3506 0.9234
17.7860 -0.3963 -2.1133 0.9308
19.7446 1.3217 -2.3506 0.9234
19.1974 4.8016 -2.3506 0.9234
18.6938 6.4912 -2.3506 0.9234
18.0419 8.1293 -2.3506 0.9234
17.2467 9.7029 -2.3506 0.9234
16.3147 11.1994 -2.3506 0.9234
15.2531 12.6070 -2.3506 0.9234
14.0705 13.9146 -2.3506 0.9234
11.3804 16.1889 -2.3506 0.9234
8.2472 17.7722 -2.3273 0.9241
6.6326 18.4357 -2.3273 0.9241
-1.9613 19.4955 -2.3275 0.9241
-5.3868 18.8389 -2.3275 0.9241
-5.5076 14.3003 -1.8203 0.9401
-5.5140 11.2206 -1.4851 0.9509
-11.4379 10.8179 -1.8701 0.9386
-12.9569 10.2320 -1.9611 0.9357
-14.0434 9.1868 -1.9934 0.9346
-17.5547 5.6606 -2.1910 0.9284
-5.7268 -11.6537 -1.5424 0.9490
-5.6192 -14.5899 -1.8572 0.9390
-3.6887 -19.2436 -2.3275 0.9241
-1.9613 -19.4955 -2.3275 0.9241
6.6326 -18.4357 -2.3273 0.9241
7.0190 -15.1256 -1.9807 0.9350
10.4649 -14.8865 -2.1615 0.9293
10.4699 -12.3838 -1.9263 0.9368
10.4739 -10.3579 -1.7498 0.9424
10.6275 -7.2954 -1.5312 0.9494
10.5346 -3.6580 -1.3247 0.9561
10.5366 -2.6354 -1.2902 0.9572
17.6476 -1.1814 -2.1010 0.9312
19.6661 2.2000 -2.3506 0.9234
18.3861 7.3175 -2.3506 0.9234
17.6618 8.9249 -2.3506 0.9234
16.7974 10.4615 -2.3506 0.9234
14.6764 13.2740 -2.3506 0.9234
13.4367 14.5276 -2.3506 0.9234
12.0353 15.5945 -2.3399 0.9237
10.6480 16.6798 -2.3506 0.9234
9.0307 17.3872 -2.3273 0.9241
7.4473 18.1220 -2.3273 0.9241
-4.5423 19.0601 -2.3275 0.9241
-10.1183 12.5236 -1.9125 0.9372
-12.3471 10.6769 -1.9390 0.9364
-13.6109 9.7965 -1.9920 0.9347
-17.4498 8.3350 -2.2971 0.9251
-5.8623 -6.0616 -1.1948 0.9665
-5.6106 -10.2380 -1.6542 0.9539
-5.6157 -12.8435 -1.9861 0.9449
-5.2151 -15.5768 -2.3275 0.9358
-3.8080 -15.9792 -2.3275 0.9358
-0.9550 -17.1276 -2.4306 0.9330
0.5732 -17.1446 -2.4306 0.9330
3.6039 -16.7714 -2.4306 0.9330
6.4630 -15.7268 -2.4091 0.9336
8.8383 -13.8449 -2.3273 0.9358
10.4720 -11.3222 -2.1852 0.9396
10.4788 -7.9024 -1.8596 0.9484
10.4815 -6.5280 -1.7496 0.9513
10.5006 -3.1295 -1.5525 0.9567
16.4872 -1.8444 -2.3506 0.9352
16.3886 2.5770 -2.3506 0.9352
16.0942 4.0254 -2.3506 0.9352
15.6721 5.4419 -2.3506 0.9352
15.1255 6.8152 -2.3506 0.9352
13.6775 9.3891 -2.3506 0.9352
12.7875 10.5692 -2.3506 0.9352
8.2128 14.2249 -2.3273 0.9358
6.9141 14.8994 -2.3273 0.9358
5.8072 16.1414 -2.4306 0.9330
4.3475 16.5942 -2.4306 0.9330
2.8533 16.9153 -2.4306 0.9330
1.3364 17.1021 -2.4306 0.9330
-3.0924 16.1329 -2.3275 0.9358
-4.5161 15.7937 -2.3275 0.9358
-7.1072 18.4534 -2.8019 0.9232
-9.0512 12.2843 -2.1620 0.9402
-10.0384 11.3505 -2.1470 0.9406
-13.6055 8.9004 -2.3036 0.9364
-15.2701 8.1484 -2.4524 0.9325
-5.7434 -9.4549 -1.5675 0.9563
-5.6192 -14.5899 -2.2153 0.9388
-4.5161 -15.7937 -2.3275 0.9358
-3.0924 -16.1329 -2.3275 0.9358
-1.6442 -16.3441 -2.3275 0.9358
-0.1911 -17.1531 -2.4306 0.9330
1.3364 -17.1021 -2.4306 0.9330
2.8533 -16.9153 -2.4306 0.9330
4.3475 -16.5942 -2.4306 0.9330
5.8072 -16.1413 -2.4306 0.9330
8.2128 -14.2249 -2.3273 0.9358
10.4773 -8.6597 -1.9260 0.9466
10.4802 -7.1943 -1.8011 0.9499
10.4828 -5.8975 -1.7042 0.9526
16.5859 0.3696 -2.3506 0.9352
15.8989 4.7384 -2.3506 0.9352
14.8069 7.4822 -2.3506 0.9352
13.2457 9.9890 -2.3506 0.9352
12.3040 11.1283 -2.3506 0.9352
7.5709 14.5766 -2.3273 0.9358
3.6040 16.7713 -2.4306 0.9330
-0.9550 17.1276 -2.4306 0.9330
-3.8080 15.9791 -2.3275 0.9358
-8.4093 12.5475 -2.1402 0.9408
-9.7649 12.0861 -2.2016 0.9392
-10.3409 10.6925 -2.1076 0.9417
-11.9260 10.3128 -2.2340 0.9383
-16.6626 7.9590 -2.6164 0.9281
-17.2153 6.4110 -2.6029 0.9285
-5.8650 -5.0716 -1.2773 0.9691
-5.9996 -7.4258 -1.5727 0.9620
-5.6069 -8.3660 -1.6591 0.9600
4.3713 -14.0916 -2.4306 0.9419
5.6081 -13.6466 -2.4306 0.9419
9.5925 -10.3713 -2.3273 0.9443
10.4815 -6.5280 -2.0342 0.9512
10.4862 -4.1734 -1.8593 0.9553
14.1803 -1.5863 -2.3506 0.9438
14.2369 0.9530 -2.3506 0.9438
13.8424 3.4622 -2.3506 0.9438
12.4358 6.9963 -2.3506 0.9438
9.1210 10.7883 -2.3273 0.9443
8.1246 11.5573 -2.3273 0.9443
7.0636 12.2346 -2.3273 0.9443
3.7392 14.2724 -2.4306 0.9419
-1.4768 14.6799 -2.4306 0.9419
-5.0778 13.1842 -2.3275 0.9443
-7.5019 15.2658 -2.8021 0.9334
-8.7908 11.9310 -2.4414 0.9417
-12.9972 8.5024 -2.5586 0.9390
-14.6525 7.8188 -2.7360 0.9349
-17.4369 5.6227 -3.0182 0.9284
-5.6629 -7.6857 -1.5727 0.9620
-5.6129 -11.4220 -2.0966 0.9497
-5.0778 -13.1842 -2.3275 0.9443
-2.6597 -13.8756 -2.3275 0.9443
-0.1644 -14.7531 -2.4306 0.9419
1.1494 -14.7092 -2.4306 0.9419
3.7392 -14.2723 -2.4306 0.9419
8.1246 -11.5573 -2.3273 0.9443
10.4773 -8.6597 -2.2393 0.9464
10.4828 -5.8975 -1.9815 0.9524
10.4851 -4.7244 -1.8945 0.9544
10.4872 -3.6416 -1.8289 0.9560
14.2369 -0.9530 -2.3506 0.9438
14.1803 1.5863 -2.3506 0.9438
13.2574 5.2763 -2.3506 0.9438
11.3924 8.5914 -2.3506 0.9438
10.4775 9.4764 -2.3273 0.9443
8.6313 11.1839 -2.3273 0.9443
5.6081 13.6466 -2.4306 0.9419
3.0997 14.4247 -2.4306 0.9419
1.8035 14.6434 -2.4306 0.9419
-3.2752 13.7434 -2.3275 0.9443
-4.4854 13.3973 -2.3275 0.9443
-7.1925 16.4498 -2.9577 0.9298
-7.6916 14.0353 -2.6366 0.9372
-9.4146 11.6525 -2.4679 0.9411
-10.0242 10.3650 -2.3754 0.9432
-11.5302 9.9706 -2.5112 0.9401
-12.3756 8.9074 -2.5119 0.9401
-15.9390 7.6134 -2.9099 0.9309
-16.9795 6.3232 -2.9849 0.9292
-5.8650 -5.0716 -1.4574 0.9689
-5.6322 -5.8237 -1.5228 0.9676
-5.6040 -6.9362 -1.6761 0.9644
-5.6069 -8.3660 -1.8930 0.9598
-5.6106 -10.2380 -2.1944 0.9536
-4.9608 -11.3457 -2.3275 0.9509
-3.9313 -11.7422 -2.3275 0.9509
-2.8706 -12.0454 -2.3275 0.9509
-1.7871 -12.2531 -2.3275 0.9509
0.4321 -12.9240 -2.4306 0.9487
1.5807 -12.8343 -2.4306 0.9487
4.9153 -11.9606 -2.4306 0.9487
5.9603 -11.4757 -2.4306 0.9487
7.5650 -9.8022 -2.3273 0.9509
9.1831 -8.3056 -2.3273 0.9509
9.8859 -7.4553 -2.3273 0.9509
10.4840 -5.2978 -2.2079 0.9533
10.4862 -4.1734 -2.1214 0.9551
12.4284 -1.3904 -2.3506 0.9504
12.4780 0.8353 -2.3506 0.9504
12.3541 1.9426 -2.3506 0.9504
11.8140 4.1023 -2.3506 0.9504
10.8994 6.1319 -2.3506 0.9504
10.2082 7.0075 -2.3273 0.9509
8.8040 8.7064 -2.3273 0.9509
7.9941 9.4555 -2.3273 0.9509
7.1208 10.1295 -2.3273 0.9509
5.4432 11.7298 -2.4306 0.9487
4.3776 12.1678 -2.4306 0.9487
-0.1441 12.9305 -2.4306 0.9487
-1.2944 12.8663 -2.4306 0.9487
-2.3311 12.1614 -2.3275 0.9509
-3.4043 11.9056 -2.3275 0.9509
-13.9288 7.4327 -2.9675 0.9378
-15.0053 6.3628 -3.0635 0.9358
-5.6483 -5.3421 -1.4613 0.9689
-5.6028 -6.3352 -1.5896 0.9662
-5.6054 -7.6077 -1.7762 0.9623
-5.6086 -9.2330 -2.0305 0.9570
-1.2944 -12.8663 -2.4306 0.9487
1.0074 -12.8920 -2.4306 0.9487
6.4630 -11.1942 -2.4296 0.9488
7.1208 -10.1295 -2.3273 0.9509
7.9941 -9.4555 -2.3273 0.9509
8.8040 -8.7064 -2.3273 0.9509
9.5440 -7.8883 -2.3273 0.9509
10.2082 -7.0075 -2.3273 0.9509
10.4828 -5.8975 -2.2608 0.9522
10.4872 -3.6416 -2.0866 0.9558
12.5028 0.2786 -2.3506 0.9504
12.4284 1.3903 -2.3506 0.9504
11.9850 3.5719 -2.3506 0.9504
11.6195 4.6244 -2.3506 0.9504
11.1618 5.6403 -2.3506 0.9504
10.6155 6.6114 -2.3506 0.9504
9.1831 8.3056 -2.3273 0.9509
6.6754 10.4568 -2.3318 0.9508
3.8312 12.3507 -2.4306 0.9487
1.5807 12.8343 -2.4306 0.9487
-0.7199 12.9112 -2.4306 0.9487
-1.7871 12.2531 -2.3275 0.9509
-3.9313 11.7421 -2.3275 0.9509
-7.9419 11.8502 -2.6813 0.9436
-8.8713 10.9801 -2.6533 0.9442
-5.5006 5.6875 -1.4872 0.9683
-11.1652 9.6549 -2.7744 0.9417
-13.1333 7.7789 -2.8691 0.9398
-15.6265 5.8194 -3.1342 0.9344
-18.6872 5.1190 -3.6419 0.9242
-5.6040 -6.9362 -1.8849 0.9642
-5.6069 -8.3660 -2.1288 0.9597
-5.2916 -9.6560 -2.3275 0.9560
-4.4112 -10.0887 -2.3275 0.9560
-1.5931 -10.9234 -2.3334 0.9559
2.4157 -11.2420 -2.4306 0.9541
3.4068 -10.9823 -2.4306 0.9541
4.3707 -10.6355 -2.4306 0.9541
6.7268 -8.7162 -2.3273 0.9560
7.4759 -8.0829 -2.3273 0.9560
8.1657 -7.3854 -2.3273 0.9560
8.7906 -6.6293 -2.3273 0.9560
9.8267 -4.9657 -2.3273 0.9560
10.2297 -4.0713 -2.3273 0.9560
11.0514 -1.2363 -2.3506 0.9556
11.0955 0.7428 -2.3506 0.9556
10.9854 1.7274 -2.3506 0.9556
10.7881 2.6983 -2.3506 0.9556
10.4009 3.6116 -2.3273 0.9560
9.5958 5.3985 -2.3273 0.9560
8.4866 7.0143 -2.3273 0.9560
7.8286 7.7418 -2.3273 0.9560
7.1084 8.4079 -2.3273 0.9560
2.9141 11.1232 -2.4306 0.9541
1.9126 11.3384 -2.4306 0.9541
0.8958 11.4637 -2.4306 0.9541
-1.1510 11.4408 -2.4306 0.9541
-2.0729 10.8140 -2.3275 0.9560
-3.0271 10.5866 -2.3275 0.9560
-4.8562 9.8821 -2.3275 0.9560
-7.9336 10.7675 -2.8271 0.9468
-8.9309 10.0984 -2.8496 0.9464
-10.0114 9.4687 -2.9128 0.9452
-11.6605 7.6280 -2.9454 0.9446
-5.7617 -4.5500 -1.5519 0.9704
-5.6008 -5.2972 -1.6295 0.9690
-5.6028 -6.3352 -1.7877 0.9660
-5.6054 -7.6076 -1.9975 0.9621
-5.6086 -9.2330 -2.2835 0.9568
-2.0729 -10.8140 -2.3275 0.9560
-1.1510 -11.4408 -2.4306 0.9541
0.8958 -11.4636 -2.4306 0.9541
2.9141 -11.1232 -2.4306 0.9541
4.8401 -10.4303 -2.4306 0.9541
6.4634 -9.1943 -2.3757 0.9551
7.8286 -7.7419 -2.3273 0.9560
9.5958 -5.3985 -2.3273 0.9560
10.0382 -4.5230 -2.3273 0.9560
10.4009 -3.6116 -2.3273 0.9560
10.4893 -2.6236 -2.2855 0.9568
10.9854 -1.7274 -2.3506 0.9556
11.0514 1.2363 -2.3506 0.9556
10.8975 2.2150 -2.3506 0.9556
10.6571 3.1762 -2.3506 0.9556
8.7906 6.6293 -2.3273 0.9560
7.4759 8.0829 -2.3273 0.9560
6.1872 9.6921 -2.4306 0.9541
5.3000 10.2043 -2.4306 0.9541
3.4068 10.9823 -2.4306 0.9541
1.4056 11.4123 -2.4306 0.9541
0.3842 11.4922 -2.4306 0.9541
-0.6402 11.4807 -2.4306 0.9541
-5.2916 9.6560 -2.3275 0.9560
-7.6225 11.3736 -2.8942 0.9456
-11.2589 8.1037 -2.9323 0.9449
-12.1815 7.2151 -2.9927 0.9438
-13.0382 6.2279 -3.0543 0.9426
-17.0824 4.6794 -3.7439 0.9301
-5.5982 -4.0294 -1.6211 0.9721
-5.5999 -4.8424 -1.7399 0.9700
-5.6017 -5.7922 -1.8938 0.9674
-5.6040 -6.9362 -2.0957 0.9640
-4.7593 -8.6846 -2.3275 0.9601
-3.9674 -9.0737 -2.3275 0.9601
-3.1441 -9.3909 -2.3275 0.9601
-2.2958 -9.6334 -2.3275 0.9601
-1.4925 -10.2336 -2.4306 0.9584
3.0640 -9.8775 -2.4306 0.9584
4.7668 -9.1778 -2.4306 0.9584
6.3185 -8.1872 -2.4306 0.9584
6.7239 -7.2697 -2.3273 0.9601
9.2006 -3.6618 -2.3273 0.9601
9.9001 -0.2206 -2.3273 0.9601
9.8804 0.6614 -2.3273 0.9601
9.7823 1.5382 -2.3273 0.9601
9.3546 3.2483 -2.3273 0.9601
8.1640 5.6043 -2.3273 0.9601
6.4688 7.6513 -2.3548 0.9597
5.9476 8.4605 -2.4306 0.9584
4.3532 9.3810 -2.4306 0.9584
0.8057 10.3104 -2.4306 0.9584
-0.1152 10.3412 -2.4306 0.9584
-1.0352 10.2899 -2.4306 0.9584
-1.8643 9.7261 -2.3275 0.9601
-2.7226 9.5216 -2.3275 0.9601
-7.4271 10.0802 -2.9427 0.9499
-10.8046 7.0680 -3.0344 0.9483
-11.5159 6.1451 -3.0677 0.9478
-12.3972 5.2569 -3.1647 0.9462
-13.7008 4.4179 -3.3833 0.9426
-5.9037 -3.1503 -1.5727 0.9729
-5.5999 -3.6633 -1.5727 0.9729
-5.6008 -5.2972 -1.8118 0.9688
-5.6054 -7.6076 -2.2209 0.9619
-5.1414 -8.4640 -2.3275 0.9601
-4.3677 -8.8880 -2.3275 0.9601
-3.5593 -9.2415 -2.3275 0.9601
-2.7226 -9.5216 -2.3275 0.9601
-1.8644 -9.7261 -2.3275 0.9601
-0.1152 -10.3412 -2.4306 0.9584
1.7202 -10.1978 -2.4306 0.9584
4.3532 -9.3810 -2.4306 0.9584
5.1709 -8.9563 -2.4306 0.9584
6.7903 -3.0596 -1.7504 0.9699
9.6066 -2.4028 -2.3273 0.9601
9.8411 1.1009 -2.3273 0.9601
8.8382 4.4661 -2.3273 0.9601
7.3442 6.6424 -2.3273 0.9601
6.7239 7.2698 -2.3273 0.9601
6.3185 8.1872 -2.4306 0.9584
4.7668 9.1778 -2.4306 0.9584
3.0640 9.8775 -2.4306 0.9584
0.3456 10.3361 -2.4306 0.9584
-0.5758 10.3258 -2.4306 0.9584
-1.4925 10.2336 -2.4306 0.9584
-3.1441 9.3909 -2.3275 0.9601
-4.7593 8.6846 -2.3275 0.9601
-5.5134 8.2265 -2.3275 0.9601
-14.9822 4.1040 -3.6509 0.9382
-5.6922 -2.1198 -1.5727 0.9752
-5.5956 -2.6728 -1.6056 0.9747
-5.5968 -3.3150 -1.6842 0.9735
-5.5982 -4.0294 -1.7859 0.9719
-5.5999 -4.8424 -1.9168 0.9699
-5.6017 -5.7922 -2.0863 0.9673
-5.6040 -6.9362 -2.3088 0.9638
-5.0046 -7.4673 -2.3275 0.9635
-4.3201 -7.8831 -2.3275 0.9635
-2.8539 -8.5242 -2.3275 0.9635
0.3137 -9.3822 -2.4306 0.9620
1.9722 -9.1779 -2.4306 0.9620
2.7813 -8.9659 -2.4306 0.9620
4.3269 -8.3307 -2.4306 0.9620
5.0512 -7.9126 -2.4306 0.9620
5.7354 -7.4316 -2.4306 0.9620
6.3741 -6.8916 -2.4306 0.9620
7.1766 -5.4122 -2.3273 0.9635
7.6299 -4.7519 -2.3273 0.9635
8.6142 -2.5673 -2.3273 0.9635
8.8085 -1.7904 -2.3273 0.9635
8.9329 -0.9993 -2.3273 0.9635
8.8795 1.3963 -2.3273 0.9635
8.1952 3.6926 -2.3273 0.9635
7.4106 5.0871 -2.3273 0.9635
6.4686 6.3969 -2.3555 0.9631
5.3987 7.6797 -2.4306 0.9620
3.9515 8.5152 -2.4306 0.9620
1.5614 9.2566 -2.4306 0.9620
-0.1046 9.3868 -2.4306 0.9620
-1.6923 8.8285 -2.3275 0.9635
-7.6562 8.6570 -2.9923 0.9534
-10.6769 5.6973 -3.1334 0.9512
-5.5013 1.7739 -1.4966 0.9764
-14.9110 3.3784 -3.9586 0.9388
-5.5950 -2.3725 -1.5735 0.9752
-5.6008 -5.2972 -1.9960 0.9686
-5.3322 -7.2370 -2.3275 0.9635
-3.2308 -8.3886 -2.3275 0.9635
-2.4714 -8.6429 -2.3275 0.9635
-1.6923 -8.8285 -2.3275 0.9635
0.7313 -9.3589 -2.4306 0.9620
1.5614 -9.2566 -2.4306 0.9620
3.1779 -8.8331 -2.4306 0.9620
3.9515 -8.5152 -2.4306 0.9620
4.6937 -8.1297 -2.4306 0.9620
5.3987 -7.6797 -2.4306 0.9620
6.0608 -7.1687 -2.4306 0.9620
8.4913 -2.9485 -2.3273 0.9635
8.8795 -1.3963 -2.3273 0.9635
8.9686 -0.6004 -2.3273 0.9635
8.9329 0.9993 -2.3273 0.9635
8.6142 2.5673 -2.3273 0.9635
8.0225 4.0540 -2.3273 0.9635
7.6299 4.7519 -2.3273 0.9635
7.1766 5.4121 -2.3273 0.9635
6.3741 6.8916 -2.4306 0.9620
5.7354 7.4316 -2.4306 0.9620
4.3269 8.3308 -2.4306 0.9620
3.5682 8.6828 -2.4306 0.9620
1.9722 9.1779 -2.4306 0.9620
1.1475 9.3170 -2.4306 0.9620
0.3137 9.3822 -2.4306 0.9620
-0.5226 9.3729 -2.4306 0.9620
-1.3548 9.2891 -2.4306 0.9620
-2.0839 8.7444 -2.3275 0.9635
-2.8539 8.5242 -2.3275 0.9635
-5.0046 7.4673 -2.3275 0.9635
-7.2464 8.9690 -2.9855 0.9535
-8.7956 7.6058 -3.0107 0.9531
-10.3675 6.1407 -3.1199 0.9514
-11.0664 5.2860 -3.1754 0.9506
-5.5012 2.0487 -1.5199 0.9760
-19.1887 0.0000 -5.4322 0.9233
-5.1669 -6.3952 -2.3275 0.9664
-3.2937 -7.5330 -2.3275 0.9664
-1.2391 -8.4959 -2.4306 0.9649
0.2869 -8.5810 -2.4306 0.9649
1.0495 -8.5214 -2.4306 0.9649
1.8038 -8.3941 -2.4306 0.9649
2.5438 -8.2003 -2.4306 0.9649
3.9574 -7.6193 -2.4306 0.9649
5.2456 -6.7970 -2.4306 0.9649
6.5638 -4.9500 -2.3273 0.9664
7.3374 -3.7078 -2.3273 0.9664
7.6383 -3.0400 -2.3273 0.9664
8.0563 -1.6375 -2.3273 0.9664
8.2190 -0.1832 -2.3273 0.9664
8.1213 1.2770 -2.3273 0.9664
7.7662 2.6967 -2.3273 0.9664
7.4953 3.3772 -2.3273 0.9664
6.7778 4.6527 -2.3273 0.9664
5.5432 6.5565 -2.4306 0.9649
4.9376 7.0239 -2.4306 0.9649
3.6140 7.7881 -2.4306 0.9649
2.1759 8.3055 -2.4306 0.9649
0.6689 8.5597 -2.4306 0.9649
-0.0956 8.5852 -2.4306 0.9649
-0.8594 8.5427 -2.4306 0.9649
-2.9549 7.6722 -2.3275 0.9664
-4.2684 7.0268 -2.3275 0.9664
-4.8769 6.6190 -2.3275 0.9664
-5.4467 6.1587 -2.3275 0.9664
-8.6348 6.8188 -3.1148 0.9553
-5.5082 3.6033 -1.8633 0.9730
-10.0197 5.3467 -3.2151 0.9539
-5.5014 1.2464 -1.5969 0.9768
-5.6915 -1.8353 -1.6929 0.9754
-5.5950 -2.3725 -1.7204 0.9751
-5.5990 -4.4215 -2.0197 0.9708
-5.6008 -5.2972 -2.1824 0.9685
-5.4467 -6.1586 -2.3275 0.9664
-4.2684 -7.0268 -2.3275 0.9664
-2.2603 -7.9048 -2.3275 0.9664
1.4281 -8.4662 -2.4306 0.9649
2.1759 -8.3055 -2.4306 0.9649
5.5432 -6.5565 -2.4306 0.9649
7.1650 -4.0310 -2.3273 0.9664
6.7821 -3.0559 -2.1059 0.9695
7.7662 -2.6967 -2.3273 0.9664
7.9754 -1.9948 -2.3273 0.9664
8.1213 -1.2770 -2.3273 0.9664
8.2027 -0.5491 -2.3273 0.9664
8.2190 0.1832 -2.3273 0.9664
8.1701 0.9140 -2.3273 0.9664
7.6383 3.0400 -2.3273 0.9664
7.3374 3.7078 -2.3273 0.9664
5.2456 6.7970 -2.4306 0.9649
4.6199 7.2369 -2.4306 0.9649
3.2635 7.9413 -2.4306 0.9649
2.5438 8.2003 -2.4306 0.9649
1.8038 8.3942 -2.4306 0.9649
0.2869 8.5810 -2.4306 0.9649
-0.4780 8.5725 -2.4306 0.9649
-1.2391 8.4959 -2.4306 0.9649
-2.6102 7.7962 -2.3275 0.9664
-3.2937 7.5330 -2.3275 0.9664
-4.5772 6.8296 -2.3275 0.9664
-8.2249 7.1124 -3.0782 0.9558
-8.9846 6.4668 -3.1338 0.9550
-10.4258 4.9800 -3.2709 0.9531
-16.3574 2.9469 -4.7052 0.9332
-18.8072 -1.6807 -5.8078 0.9240
-5.5944 -2.0834 -1.8362 0.9753
-5.5968 -3.3150 -2.0008 0.9731
-5.5999 -4.8424 -2.2771 0.9695
-5.2606 -5.4394 -2.3275 0.9688
-4.7556 -5.8861 -2.3275 0.9688
-3.0315 -6.9333 -2.3275 0.9688
-1.7707 -7.4301 -2.3493 0.9685
0.2641 -7.8979 -2.4306 0.9675
2.3412 -7.5475 -2.4306 0.9675
3.0037 -7.3091 -2.4306 0.9675
3.6424 -7.0128 -2.4306 0.9675
4.2521 -6.6608 -2.4306 0.9675
4.8280 -6.2559 -2.4306 0.9675
5.3657 -5.8013 -2.4306 0.9675
5.8607 -5.3007 -2.4306 0.9675
6.3093 -4.7580 -2.4306 0.9675
6.7533 -3.4126 -2.3273 0.9688
7.5497 0.5054 -2.3273 0.9688
7.4747 1.1754 -2.3273 0.9688
7.3405 1.8360 -2.3273 0.9688
6.4630 4.4366 -2.4112 0.9677
6.0911 5.0344 -2.4306 0.9675
5.6188 5.5565 -2.4306 0.9675
5.1019 6.0346 -2.4306 0.9675
2.0027 7.6443 -2.4306 0.9675
1.3144 7.7922 -2.4306 0.9675
0.6156 7.8783 -2.4306 0.9675
-0.0880 7.9018 -2.4306 0.9675
-0.7910 7.8626 -2.4306 0.9675
-2.0804 7.2755 -2.3275 0.9688
-2.7197 7.0615 -2.3275 0.9688
-3.3374 6.7914 -2.3275 0.9688
-4.4887 6.0921 -2.3275 0.9688
-5.5115 4.3523 -2.1601 0.9710
-8.7560 5.7279 -3.2182 0.9572
-9.4738 5.0554 -3.3028 0.9561
-10.2229 4.3349 -3.4153 0.9546
-5.5014 1.2464 -1.7350 0.9767
-18.8104 0.8388 -5.7914 0.9242
-5.5089 -0.7409 -1.7097 0.9770
-5.6915 -1.8353 -1.8393 0.9753
-5.5962 -2.9862 -1.9510 0.9738
-5.5975 -3.6617 -2.0573 0.9724
-5.5990 -4.4215 -2.1944 0.9706
-5.4977 -5.1997 -2.3275 0.9688
-5.0131 -5.6684 -2.3275 0.9688
-4.4887 -6.0921 -2.3275 0.9688
-3.3374 -6.7914 -2.3275 0.9688
-2.7197 -7.0615 -2.3275 0.9688
-2.0804 -7.2755 -2.3275 0.9688
0.6156 -7.8783 -2.4306 0.9675
2.0027 -7.6443 -2.4306 0.9675
3.9511 -6.8436 -2.4306 0.9675
5.6188 -5.5565 -2.4306 0.9675
6.0910 -5.0344 -2.4306 0.9675
6.4630 -4.4366 -2.4112 0.9677
6.7821 -3.0559 -2.2880 0.9693
7.1479 -2.4820 -2.3273 0.9688
7.3405 -1.8360 -2.3273 0.9688
7.4747 -1.1754 -2.3273 0.9688
7.5197 0.8412 -2.3273 0.9688
7.4150 1.5071 -2.3273 0.9688
7.0303 2.7980 -2.3273 0.9688
5.8607 5.3007 -2.4306 0.9675
4.8280 6.2559 -2.4306 0.9675
3.6424 7.0128 -2.4306 0.9675
3.0037 7.3091 -2.4306 0.9675
-1.1404 7.8195 -2.4306 0.9675
-1.7707 7.4301 -2.3493 0.9685
-2.4024 7.1756 -2.3275 0.9688
-3.6366 6.6360 -2.3275 0.9688
-4.2128 6.2860 -2.3275 0.9688
-5.2606 5.4394 -2.3275 0.9688
-5.5082 3.2625 -1.9691 0.9736
-13.8383 2.4931 -4.3249 0.9429
-18.7383 1.6745 -5.7865 0.9243
-18.5375 0.0000 -6.1620 0.9248
-18.5032 -1.6535 -6.1751 0.9247
-5.5090 -0.9925 -1.8607 0.9767
-5.5944 -2.0834 -1.9844 0.9752
-5.5968 -3.3150 -2.1623 0.9730
-4.4004 -5.4464 -2.3275 0.9709
-3.8982 -5.8164 -2.3275 0.9709
-2.8051 -6.4155 -2.3275 0.9709
-0.4071 -7.3007 -2.4306 0.9696
0.2443 -7.3080 -2.4306 0.9696
3.3703 -6.4890 -2.4306 0.9696
4.9649 -5.3680 -2.4306 0.9696
5.8380 -4.4027 -2.4306 0.9696
6.4630 -3.2659 -2.4070 0.9699
6.7098 -1.9997 -2.3273 0.9709
6.8611 -1.3946 -2.3273 0.9709
6.9580 -0.7784 -2.3273 0.9709
6.9997 -0.1560 -2.3273 0.9709
6.7922 1.6988 -2.3273 0.9709
6.0284 4.1382 -2.4306 0.9696
5.1991 5.1415 -2.4306 0.9696
4.7209 5.5839 -2.4306 0.9696
3.6560 6.3324 -2.4306 0.9696
2.4753 6.8804 -2.4306 0.9696
1.8531 7.0733 -2.4306 0.9696
1.2162 7.2102 -2.4306 0.9696
0.5696 7.2898 -2.4306 0.9696
-1.3765 7.1813 -2.4306 0.9696
-1.9250 6.7321 -2.3275 0.9709
-3.6352 5.9843 -2.3275 0.9709
-5.4951 4.3394 -2.3275 0.9709
-8.2705 5.4103 -3.2851 0.9592
-5.5104 2.3366 -1.9896 0.9751
-10.4331 3.3643 -3.6439 0.9548
-5.5014 1.2464 -1.8750 0.9765
-15.3992 2.0710 -5.1649 0.9366
-18.5034 0.8251 -6.1568 0.9249
-5.6915 -1.8353 -1.9878 0.9751
-5.5962 -2.9862 -2.1085 0.9736
-5.5975 -3.6617 -2.2234 0.9722
-2.5165 -6.5341 -2.3275 0.9709
-1.9250 -6.7321 -2.3275 0.9709
-1.3765 -7.1813 -2.4306 0.9696
-0.7319 -7.2753 -2.4306 0.9696
0.5696 -7.2898 -2.4306 0.9696
1.2162 -7.2102 -2.4306 0.9696
2.4753 -6.8803 -2.4306 0.9696
3.0779 -6.6327 -2.4306 0.9696
4.7209 -5.5839 -2.4306 0.9696
5.1991 -5.1415 -2.4306 0.9696
5.6361 -4.6584 -2.4306 0.9696
6.6140 -2.2966 -2.3273 0.9709
6.7922 -1.6989 -2.3273 0.9709
6.9165 -1.0876 -2.3273 0.9709
6.9858 -0.4677 -2.3273 0.9709
6.8611 1.3946 -2.3273 0.9709
6.7098 1.9997 -2.3273 0.9709
6.5052 2.5890 -2.3273 0.9709
6.2067 3.8656 -2.4306 0.9696
4.9649 5.3680 -2.4306 0.9696
4.4674 5.7886 -2.4306 0.9696
2.7794 6.7632 -2.4306 0.9696
2.1664 6.9838 -2.4306 0.9696
0.2443 7.3080 -2.4306 0.9696
-1.6232 6.8112 -2.3275 0.9709
-2.8051 6.4155 -2.3275 0.9709
-3.8982 5.8165 -2.3275 0.9709
-9.3247 4.4540 -3.4350 0.9574
-10.0225 3.7324 -3.5551 0.9559
-10.9499 2.9995 -3.7739 0.9533
-18.5078 1.6538 -6.1766 0.9247
-18.4791 -1.6514 -6.6346 0.9242
-5.5956 -2.6728 -2.2176 0.9740
-5.5968 -3.3150 -2.3262 0.9727
-5.2825 -3.8021 -2.3275 0.9727
-3.6235 -5.4066 -2.3275 0.9727
-2.0663 -6.1718 -2.3275 0.9727
-0.9809 -6.7256 -2.4306 0.9715
3.6572 -5.7289 -2.4306 0.9715
4.6150 -4.9897 -2.4306 0.9715
5.0408 -4.5592 -2.4306 0.9715
5.4266 -4.0924 -2.4306 0.9715
5.7693 -3.5932 -2.4306 0.9715
6.4751 -0.7243 -2.3300 0.9727
6.5064 -0.1450 -2.3273 0.9727
6.4718 1.0176 -2.3428 0.9726
6.1968 2.7921 -2.4306 0.9715
5.9237 3.3326 -2.4306 0.9715
2.8610 6.1653 -2.4306 0.9715
2.3009 6.3955 -2.4306 0.9715
1.1305 6.7021 -2.4306 0.9715
0.5295 6.7761 -2.4306 0.9715
-0.0757 6.7963 -2.4306 0.9715
-1.2795 6.6752 -2.4306 0.9715
-2.3392 6.0736 -2.3275 0.9727
-2.8705 5.8413 -2.3275 0.9727
-3.3790 5.5626 -2.3275 0.9727
-3.8607 5.2398 -2.3275 0.9727
-4.7286 4.4722 -2.3275 0.9727
-5.1079 4.0336 -2.3275 0.9727
-5.5087 0.7408 -1.9877 0.9767
-18.4207 0.8214 -6.5939 0.9247
-5.5089 -0.7409 -1.9878 0.9767
-5.6915 -1.8353 -2.1385 0.9749
-5.5950 -2.3725 -2.1732 0.9745
-5.5962 -2.9862 -2.2683 0.9734
-5.1079 -4.0336 -2.3275 0.9727
-4.3117 -4.8754 -2.3275 0.9727
-3.8607 -5.2398 -2.3275 0.9727
-3.3790 -5.5626 -2.3275 0.9727
-1.7893 -6.2577 -2.3275 0.9727
-0.6803 -6.7626 -2.4306 0.9715
-0.0757 -6.7963 -2.4306 0.9715
0.5295 -6.7761 -2.4306 0.9715
1.7225 -6.5749 -2.4306 0.9715
3.9088 -5.5603 -2.4306 0.9715
4.8327 -4.7792 -2.4306 0.9715
5.2389 -4.3301 -2.4306 0.9715
5.6035 -3.8466 -2.4306 0.9715
6.1968 -2.7921 -2.4306 0.9715
6.4935 -0.4347 -2.3273 0.9727
6.5064 0.1450 -2.3273 0.9727
6.4751 0.7243 -2.3300 0.9727
6.4674 1.3146 -2.3601 0.9724
6.3150 2.5133 -2.4306 0.9715
6.0662 3.0654 -2.4306 0.9715
5.0408 4.5592 -2.4306 0.9715
4.6150 4.9897 -2.4306 0.9715
4.1526 5.3807 -2.4306 0.9715
2.5835 6.2866 -2.4306 0.9715
-0.9809 6.7256 -2.4306 0.9715
-2.0663 6.1718 -2.3275 0.9727
-3.1279 5.7076 -2.3275 0.9727
-3.6234 5.4066 -2.3275 0.9727
-4.0903 5.0626 -2.3275 0.9727
-4.5246 4.6785 -2.3275 0.9727
-5.2825 3.8021 -2.3275 0.9727
-5.5999 3.3168 -2.3275 0.9727
-8.8438 4.2243 -3.5049 0.9592
-11.5969 2.0893 -4.2139 0.9512
-18.5197 1.6549 -6.6492 0.9241
-18.0502 0.0000 -6.9172 0.9256
-5.5089 -0.4923 -2.1195 0.9766
-5.5944 -2.0834 -2.2877 0.9748
-4.9294 -3.5480 -2.3275 0.9743
-4.5941 -3.9727 -2.3275 0.9743
-4.2223 -4.3658 -2.3275 0.9743
-3.8169 -4.7243 -2.3275 0.9743
-2.4332 -5.5648 -2.3275 0.9743
-1.9282 -5.7593 -2.3275 0.9743
-0.9153 -6.2761 -2.4306 0.9732
0.2119 -6.3390 -2.4306 0.9732
1.3325 -6.2010 -2.4306 0.9732
2.4108 -5.8665 -2.4306 0.9732
2.9234 -5.6286 -2.4306 0.9732
3.4128 -5.3461 -2.4306 0.9732
3.8751 -5.0211 -2.4306 0.9732
5.8930 -2.3454 -2.4306 0.9732
6.0783 -1.8115 -2.4306 0.9732
6.3032 -0.7051 -2.4306 0.9732
6.3284 0.4236 -2.4306 0.9732
5.5278 3.1099 -2.4306 0.9732
4.0949 4.8435 -2.4306 0.9732
3.1713 5.4928 -2.4306 0.9732
2.1471 5.9680 -2.4306 0.9732
1.6074 6.1354 -2.4306 0.9732
1.0549 6.2542 -2.4306 0.9732
0.4941 6.3232 -2.4306 0.9732
-1.1940 6.2291 -2.4306 0.9732
-1.6697 5.8395 -2.3275 0.9743
-2.1829 5.6677 -2.3275 0.9743
-2.6787 5.4509 -2.3275 0.9743
-3.1532 5.1909 -2.3275 0.9743
-3.6027 4.8896 -2.3275 0.9743
-4.0236 4.5495 -2.3275 0.9743
-5.5916 2.3710 -2.3275 0.9743
-5.5081 1.7761 -2.2178 0.9755
-11.5852 1.5580 -4.4796 0.9512
-5.5087 -1.7764 -2.2181 0.9755
-5.5916 -2.3710 -2.3275 0.9743
-3.1532 -5.1909 -2.3275 0.9743
-2.1829 -5.6677 -2.3275 0.9743
-1.1940 -6.2291 -2.4306 0.9732
-0.6349 -6.3107 -2.4306 0.9732
0.4941 -6.3232 -2.4306 0.9732
1.0549 -6.2542 -2.4306 0.9732
1.6074 -6.1354 -2.4306 0.9732
2.6698 -5.7532 -2.4306 0.9732
3.1713 -5.4928 -2.4306 0.9732
3.6476 -5.1887 -2.4306 0.9732
4.0949 -4.8435 -2.4306 0.9732
4.5098 -4.4598 -2.4306 0.9732
4.8888 -4.0407 -2.4306 0.9732
5.7826 -2.6055 -2.4306 0.9732
6.1530 -1.5389 -2.4306 0.9732
6.2655 -0.9852 -2.4306 0.9732
6.3284 -0.4236 -2.4306 0.9732
6.3409 0.1413 -2.4306 0.9732
5.8930 2.3453 -2.4306 0.9732
5.3838 3.3530 -2.4306 0.9732
2.4109 5.8665 -2.4306 0.9732
0.2119 6.3390 -2.4306 0.9732
-1.9282 5.7593 -2.3275 0.9743
-3.3813 5.0452 -2.3275 0.9743
-4.5941 3.9727 -2.3275 0.9743
-4.9294 3.5480 -2.3275 0.9743
-5.4804 2.6178 -2.3275 0.9743
-9.0264 3.3615 -3.6912 0.9596
-9.8845 2.7077 -3.9275 0.9570
-10.9225 1.9678 -4.2531 0.9536
-13.1787 1.1777 -5.0705 0.9449
-1.6390 -0.1465 -0.6735 0.9929
-4.6156 -3.3221 -2.3275 0.9757
-4.3016 -3.7197 -2.3275 0.9757
-3.5739 -4.4235 -2.3275 0.9757
-3.1660 -4.7240 -2.3275 0.9757
-0.8571 -5.8766 -2.4306 0.9747
0.1984 -5.9354 -2.4306 0.9747
0.7259 -5.8942 -2.4306 0.9747
1.2477 -5.8062 -2.4306 0.9747
1.7595 -5.6721 -2.4306 0.9747
3.1955 -5.0057 -2.4306 0.9747
3.6284 -4.7014 -2.4306 0.9747
4.0324 -4.3598 -2.4306 0.9747
4.4045 -3.9836 -2.4306 0.9747
4.7415 -3.5758 -2.4306 0.9747
5.0410 -3.1396 -2.4306 0.9747
5.8197 -1.1829 -2.4306 0.9747
5.9019 -0.6602 -2.4306 0.9747
5.7612 1.4410 -2.4306 0.9747
5.6101 1.9480 -2.4306 0.9747
5.1758 2.9119 -2.4306 0.9747
4.8961 3.3610 -2.4306 0.9747
4.2226 4.1758 -2.4306 0.9747
3.8342 4.5351 -2.4306 0.9747
3.4153 4.8584 -2.4306 0.9747
2.4998 5.3870 -2.4306 0.9747
0.9878 5.8560 -2.4306 0.9747
0.4626 5.9207 -2.4306 0.9747
-0.5944 5.9089 -2.4306 0.9747
-1.1180 5.8325 -2.4306 0.9747
-2.0439 5.3069 -2.3275 0.9757
-2.9524 4.8604 -2.3275 0.9757
-3.3733 4.5783 -2.3275 0.9757
-3.7674 4.2599 -2.3275 0.9757
-4.1316 3.9077 -2.3275 0.9757
-4.7590 3.1132 -2.3275 0.9757
-5.0172 2.6773 -2.3275 0.9757
-5.2356 2.2201 -2.3275 0.9757
-1.5889 0.5124 -0.6833 0.9928
-1.6301 0.2192 -0.6732 0.9929
-17.6196 0.7857 -7.2184 0.9266
-1.6301 -0.2192 -0.6732 0.9929
-1.5889 -0.5124 -0.6833 0.9928
-5.2356 -2.2201 -2.3275 0.9757
-4.7590 -3.1132 -2.3275 0.9757
-3.7674 -4.2599 -2.3275 0.9757
-2.9524 -4.8604 -2.3275 0.9757
-2.0439 -5.3068 -2.3275 0.9757
-1.5865 -5.5485 -2.3619 0.9754
-1.1180 -5.8325 -2.4306 0.9747
-0.0662 -5.9384 -2.4306 0.9747
2.0104 -5.5881 -2.4306 0.9747
2.9694 -5.1431 -2.4306 0.9747
3.4153 -4.8584 -2.4306 0.9747
3.8342 -4.5351 -2.4306 0.9747
5.1758 -2.9119 -2.4306 0.9747
5.4145 -2.4396 -2.4306 0.9747
5.7612 -1.4410 -2.4306 0.9747
5.9019 0.6602 -2.4306 0.9747
5.8197 1.1829 -2.4306 0.9747
5.5178 2.1960 -2.4306 0.9747
5.3004 2.6784 -2.4306 0.9747
5.0410 3.1396 -2.4306 0.9747
4.0324 4.3598 -2.4306 0.9747
3.1955 5.0057 -2.4306 0.9747
1.2477 5.8062 -2.4306 0.9747
0.7259 5.8942 -2.4306 0.9747
-0.8571 5.8765 -2.4306 0.9747
-2.2783 5.2105 -2.3275 0.9757
-2.7330 4.9871 -2.3275 0.9757
-3.1660 4.7240 -2.3275 0.9757
-3.5739 4.4235 -2.3275 0.9757
-4.3016 3.7197 -2.3275 0.9757
-4.6156 3.3221 -2.3275 0.9757
-4.8930 2.8981 -2.3275 0.9757
-5.3293 1.9846 -2.3275 0.9757
-1.6035 0.4392 -0.6804 0.9928
-1.6200 0.2919 -0.6737 0.9929
-1.6390 0.1465 -0.6735 0.9929
-1.5266 0.0000 -0.6653 0.9934
-1.5215 -0.1360 -0.6657 0.9934
-4.8190 -2.3018 -2.3275 0.9770
-4.5950 -2.7216 -2.3275 0.9770
-3.3563 -4.1541 -2.3275 0.9770
-2.5665 -4.6834 -2.3275 0.9770
-2.1395 -4.8932 -2.3275 0.9770
0.1864 -5.5739 -2.4306 0.9760
2.1199 -5.1584 -2.4306 0.9760
2.5706 -4.9493 -2.4306 0.9760
3.4074 -4.4151 -2.4306 0.9760
4.4528 -3.3580 -2.4306 0.9760
4.9776 -2.5153 -2.4306 0.9760
5.3447 -1.5929 -2.4306 0.9760
5.4653 -1.1109 -2.4306 0.9760
5.5425 -0.6200 -2.4306 0.9760
5.5093 0.8663 -2.4306 0.9760
5.2685 1.8294 -2.4306 0.9760
5.0847 2.2911 -2.4306 0.9760
3.9655 3.9215 -2.4306 0.9760
2.7885 4.8299 -2.4306 0.9760
2.3476 5.0589 -2.4306 0.9760
1.8880 5.2478 -2.4306 0.9760
1.4134 5.3950 -2.4306 0.9760
0.9276 5.4994 -2.4306 0.9760
-0.5582 5.5490 -2.4306 0.9760
-1.0499 5.4773 -2.4306 0.9760
-1.9194 4.9837 -2.3275 0.9770
-2.3554 4.7930 -2.3275 0.9770
-2.2452 3.0472 -1.6496 0.9836
-3.8800 3.6697 -2.3275 0.9770
-1.5259 0.0680 -0.6657 0.9934
-1.5259 -0.0680 -0.6657 0.9934
-1.4861 -0.4792 -0.6805 0.9932
-4.4692 -2.9236 -2.3275 0.9770
-4.1912 -3.3098 -2.3275 0.9770
-3.8800 -3.6697 -2.3275 0.9770
-3.5380 -4.0004 -2.3275 0.9770
-2.7726 -4.5644 -2.3275 0.9770
-2.3554 -4.7930 -2.3275 0.9770
-1.9194 -4.9836 -2.3275 0.9770
-1.5333 -5.3621 -2.4306 0.9760
-1.0499 -5.4773 -2.4306 0.9760
-0.5582 -5.5490 -2.4306 0.9760
-0.0621 -5.5767 -2.4306 0.9760
2.3476 -5.0589 -2.4306 0.9760
3.2073 -4.5625 -2.4306 0.9760
3.6007 -4.2589 -2.4306 0.9760
4.2988 -3.5530 -2.4306 0.9760
4.5979 -3.1563 -2.4306 0.9760
5.2685 -1.8294 -2.4306 0.9760
5.4104 -1.3532 -2.4306 0.9760
5.5646 -0.3725 -2.4306 0.9760
5.4653 1.1109 -2.4306 0.9760
5.3447 1.5929 -2.4306 0.9760
4.7340 2.9484 -2.4306 0.9760
4.4528 3.3580 -2.4306 0.9760
3.7868 4.0943 -2.4306 0.9760
3.0009 4.7009 -2.4306 0.9760
2.1199 5.1584 -2.4306 0.9760
1.6523 5.3266 -2.4306 0.9760
1.1717 5.4526 -2.4306 0.9760
0.6817 5.5352 -2.4306 0.9760
0.1864 5.5739 -2.4306 0.9760
-0.3105 5.5684 -2.4306 0.9760
-0.8049 5.5187 -2.4306 0.9760
-1.6955 5.0642 -2.3275 0.9770
-2.1395 4.8932 -2.3275 0.9770
-2.5665 4.6834 -2.3275 0.9770
-3.7127 3.8389 -2.3275 0.9770
-4.8190 2.3018 -2.3275 0.9770
-1.5001 0.4109 -0.6779 0.9932
-1.5215 0.1360 -0.6657 0.9934
-1.4219 0.0000 -0.6582 0.9938
-1.4172 -0.1266 -0.6586 0.9937
-1.3993 -0.2521 -0.6581 0.9938
-4.7121 -1.7548 -2.3275 0.9781
-4.5372 -2.1672 -2.3275 0.9781
-4.0810 -2.9373 -2.3275 0.9781
-3.4956 -3.6144 -2.3275 0.9781
-2.4165 -4.4095 -2.3275 0.9781
-2.0144 -4.6071 -2.3275 0.9781
-1.5964 -4.7681 -2.3275 0.9781
-1.2173 -5.1079 -2.4306 0.9771
0.6419 -5.2115 -2.4306 0.9771
1.9959 -4.8568 -2.4306 0.9771
3.2081 -4.1569 -2.4306 0.9771
3.5654 -3.8549 -2.4306 0.9771
4.1924 -3.1616 -2.4306 0.9771
5.1457 -1.0459 -2.4306 0.9771
5.2184 -0.5838 -2.4306 0.9771
5.0940 1.2741 -2.4306 0.9771
4.7874 2.1571 -2.4306 0.9771
4.3291 2.9718 -2.4306 0.9771
4.0474 3.3453 -2.4306 0.9771
3.7336 3.6922 -2.4306 0.9771
2.6255 4.5474 -2.4306 0.9771
2.2103 4.7630 -2.4306 0.9771
0.8734 5.1778 -2.4306 0.9771
0.4091 5.2350 -2.4306 0.9771
-1.4436 5.0486 -2.4306 0.9771
-2.6105 4.2975 -2.3275 0.9781
-2.1825 2.9621 -1.7031 0.9839
-3.3311 3.7665 -2.3275 0.9781
-3.6531 3.4551 -2.3275 0.9781
-3.9461 3.1162 -2.3275 0.9781
-4.6292 1.9630 -2.3275 0.9781
-1.3890 0.4479 -0.6755 0.9936
-1.4099 0.1896 -0.6585 0.9937
-1.4099 -0.1896 -0.6585 0.9937
-1.3890 -0.4479 -0.6755 0.9936
-4.4361 -2.3672 -2.3275 0.9781
-3.9461 -3.1162 -2.3275 0.9781
-3.6531 -3.4551 -2.3275 0.9781
-2.6105 -4.2975 -2.3275 0.9781
-1.4436 -5.0486 -2.4306 0.9771
0.4091 -5.2350 -2.4306 0.9771
1.3308 -5.0795 -2.4306 0.9771
2.6255 -4.5474 -2.4306 0.9771
3.3901 -4.0099 -2.4306 0.9771
4.0474 -3.3453 -2.4306 0.9771
4.3291 -2.9717 -2.4306 0.9771
4.5764 -2.5746 -2.4306 0.9771
5.0940 -1.2741 -2.4306 0.9771
5.2496 0.1170 -2.4306 0.9771
5.2184 0.5838 -2.4306 0.9771
5.1457 1.0459 -2.4306 0.9771
4.8787 1.9417 -2.4306 0.9771
4.6865 2.3682 -2.4306 0.9771
4.1924 3.1616 -2.4306 0.9771
3.8944 3.5222 -2.4306 0.9771
3.2081 4.1569 -2.4306 0.9771
2.8254 4.4259 -2.4306 0.9771
2.4203 4.6599 -2.4306 0.9771
1.5557 5.0152 -2.4306 0.9771
-0.2923 5.2428 -2.4306 0.9771
-0.7578 5.1959 -2.4306 0.9771
-1.2173 5.1079 -2.4306 0.9771
-2.4165 4.4095 -2.3275 0.9781
-2.0423 3.0474 -1.6981 0.9840
-3.8034 3.2889 -2.3275 0.9781
-4.0810 2.9373 -2.3275 0.9781
-4.3263 2.5625 -2.3275 0.9781
-1.3946 0.3820 -0.6693 0.9936
-1.3993 0.2521 -0.6581 0.9938
-1.3367 0.0000 -0.6557 0.9941
-1.3159 -0.2371 -0.6559 0.9941
-1.3061 -0.3578 -0.6642 0.9940
-4.2815 -2.0451 -2.3275 0.9791
-4.0825 -2.4181 -2.3275 0.9791
-3.5891 -3.1036 -2.3275 0.9791
-3.2986 -3.4107 -2.3275 0.9791
-2.9819 -3.6908 -2.3275 0.9791
-1.9009 -4.3475 -2.3275 0.9791
-1.5731 -4.6987 -2.4306 0.9782
-0.7151 -4.9032 -2.4306 0.9782
-0.2759 -4.9474 -2.4306 0.9782
0.6057 -4.9179 -2.4306 0.9782
1.4681 -4.7326 -2.4306 0.9782
1.8835 -4.5831 -2.4306 0.9782
2.6662 -4.1766 -2.4306 0.9782
3.3645 -3.6377 -2.4306 0.9782
3.6749 -3.3238 -2.4306 0.9782
3.9562 -2.9835 -2.4306 0.9782
4.2060 -2.6196 -2.4306 0.9782
4.6038 -1.8323 -2.4306 0.9782
4.7486 -1.4153 -2.4306 0.9782
4.9243 -0.5509 -2.4306 0.9782
4.9538 -0.1104 -2.4306 0.9782
4.9440 0.3310 -2.4306 0.9782
4.8949 0.7697 -2.4306 0.9782
4.5176 2.0355 -2.4306 0.9782
4.3185 2.4296 -2.4306 0.9782
4.0852 2.8043 -2.4306 0.9782
3.8193 3.1568 -2.4306 0.9782
3.5232 3.4842 -2.4306 0.9782
3.1991 3.7839 -2.4306 0.9782
2.4775 4.2912 -2.4306 0.9782
1.6774 4.6625 -2.4306 0.9782
1.2558 4.7933 -2.4306 0.9782
0.3860 4.9400 -2.4306 0.9782
-0.9328 4.8664 -2.4306 0.9782
-3.1434 3.5543 -2.3275 0.9791
-3.4473 3.2604 -2.3275 0.9791
-3.9707 2.5975 -2.3275 0.9791
-4.1862 2.2338 -2.3275 0.9791
-1.3003 0.4193 -0.6702 0.9939
-1.3089 0.2966 -0.6583 0.9940
-1.3251 0.1782 -0.6559 0.9941
-1.3355 0.0596 -0.6558 0.9941
-1.3003 -0.4193 -0.6702 0.9939
-4.3684 -1.8524 -2.3275 0.9791
-3.1434 -3.5543 -2.3275 0.9791
-2.8146 -3.8200 -2.3275 0.9791
-2.0927 -4.2585 -2.3275 0.9791
-1.7054 -4.4278 -2.3275 0.9791
-1.3623 -4.7641 -2.4306 0.9782
-0.9328 -4.8664 -2.4306 0.9782
-0.4960 -4.9302 -2.4306 0.9782
-0.0552 -4.9547 -2.4306 0.9782
0.3860 -4.9400 -2.4306 0.9782
0.8242 -4.8860 -2.4306 0.9782
1.6774 -4.6625 -2.4306 0.9782
2.4775 -4.2912 -2.4306 0.9782
2.8496 -4.0537 -2.4306 0.9782
3.1991 -3.7839 -2.4306 0.9782
3.5232 -3.4842 -2.4306 0.9782
4.5176 -2.0355 -2.4306 0.9782
4.8070 -1.2023 -2.4306 0.9782
4.8949 -0.7697 -2.4306 0.9782
4.9440 -0.3310 -2.4306 0.9782
4.8558 0.9870 -2.4306 0.9782
4.7486 1.4152 -2.4306 0.9782
4.6038 1.8323 -2.4306 0.9782
4.2060 2.6195 -2.4306 0.9782
3.0274 3.9227 -2.4306 0.9782
2.6662 4.1766 -2.4306 0.9782
1.8835 4.5831 -2.4306 0.9782
-1.5731 4.6987 -2.4306 0.9782
-3.2986 3.4107 -2.3275 0.9791
-3.5891 3.1036 -2.3275 0.9791
-3.8511 2.7718 -2.3275 0.9791
-4.0825 2.4181 -2.3275 0.9791
-4.2815 2.0451 -2.3275 0.9791
-1.2931 0.4815 -0.6768 0.9939
-1.3061 0.3578 -0.6642 0.9940
-1.3159 0.2371 -0.6559 0.9941
-1.2576 -0.1124 -0.6550 0.9943
-1.2426 -0.2239 -0.6550 0.9943
-1.2283 -0.3365 -0.6607 0.9943
-1.2162 -0.4529 -0.6733 0.9942
-4.0483 -1.9337 -2.3275 0.9800
-3.6413 -2.6209 -2.3275 0.9800
-3.3936 -2.9346 -2.3275 0.9800
-1.7974 -4.1107 -2.3275 0.9800
-1.4874 -4.4428 -2.4306 0.9791
-0.6762 -4.6361 -2.4306 0.9791
-0.2608 -4.6779 -2.4306 0.9791
0.1566 -4.6825 -2.4306 0.9791
1.3881 -4.4748 -2.4306 0.9791
1.7809 -4.3335 -2.4306 0.9791
2.1595 -4.1578 -2.4306 0.9791
3.1813 -3.4395 -2.4306 0.9791
3.4748 -3.1427 -2.4306 0.9791
3.7407 -2.8210 -2.4306 0.9791
3.9769 -2.4769 -2.4306 0.9791
4.3531 -1.7325 -2.4306 0.9791
4.6840 -0.1044 -2.4306 0.9791
4.6747 0.3129 -2.4306 0.9791
4.6283 0.7278 -2.4306 0.9791
4.4259 1.5369 -2.4306 0.9791
4.2716 1.9247 -2.4306 0.9791
4.0833 2.2972 -2.4306 0.9791
3.3313 3.2944 -2.4306 0.9791
3.0249 3.5778 -2.4306 0.9791
2.6944 3.8329 -2.4306 0.9791
1.9721 4.2499 -2.4306 0.9791
1.1874 4.5322 -2.4306 0.9791
0.7793 4.6199 -2.4306 0.9791
-0.0522 4.6849 -2.4306 0.9791
-0.8820 4.6014 -2.4306 0.9791
-1.6125 4.1867 -2.3275 0.9800
-2.3292 3.8344 -2.3275 0.9800
-2.1762 2.9536 -1.9033 0.9836
-3.5210 2.7805 -2.3275 0.9800
-1.2222 0.3941 -0.6662 0.9942
-1.2316 0.2790 -0.6551 0.9943
-1.2514 0.1683 -0.6551 0.9943
-1.2613 0.0562 -0.6550 0.9943
-1.2613 -0.0562 -0.6550 0.9943
-1.2514 -0.1683 -0.6551 0.9943
-1.2316 -0.2790 -0.6551 0.9943
-1.2222 -0.3941 -0.6662 0.9942
-4.1305 -1.7515 -2.3275 0.9800
-3.7545 -2.4561 -2.3275 0.9800
-3.5210 -2.7805 -2.3275 0.9800
-3.2595 -3.0828 -2.3275 0.9800
-2.9722 -3.3607 -2.3275 0.9800
-2.3292 -3.8345 -2.3275 0.9800
-1.6125 -4.1867 -2.3275 0.9800
-0.4690 -4.6616 -2.4306 0.9791
1.9721 -4.2499 -2.4306 0.9791
2.6944 -3.8329 -2.4306 0.9791
3.0249 -3.5779 -2.4306 0.9791
3.3313 -3.2944 -2.4306 0.9791
3.6113 -2.9848 -2.4306 0.9791
4.5452 -1.1368 -2.4306 0.9791
4.6283 -0.7278 -2.4306 0.9791
4.6561 0.5209 -2.4306 0.9791
4.5913 0.9332 -2.4306 0.9791
4.4900 1.3382 -2.4306 0.9791
3.9769 2.4769 -2.4306 0.9791
3.1813 3.4395 -2.4306 0.9791
2.1595 4.1578 -2.4306 0.9791
0.9843 4.5806 -2.4306 0.9791
0.5727 4.6500 -2.4306 0.9791
-0.6762 4.6361 -2.4306 0.9791
-1.0861 4.5575 -2.4306 0.9791
-1.7974 4.1107 -2.3275 0.9800
-2.0340 3.0349 -1.8953 0.9837
-2.8195 3.4898 -2.3275 0.9800
-3.3936 2.9346 -2.3275 0.9800
-3.8601 2.2864 -2.3275 0.9800
-4.0483 1.9337 -2.3275 0.9800
-1.2283 0.3365 -0.6607 0.9943
-1.2426 0.2239 -0.6550 0.9943
-1.2576 0.1124 -0.6550 0.9943
-1.1944 0.0000 -0.6542 0.9946
-1.1464 -0.4269 -0.6700 0.9944
-3.8345 -1.8316 -2.3275 0.9808
-3.6563 -2.1656 -2.3275 0.9808
-3.4490 -2.4825 -2.3275 0.9808
-3.2144 -2.7796 -2.3275 0.9808
-2.9542 -3.0546 -2.3275 0.9808
-1.4089 -4.2082 -2.4306 0.9800
-0.6405 -4.3913 -2.4306 0.9800
1.6868 -4.1046 -2.4306 0.9800
2.7113 -3.5131 -2.4306 0.9800
3.5431 -2.6720 -2.4306 0.9800
3.9608 -2.0015 -2.4306 0.9800
4.1232 -1.6410 -2.4306 0.9800
4.2529 -1.2675 -2.4306 0.9800
4.3488 -0.8839 -2.4306 0.9800
4.4366 -0.0989 -2.4306 0.9800
4.3839 0.6893 -2.4306 0.9800
4.3051 1.0768 -2.4306 0.9800
4.1922 1.4557 -2.4306 0.9800
4.0460 1.8230 -2.4306 0.9800
3.8677 2.1759 -2.4306 0.9800
3.6587 2.5115 -2.4306 0.9800
3.4206 2.8272 -2.4306 0.9800
3.1554 3.1204 -2.4306 0.9800
2.8651 3.3889 -2.4306 0.9800
2.5521 3.6304 -2.4306 0.9800
1.8680 4.0254 -2.4306 0.9800
1.5023 4.1757 -2.4306 0.9800
0.3457 4.4243 -2.4306 0.9800
-0.0494 4.4375 -2.4306 0.9800
-1.2200 4.2667 -2.4306 0.9800
-2.2062 3.6319 -2.3275 0.9808
-3.0874 2.9200 -2.3275 0.9808
-3.3350 2.6336 -2.3275 0.9808
-3.7491 2.0006 -2.3275 0.9808
-1.1411 0.4838 -0.6788 0.9944
-1.1649 0.2639 -0.6542 0.9946
-1.1840 0.1592 -0.6543 0.9946
-1.1933 0.0532 -0.6542 0.9946
-1.1649 -0.2639 -0.6542 0.9946
-3.7491 -2.0006 -2.3275 0.9808
-3.5562 -2.3263 -2.3275 0.9808
-2.8152 -3.1832 -2.3275 0.9808
-2.5207 -3.4212 -2.3275 0.9808
-2.2062 -3.6319 -2.3275 0.9808
-1.5829 -4.1100 -2.4123 0.9801
-1.2200 -4.2668 -2.4306 0.9800
-0.8354 -4.3584 -2.4306 0.9800
-0.4442 -4.4154 -2.4306 0.9800
-0.0494 -4.4375 -2.4306 0.9800
0.7381 -4.3759 -2.4306 0.9800
1.1247 -4.2929 -2.4306 0.9800
1.5023 -4.1757 -2.4306 0.9800
2.5521 -3.6304 -2.4306 0.9800
2.8651 -3.3889 -2.4306 0.9800
3.1554 -3.1204 -2.4306 0.9800
3.4206 -2.8272 -2.4306 0.9800
3.8677 -2.1759 -2.4306 0.9800
4.1922 -1.4557 -2.4306 0.9800
4.3051 -1.0768 -2.4306 0.9800
4.3839 -0.6893 -2.4306 0.9800
4.4278 -0.2964 -2.4306 0.9800
4.4366 0.0989 -2.4306 0.9800
4.4102 0.4934 -2.4306 0.9800
3.7669 2.3461 -2.4306 0.9800
3.5432 2.6720 -2.4306 0.9800
3.2913 2.9768 -2.4306 0.9800
3.0133 3.2579 -2.4306 0.9800
2.3879 3.7405 -2.4306 0.9800
2.0455 3.9382 -2.4306 0.9800
1.3148 4.2385 -2.4306 0.9800
0.1483 4.4353 -2.4306 0.9800
-0.2471 4.4309 -2.4306 0.9800
-0.6405 4.3913 -2.4306 0.9800
-1.7024 3.8936 -2.3275 0.9808
-2.6706 3.3055 -2.3275 0.9808
-2.9542 3.0546 -2.3275 0.9808
-3.8345 1.8316 -2.3275 0.9808
-1.1464 0.4269 -0.6700 0.9944
-1.1577 0.3171 -0.6575 0.9945
-1.1756 0.2118 -0.6543 0.9946
-1.1899 0.1063 -0.6543 0.9946
-1.1319 0.0000 -0.6535 0.9948
-1.1141 -0.2007 -0.6536 0.9948
-3.6376 -1.7375 -2.3275 0.9816
-3.2719 -2.3550 -2.3275 0.9816
-2.8025 -2.8978 -2.3275 0.9816
-2.5335 -3.1357 -2.3275 0.9816
-1.6150 -3.6937 -2.3275 0.9816
-0.6076 -4.1658 -2.4306 0.9807
-0.2344 -4.2033 -2.4306 0.9807
0.1407 -4.2075 -2.4306 0.9807
0.8845 -4.1159 -2.4306 0.9807
1.6002 -3.8939 -2.4306 0.9807
2.2653 -3.5485 -2.4306 0.9807
2.8585 -3.0906 -2.4306 0.9807
3.3612 -2.5348 -2.4306 0.9807
3.5735 -2.2256 -2.4306 0.9807
3.7574 -1.8987 -2.4306 0.9807
4.0345 -1.2024 -2.4306 0.9807
4.1255 -0.8386 -2.4306 0.9807
4.2005 0.2812 -2.4306 0.9807
4.0841 1.0215 -2.4306 0.9807
3.9769 1.3809 -2.4306 0.9807
3.8382 1.7294 -2.4306 0.9807
3.4708 2.3826 -2.4306 0.9807
3.2450 2.6820 -2.4306 0.9807
2.9934 2.9602 -2.4306 0.9807
2.1049 3.6459 -2.4306 0.9807
1.7721 3.8187 -2.4306 0.9807
1.0669 4.0724 -2.4306 0.9807
-0.4214 4.1887 -2.4306 0.9807
-0.7925 4.1346 -2.4306 0.9807
-1.1574 4.0476 -2.4306 0.9807
-1.5131 3.9286 -2.4306 0.9807
-1.7780 3.6181 -2.3275 0.9816
-2.0929 3.4454 -2.3275 0.9816
-2.1697 2.9447 -2.1118 0.9832
-3.3736 2.2069 -2.3275 0.9816
-1.0870 0.3505 -0.6594 0.9947
-1.1039 0.2501 -0.6535 0.9948
-1.1220 0.1509 -0.6536 0.9948
-1.1309 -0.0504 -0.6536 0.9948
-1.1220 -0.1509 -0.6536 0.9948
-1.1039 -0.2501 -0.6535 0.9948
-1.0870 -0.3505 -0.6594 0.9947
-1.0769 -0.4566 -0.6753 0.9946
-3.5566 -1.8979 -2.3275 0.9816
-3.1638 -2.4984 -2.3275 0.9816
-2.6707 -3.0198 -2.3275 0.9816
-1.7780 -3.6180 -2.3275 0.9816
-1.1574 -4.0476 -2.4306 0.9807
-0.7925 -4.1346 -2.4306 0.9807
-0.4214 -4.1887 -2.4306 0.9807
-0.0469 -4.2096 -2.4306 0.9807
0.3280 -4.1971 -2.4306 0.9807
0.7002 -4.1512 -2.4306 0.9807
1.0669 -4.0724 -2.4306 0.9807
1.7721 -3.8187 -2.4306 0.9807
2.4211 -3.4440 -2.4306 0.9807
3.2450 -2.6820 -2.4306 0.9807
3.4708 -2.3826 -2.4306 0.9807
3.6691 -2.0642 -2.4306 0.9807
3.9769 -1.3809 -2.4306 0.9807
4.1588 -0.6539 -2.4306 0.9807
4.2005 -0.2812 -2.4306 0.9807
4.2088 0.0938 -2.4306 0.9807
4.1838 0.4680 -2.4306 0.9807
4.1255 0.8386 -2.4306 0.9807
4.0345 1.2024 -2.4306 0.9807
3.7574 1.8987 -2.4306 0.9807
3.3612 2.5348 -2.4306 0.9807
2.2653 3.5485 -2.4306 0.9807
1.9404 3.7360 -2.4306 0.9807
1.2473 4.0209 -2.4306 0.9807
0.5146 4.1783 -2.4306 0.9807
0.1407 4.2075 -2.4306 0.9807
-0.9759 4.0952 -2.4306 0.9807
-1.3366 3.9921 -2.4306 0.9807
-2.5335 3.1358 -2.3275 0.9816
-3.0493 2.6369 -2.3275 0.9816
-3.6376 1.7375 -2.3275 0.9816
-1.1141 0.2007 -0.6536 0.9948
