ply
format ascii 1.0
element vertex 1419
property float32 x
property float32 y
property float32 z
property float32 I
end_header
12.0285 15.5858 3.4715 0.9231
7.0659 -15.2267 2.5716 0.9343
12.0285 15.5858 3.0160 0.9234
7.0656 -15.2259 2.1858 0.9345
12.0285 15.5858 2.1141 0.9239
12.8489 15.1977 1.6847 0.9232
11.4502 16.2882 1.6854 0.9232
7.0643 -15.2231 1.0407 0.9350
12.0353 15.5945 1.2215 0.9241
11.4575 16.2986 0.7856 0.9233
7.0635 -15.2215 0.6617 0.9350
17.7860 -0.3963 0.3005 0.9313
11.4575 16.2986 0.3365 0.9234
17.6476 -1.1814 0.2988 0.9317
17.9263 0.3995 0.3029 0.9308
-18.5926 6.9239 0.3351 0.9237
-18.5467 5.9805 -0.1097 0.9250
7.0620 -15.2183 -0.0945 0.9351
-18.3841 6.8463 -0.1105 0.9245
17.7860 -0.3964 -0.5009 0.9313
-18.3100 5.9042 -0.5417 0.9259
17.9263 0.3995 -0.5049 0.9308
17.7860 -0.3963 -0.9022 0.9312
12.8796 15.2341 -1.0117 0.9232
-18.0786 5.8296 -0.9633 0.9267
17.6476 -1.1814 -0.8970 0.9316
17.9263 0.3995 -0.9093 0.9307
-17.9937 6.7009 -0.9738 0.9260
10.5148 -13.6245 -1.2619 0.9333
17.7860 -0.3964 -1.3044 0.9311
11.4575 16.2986 -1.4608 0.9232
-9.2269 15.1895 -1.3031 0.9312
-10.0217 13.6015 -1.2388 0.9345
-15.1600 9.9172 -1.3283 0.9299
-17.9643 5.7927 -1.3840 0.9271
17.9263 0.3995 -1.3147 0.9306
12.0353 15.5945 -1.4443 0.9240
-9.1129 16.6289 -1.3903 0.9268
-10.8991 13.4899 -1.2716 0.9328
-15.0204 10.8111 -1.3569 0.9285
-17.6675 8.4390 -1.4356 0.9245
-5.9692 -10.8925 -1.1925 0.9513
10.4619 -16.3884 -1.8666 0.9248
10.4675 -13.5632 -1.6448 0.9335
10.5261 -7.9381 -1.2657 0.9484
17.7860 -0.3963 -1.7080 0.9310
-9.6583 13.1083 -1.5632 0.9367
-11.8363 11.1947 -1.5641 0.9366
-13.4066 10.5871 -1.6400 0.9337
-16.6662 8.8933 -1.8136 0.9269
-18.0300 7.6454 -1.8802 0.9243
-5.7148 -14.8380 -1.5265 0.9381
7.0264 -15.1416 -1.6026 0.9351
10.4649 -14.8866 -1.7470 0.9295
10.4774 -12.3927 -1.5580 0.9369
17.9263 0.3995 -1.7214 0.9305
12.0353 15.5945 -1.8912 0.9239
-10.4938 12.9883 -1.6031 0.9351
-15.2401 9.0268 -1.7005 0.9313
-17.5804 8.3974 -1.8705 0.9247
-17.4220 6.4880 -1.7848 0.9280
-5.6157 -12.8436 -1.6651 0.9451
-5.6236 -16.7968 -2.1041 0.9311
-2.8249 -19.3692 -2.3251 0.9242
9.0216 -17.3696 -2.3250 0.9242
10.4619 -16.3884 -2.3096 0.9247
10.4757 -9.4747 -1.6778 0.9447
10.4851 -7.9072 -1.5600 0.9485
19.6464 -2.1978 -2.3483 0.9235
19.5290 3.0708 -2.3483 0.9235
18.0238 8.1212 -2.3483 0.9235
17.2295 9.6931 -2.3483 0.9235
15.2379 12.5944 -2.3483 0.9235
12.7634 15.0966 -2.3483 0.9235
11.3691 16.1727 -2.3483 0.9235
-1.9593 19.4758 -2.3251 0.9242
-5.3814 18.8198 -2.3251 0.9242
-5.5087 14.3030 -1.8207 0.9401
-8.5031 13.9980 -1.9455 0.9362
-11.4354 10.8155 -1.8697 0.9386
-12.9542 10.2298 -1.9607 0.9357
-17.5530 5.6601 -2.1908 0.9284
-5.6766 -11.5516 -1.5289 0.9495
-5.6192 -14.5899 -1.8572 0.9390
-3.6850 -19.2241 -2.3251 0.9242
-1.9593 -19.4758 -2.3251 0.9242
6.6259 -18.4171 -2.3250 0.9242
7.0190 -15.1255 -1.9807 0.9350
9.7864 -16.9505 -2.3250 0.9242
10.4739 -10.3579 -1.7498 0.9424
17.9337 0.3996 -2.1308 0.9303
19.3728 3.9377 -2.3483 0.9235
18.3677 7.3102 -2.3483 0.9235
16.7806 10.4510 -2.3483 0.9235
14.6617 13.2607 -2.3483 0.9235
13.4232 14.5130 -2.3483 0.9235
12.0353 15.5945 -2.3399 0.9237
9.0216 17.3696 -2.3250 0.9242
-8.6599 12.9214 -1.8477 0.9393
-12.3444 10.6746 -1.9385 0.9364
-13.6060 9.7930 -1.9913 0.9347
-17.4454 8.3329 -2.2965 0.9251
-17.3278 6.4529 -2.1964 0.9282
-5.8508 -6.0497 -1.1925 0.9666
-3.8042 -15.9630 -2.3251 0.9359
-2.3683 -16.2382 -2.3251 0.9359
0.5727 -17.1280 -2.4282 0.9331
2.0949 -17.0091 -2.4282 0.9331
5.0775 -16.3682 -2.4282 0.9331
7.5633 -14.5619 -2.3250 0.9359
8.8293 -13.8309 -2.3250 0.9359
10.4815 -6.5280 -1.7496 0.9513
10.4840 -5.2978 -1.6644 0.9537
10.4862 -4.1734 -1.5991 0.9554
16.4707 -1.8425 -2.3483 0.9352
16.5693 -0.3692 -2.3483 0.9352
15.6564 5.4365 -2.3483 0.9352
12.7747 10.5586 -2.3483 0.9352
11.7843 11.6537 -2.3483 0.9352
9.4367 13.4239 -2.3250 0.9359
5.8016 16.1257 -2.4282 0.9331
4.3433 16.5781 -2.4282 0.9331
2.8505 16.8989 -2.4282 0.9331
1.3351 17.0855 -2.4282 0.9331
-0.1909 17.1365 -2.4282 0.9331
-1.6426 16.3276 -2.3251 0.9359
-3.0893 16.1166 -2.3251 0.9359
-4.5115 15.7777 -2.3251 0.9359
-9.0494 12.2819 -2.1616 0.9402
-10.0362 11.3481 -2.1465 0.9406
-15.2663 8.1464 -2.4518 0.9325
-5.7382 -9.4463 -1.5660 0.9563
-5.6129 -11.4220 -1.8032 0.9499
1.3351 -17.0855 -2.4282 0.9331
4.3433 -16.5781 -2.4282 0.9331
8.2045 -14.2105 -2.3250 0.9359
10.4802 -7.1943 -1.8011 0.9499
10.4828 -5.8975 -1.7042 0.9526
13.3926 -2.1059 -1.9209 0.9467
16.5364 -1.1070 -2.3483 0.9352
16.4707 1.8425 -2.3483 0.9352
15.8830 4.7336 -2.3483 0.9352
14.7921 7.4747 -2.3483 0.9352
14.0681 8.7617 -2.3483 0.9352
13.2324 9.9790 -2.3483 0.9352
12.2917 11.1172 -2.3483 0.9352
11.2534 12.1671 -2.3483 0.9352
8.8294 13.8309 -2.3250 0.9359
3.6005 16.7551 -2.4282 0.9331
0.5727 17.1280 -2.4282 0.9331
-0.9541 17.1110 -2.4282 0.9331
-2.3683 16.2382 -2.3251 0.9359
-8.0055 14.6082 -2.3603 0.9349
-9.7626 12.0833 -2.2010 0.9392
-10.3387 10.6901 -2.1072 0.9417
-14.1055 8.3547 -2.3229 0.9359
-5.8650 -5.0716 -1.2773 0.9691
-5.6493 -5.8413 -1.3387 0.9676
-5.9906 -7.4147 -1.5704 0.9621
-5.6069 -8.3660 -1.6591 0.9600
-5.6106 -10.2380 -1.9233 0.9538
-5.6157 -12.8436 -2.3092 0.9448
-4.4809 -13.3838 -2.3251 0.9444
-3.2719 -13.7295 -2.3251 0.9444
-2.0369 -13.9662 -2.3251 0.9444
0.4925 -14.7315 -2.4282 0.9420
4.3670 -14.0780 -2.4282 0.9420
5.6027 -13.6334 -2.4282 0.9420
6.5050 -12.5244 -2.3250 0.9444
7.5940 -11.8957 -2.3250 0.9444
8.6226 -11.1726 -2.3250 0.9444
10.4669 -9.4668 -2.3250 0.9444
10.4788 -7.9024 -2.1621 0.9482
10.4815 -6.5280 -2.0342 0.9512
10.4862 -4.1734 -1.8593 0.9553
10.4883 -3.1259 -1.8029 0.9566
10.4902 -2.1322 -1.7635 0.9575
14.1661 -1.5847 -2.3483 0.9439
14.0815 2.2142 -2.3483 0.9439
13.8285 3.4588 -2.3483 0.9439
13.4658 4.6758 -2.3483 0.9439
11.7520 8.0673 -2.3483 0.9439
10.9873 9.0813 -2.3483 0.9439
10.0348 9.9237 -2.3250 0.9444
9.1118 10.7774 -2.3250 0.9444
8.1163 11.5456 -2.3250 0.9444
6.2045 13.3703 -2.4282 0.9420
4.9898 13.8695 -2.4282 0.9420
3.7356 14.2586 -2.4282 0.9420
1.1483 14.6950 -2.4282 0.9420
-0.1642 14.7388 -2.4282 0.9420
-1.4754 14.6657 -2.4282 0.9420
-2.6570 13.8616 -2.3251 0.9444
-7.5000 15.2620 -2.8014 0.9334
-8.7891 11.9287 -2.4409 0.9417
-10.7270 10.1455 -2.4324 0.9419
-12.1196 9.5707 -2.5440 0.9393
-14.6489 7.8169 -2.7353 0.9349
-16.7765 7.1138 -3.0019 0.9288
-17.4392 5.6234 -3.0186 0.9284
-5.6483 -5.3421 -1.2807 0.9690
-5.6129 -11.4220 -2.0966 0.9497
-0.1642 -14.7388 -2.4282 0.9420
2.4517 -14.5344 -2.4282 0.9420
4.9898 -13.8695 -2.4282 0.9420
7.0565 -12.2222 -2.3250 0.9444
10.0348 -9.9237 -2.3250 0.9444
14.0815 -2.2142 -2.3483 0.9439
14.2227 -0.9521 -2.3483 0.9439
14.2510 0.3176 -2.3483 0.9439
13.9689 2.8393 -2.3483 0.9439
13.6607 4.0713 -2.3483 0.9439
11.3810 8.5828 -2.3483 0.9439
8.6226 11.1726 -2.3250 0.9444
5.6027 13.6334 -2.4282 0.9420
4.3670 14.0780 -2.4282 0.9420
1.8018 14.6292 -2.4282 0.9420
0.4925 14.7315 -2.4282 0.9420
-3.2719 13.7295 -2.3251 0.9444
-4.4809 13.3838 -2.3251 0.9444
-7.6896 14.0318 -2.6359 0.9372
-11.5277 9.9684 -2.5106 0.9401
-12.3718 8.9047 -2.5111 0.9401
-13.6727 8.0984 -2.6179 0.9376
-5.6310 -5.8224 -1.5225 0.9676
-5.6069 -8.3660 -1.8930 0.9598
-5.6106 -10.2380 -2.1944 0.9536
-2.8677 -12.0333 -2.3251 0.9509
-0.7192 -12.8987 -2.4282 0.9488
1.5792 -12.8219 -2.4282 0.9488
3.8275 -12.3387 -2.4282 0.9488
5.9546 -11.4646 -2.4282 0.9488
7.5573 -9.7923 -2.3250 0.9509
8.3989 -9.0808 -2.3250 0.9509
9.8759 -7.4478 -2.3250 0.9509
10.4815 -6.5280 -2.3210 0.9510
10.4840 -5.2978 -2.2079 0.9533
10.4862 -4.1734 -2.1214 0.9551
10.4883 -3.1259 -2.0571 0.9564
10.4902 -2.1322 -2.0121 0.9574
12.4903 -0.2783 -2.3483 0.9504
12.4655 0.8345 -2.3483 0.9504
12.3418 1.9406 -2.3483 0.9504
11.8021 4.0982 -2.3483 0.9504
10.8885 6.1258 -2.3483 0.9504
8.7951 8.6977 -2.3250 0.9509
7.9860 9.4459 -2.3250 0.9509
7.1136 10.1192 -2.3250 0.9509
5.4379 11.7185 -2.4282 0.9488
4.3734 12.1560 -2.4282 0.9488
3.2741 12.4970 -2.4282 0.9488
2.1488 12.7388 -2.4282 0.9488
-1.2931 12.8538 -2.4282 0.9488
-2.3288 12.1491 -2.3251 0.9509
-3.4009 11.8936 -2.3251 0.9509
-8.5039 11.5416 -2.6946 0.9433
-10.4022 9.8383 -2.6912 0.9434
-11.5762 9.1416 -2.7725 0.9417
-12.2909 8.0403 -2.7606 0.9420
-13.9196 7.4277 -2.9655 0.9378
-14.9945 6.3582 -3.0613 0.9359
-5.4558 -11.1022 -2.3251 0.9509
-3.4009 -11.8936 -2.3251 0.9509
-1.2931 -12.8538 -2.4282 0.9488
-0.1439 -12.9179 -2.4282 0.9488
2.1488 -12.7388 -2.4282 0.9488
3.2741 -12.4970 -2.4282 0.9488
5.4379 -11.7185 -2.4282 0.9488
7.1136 -10.1192 -2.3250 0.9509
7.9860 -9.4459 -2.3250 0.9509
9.5343 -7.8803 -2.3250 0.9509
10.4828 -5.8975 -2.2608 0.9522
10.4851 -4.7244 -2.1616 0.9543
12.3418 -1.9407 -2.3483 0.9504
12.4655 -0.8345 -2.3483 0.9504
12.4160 1.3889 -2.3483 0.9504
11.9730 3.5683 -2.3483 0.9504
9.8759 7.4478 -2.3250 0.9509
9.1738 8.2972 -2.3250 0.9509
7.5573 9.7923 -2.3250 0.9509
6.6748 10.4559 -2.3316 0.9508
5.9546 11.4646 -2.4282 0.9488
3.8275 12.3387 -2.4282 0.9488
1.5792 12.8219 -2.4282 0.9488
0.4317 12.9115 -2.4282 0.9488
-1.7853 12.2408 -2.3251 0.9509
-2.8677 12.0333 -2.3251 0.9509
-3.9273 11.7303 -2.3251 0.9509
-11.1628 9.6529 -2.7738 0.9417
-11.8240 8.5104 -2.7383 0.9424
-13.1284 7.7760 -2.8680 0.9398
-14.4087 6.8825 -3.0014 0.9371
-5.6027 -4.8448 -1.5657 0.9702
-5.6017 -5.7922 -1.7033 0.9676
-5.6069 -8.3660 -2.1288 0.9597
-4.4067 -10.0785 -2.3251 0.9560
-3.4922 -10.4307 -2.3251 0.9560
-0.6395 -11.4696 -2.4282 0.9541
5.2949 -10.1944 -2.4282 0.9541
6.1812 -9.6827 -2.4282 0.9541
8.1574 -7.3779 -2.3250 0.9560
9.8168 -4.9607 -2.3250 0.9560
11.0404 -1.2351 -2.3483 0.9556
10.7773 2.6956 -2.3483 0.9556
10.0280 4.5184 -2.3250 0.9560
9.5861 5.3930 -2.3250 0.9560
9.0680 6.2248 -2.3250 0.9560
7.8207 7.7340 -2.3250 0.9560
6.4630 9.1937 -2.3755 0.9551
5.7437 9.9484 -2.4282 0.9541
2.9113 11.1124 -2.4282 0.9541
1.9107 11.3274 -2.4282 0.9541
0.8949 11.4525 -2.4282 0.9541
-0.1280 11.4867 -2.4282 0.9541
-1.1498 11.4298 -2.4282 0.9541
-2.0708 10.8031 -2.3251 0.9560
-7.9296 10.7621 -2.8257 0.9468
-8.9269 10.0938 -2.8483 0.9464
-11.6562 7.6251 -2.9443 0.9446
-12.6017 6.7245 -3.0193 0.9433
-15.1502 4.8853 -3.3648 0.9370
-5.7551 -4.5448 -1.5501 0.9705
-5.6008 -5.2972 -1.6295 0.9690
-5.6028 -6.3352 -1.7877 0.9660
-5.6086 -9.2330 -2.2835 0.9568
-3.9534 -10.2648 -2.3251 0.9560
-2.0708 -10.8031 -2.3251 0.9560
-1.1498 -11.4298 -2.4282 0.9541
-0.1280 -11.4868 -2.4282 0.9541
0.8949 -11.4526 -2.4282 0.9541
1.9107 -11.3274 -2.4282 0.9541
3.8888 -10.8092 -2.4282 0.9541
5.7437 -9.9484 -2.4282 0.9541
6.4630 -9.1937 -2.3755 0.9551
7.1013 -8.3994 -2.3250 0.9560
9.0680 -6.2248 -2.3250 0.9560
9.5861 -5.3930 -2.3250 0.9560
10.0280 -4.5184 -2.3250 0.9560
10.3904 -3.6079 -2.3250 0.9560
11.0844 -0.7420 -2.3483 0.9556
11.1065 0.2475 -2.3483 0.9556
10.8866 2.2128 -2.3483 0.9556
10.2194 4.0672 -2.3250 0.9560
9.3363 5.8147 -2.3250 0.9560
8.7817 6.6226 -2.3250 0.9560
8.1574 7.3780 -2.3250 0.9560
7.4684 8.0747 -2.3250 0.9560
6.7200 8.7074 -2.3250 0.9560
6.1812 9.6827 -2.4282 0.9541
5.2949 10.1944 -2.4282 0.9541
3.4035 10.9717 -2.4282 0.9541
-1.5927 10.9206 -2.3328 0.9559
-3.4922 10.4307 -2.3251 0.9560
-5.2863 9.6462 -2.3251 0.9560
-9.4372 9.7580 -2.8695 0.9460
-11.2519 8.0986 -2.9304 0.9449
-13.0296 6.2237 -3.0523 0.9427
-5.7489 -3.4051 -1.5704 0.9729
-5.5982 -4.0294 -1.6211 0.9721
-5.6017 -5.7922 -1.8938 0.9674
-3.1409 -9.3814 -2.3251 0.9602
-2.2934 -9.6237 -2.3251 0.9602
-1.4911 -10.2237 -2.4282 0.9584
-0.5752 -10.3158 -2.4282 0.9584
0.3452 -10.3261 -2.4282 0.9584
1.2629 -10.2543 -2.4282 0.9584
2.1706 -10.1012 -2.4282 0.9584
3.0611 -9.8679 -2.4282 0.9584
4.7622 -9.1689 -2.4282 0.9584
5.5594 -8.7086 -2.4282 0.9584
6.3124 -8.1793 -2.4282 0.9584
7.3368 -6.6357 -2.3250 0.9602
8.3971 -5.2298 -2.3250 0.9602
9.8312 -1.0998 -2.3250 0.9602
9.8900 -0.2204 -2.3250 0.9602
9.7724 1.5366 -2.3250 0.9602
9.5969 2.4004 -2.3250 0.9602
9.3451 3.2450 -2.3250 0.9602
9.0192 4.0639 -2.3250 0.9602
8.6217 4.8505 -2.3250 0.9602
8.1558 5.5986 -2.3250 0.9602
7.6251 6.3023 -2.3250 0.9602
6.4682 7.6506 -2.3546 0.9597
5.9418 8.4523 -2.4282 0.9584
5.1659 8.9476 -2.4282 0.9584
3.4976 9.7218 -2.4282 0.9584
2.6184 9.9945 -2.4282 0.9584
1.7185 10.1879 -2.4282 0.9584
-0.1151 10.3312 -2.4282 0.9584
-1.0342 10.2799 -2.4282 0.9584
-1.8625 9.7163 -2.3251 0.9602
-2.7199 9.5120 -2.3251 0.9602
-7.4234 10.0751 -2.9412 0.9499
-9.9268 7.8391 -2.9728 0.9494
-11.5083 6.1410 -3.0657 0.9478
-13.6929 4.4154 -3.3813 0.9426
-17.6906 4.0082 -4.2631 0.9282
-5.8949 -3.1456 -1.5704 0.9729
-5.5990 -4.4215 -1.6767 0.9711
-5.6008 -5.2972 -1.8118 0.9688
-5.6028 -6.3352 -1.9877 0.9658
-5.6054 -7.6076 -2.2209 0.9619
-5.1362 -8.4554 -2.3251 0.9602
-4.3633 -8.8790 -2.3251 0.9602
-3.5557 -9.2321 -2.3251 0.9602
-2.7199 -9.5120 -2.3251 0.9602
-1.0342 -10.2800 -2.4282 0.9584
0.8049 -10.3004 -2.4282 0.9584
1.7185 -10.1879 -2.4282 0.9584
2.6184 -9.9945 -2.4282 0.9584
3.4976 -9.7218 -2.4282 0.9584
6.4682 -7.6506 -2.3546 0.9597
8.1558 -5.5986 -2.3250 0.9602
9.3451 -3.2450 -2.3250 0.9602
9.8704 -0.6607 -2.3250 0.9602
9.8312 1.0998 -2.3250 0.9602
9.6943 1.9704 -2.3250 0.9602
9.4804 2.8255 -2.3250 0.9602
8.8293 4.4616 -2.3250 0.9602
7.8983 5.9564 -2.3250 0.9602
7.3368 6.6357 -2.3250 0.9602
6.7171 7.2624 -2.3250 0.9602
4.7622 9.1689 -2.4282 0.9584
3.0611 9.8679 -2.4282 0.9584
2.1706 10.1012 -2.4282 0.9584
1.2629 10.2544 -2.4282 0.9584
0.3452 10.3261 -2.4282 0.9584
-0.5752 10.3158 -2.4282 0.9584
-4.7545 8.6758 -2.3251 0.9602
-10.3603 7.4569 -3.0000 0.9489
-12.9942 4.8391 -3.2588 0.9446
-14.9680 4.1002 -3.6474 0.9382
-5.5956 -2.6728 -1.6056 0.9747
-5.5968 -3.3150 -1.6842 0.9735
-5.6017 -5.7922 -2.0863 0.9673
-4.9995 -7.4598 -2.3251 0.9636
-4.3157 -7.8752 -2.3251 0.9636
-3.5976 -8.2280 -2.3251 0.9636
-2.8510 -8.5156 -2.3251 0.9636
-2.0818 -8.7355 -2.3251 0.9636
0.3134 -9.3731 -2.4282 0.9620
1.1464 -9.3080 -2.4282 0.9620
2.7786 -8.9573 -2.4282 0.9620
3.5648 -8.6744 -2.4282 0.9620
4.3227 -8.3227 -2.4282 0.9620
6.3679 -6.8849 -2.4282 0.9620
6.6751 -6.0373 -2.3304 0.9635
8.0144 -4.0499 -2.3250 0.9636
8.3431 -3.3205 -2.3250 0.9636
8.6055 -2.5647 -2.3250 0.9636
8.9773 -0.2001 -2.3250 0.9636
8.4827 2.9455 -2.3250 0.9636
8.1869 3.6888 -2.3250 0.9636
7.4031 5.0820 -2.3250 0.9636
6.9214 5.7207 -2.3250 0.9636
5.3934 7.6723 -2.4282 0.9620
4.6892 8.1219 -2.4282 0.9620
3.9477 8.5070 -2.4282 0.9620
2.3768 9.0721 -2.4282 0.9620
1.5599 9.2477 -2.4282 0.9620
0.7306 9.3498 -2.4282 0.9620
-0.9387 9.3312 -2.4282 0.9620
-3.2275 8.3801 -2.3251 0.9636
-3.9606 8.0596 -2.3251 0.9636
-4.6622 7.6751 -2.3251 0.9636
-5.3269 7.2297 -2.3251 0.9636
-8.4259 7.9692 -3.0028 0.9532
-9.2143 7.2764 -3.0399 0.9526
-11.5398 4.8933 -3.2454 0.9495
-5.5019 -1.7742 -1.4968 0.9764
-5.5962 -2.9862 -1.6423 0.9741
-5.5990 -4.4215 -1.8472 0.9710
-5.6028 -6.3352 -2.1898 0.9657
-4.6622 -7.6751 -2.3251 0.9636
-3.9606 -8.0596 -2.3251 0.9636
-0.9387 -9.3312 -2.4282 0.9620
-0.1045 -9.3778 -2.4282 0.9620
0.7306 -9.3498 -2.4282 0.9620
1.5599 -9.2477 -2.4282 0.9620
2.3768 -9.0721 -2.4282 0.9620
3.9477 -8.5070 -2.4282 0.9620
4.6892 -8.1219 -2.4282 0.9620
5.3934 -7.6723 -2.4282 0.9620
6.4680 -6.3964 -2.3553 0.9631
6.9214 -5.7207 -2.3250 0.9636
7.4031 -5.0820 -2.3250 0.9636
7.8261 -4.4029 -2.3250 0.9636
8.7112 -2.1788 -2.3250 0.9636
8.8706 -1.3948 -2.3250 0.9636
8.7996 1.7886 -2.3250 0.9636
8.3431 3.3205 -2.3250 0.9636
7.6222 4.7471 -2.3250 0.9636
6.6751 6.0373 -2.3304 0.9635
6.3679 6.8849 -2.4282 0.9620
5.7299 7.4244 -2.4282 0.9620
4.3227 8.3227 -2.4282 0.9620
1.9703 9.1690 -2.4282 0.9620
1.1464 9.3080 -2.4282 0.9620
-0.5221 9.3638 -2.4282 0.9620
-2.0818 8.7355 -2.3251 0.9636
-4.9995 7.4598 -2.3251 0.9636
-8.0482 8.3217 -2.9975 0.9533
-8.7892 7.6004 -3.0085 0.9531
-11.0610 5.2834 -3.1738 0.9506
-5.5012 2.0487 -1.5199 0.9760
-5.5101 1.5094 -1.4792 0.9767
-19.1870 0.0000 -5.4317 0.9233
-5.5247 -0.4937 -1.5702 0.9772
-5.6017 -5.7922 -2.2811 0.9671
-5.1617 -6.3887 -2.3251 0.9664
-3.9472 -7.2027 -2.3251 0.9664
-1.9040 -7.9896 -2.3251 0.9664
-1.2379 -8.4877 -2.4282 0.9650
-0.4775 -8.5642 -2.4282 0.9650
1.0485 -8.5131 -2.4282 0.9650
1.8020 -8.3860 -2.4282 0.9650
3.2604 -7.9337 -2.4282 0.9650
3.9536 -7.6120 -2.4282 0.9650
5.8241 -6.2970 -2.4282 0.9650
6.9712 -4.3417 -2.3250 0.9664
7.3300 -3.7040 -2.3250 0.9664
7.6306 -3.0369 -2.3250 0.9664
7.8706 -2.3457 -2.3250 0.9664
8.1618 -0.9130 -2.3250 0.9664
8.1944 0.5486 -2.3250 0.9664
8.1130 1.2757 -2.3250 0.9664
7.9673 1.9928 -2.3250 0.9664
7.4877 3.3738 -2.3250 0.9664
7.1577 4.0269 -2.3250 0.9664
6.4633 5.3420 -2.3738 0.9657
5.5378 6.5502 -2.4282 0.9650
2.9037 8.0710 -2.4282 0.9650
0.6682 8.5514 -2.4282 0.9650
-0.0956 8.5769 -2.4282 0.9650
-0.8586 8.5344 -2.4282 0.9650
-1.5829 8.2581 -2.3804 0.9656
-2.9519 7.6645 -2.3251 0.9664
-7.8061 7.3829 -3.0417 0.9563
-8.6300 6.8150 -3.1130 0.9553
-10.0148 5.3441 -3.2135 0.9539
-11.7317 3.7830 -3.4895 0.9500
-5.6915 -1.8353 -1.6929 0.9754
-5.5950 -2.3725 -1.7204 0.9751
-5.5975 -3.6617 -1.8936 0.9726
-5.4412 -6.1524 -2.3251 0.9664
-3.6224 -7.3713 -2.3251 0.9664
4.2887 -7.4283 -2.4282 0.9650
4.9329 -7.0171 -2.4282 0.9650
5.5378 -6.5502 -2.4282 0.9650
6.0989 -6.0313 -2.4282 0.9650
7.1577 -4.0269 -2.3250 0.9664
7.7583 -2.6940 -2.3250 0.9664
8.1130 -1.2757 -2.3250 0.9664
8.0482 1.6359 -2.3250 0.9664
7.8706 2.3457 -2.3250 0.9664
7.6306 3.0369 -2.3250 0.9664
7.3300 3.7040 -2.3250 0.9664
6.9712 4.3417 -2.3250 0.9664
6.3615 5.7536 -2.4282 0.9650
5.2406 6.7904 -2.4282 0.9650
4.6154 7.2298 -2.4282 0.9650
3.9536 7.6120 -2.4282 0.9650
3.2604 7.9336 -2.4282 0.9650
1.8021 8.3860 -2.4282 0.9650
0.2866 8.5727 -2.4282 0.9650
-0.4775 8.5641 -2.4282 0.9650
-3.2904 7.5254 -2.3251 0.9664
-4.5726 6.8228 -2.3251 0.9664
-5.1617 6.3887 -2.3251 0.9664
-8.9796 6.4631 -3.1321 0.9550
-10.4208 4.9776 -3.2693 0.9531
-5.5085 1.5089 -1.6169 0.9765
-16.3423 2.9442 -4.7009 0.9333
-18.8048 -1.6804 -5.8070 0.9240
-5.5944 -2.0834 -1.8362 0.9753
-5.5956 -2.6728 -1.9073 0.9744
-5.5968 -3.3150 -2.0008 0.9731
-5.5982 -4.0294 -2.1215 0.9715
-5.2553 -5.4339 -2.3251 0.9689
-4.7508 -5.8801 -2.3251 0.9689
-4.2086 -6.2796 -2.3251 0.9689
-3.6329 -6.6293 -2.3251 0.9689
-2.4000 -7.1684 -2.3251 0.9689
-1.1393 -7.8120 -2.4282 0.9675
-0.4395 -7.8824 -2.4282 0.9675
0.2638 -7.8902 -2.4282 0.9675
2.3390 -7.5402 -2.4282 0.9675
3.0008 -7.3021 -2.4282 0.9675
3.6388 -7.0060 -2.4282 0.9675
6.3032 -4.7535 -2.4282 0.9675
6.4707 -4.0300 -2.3447 0.9686
7.0231 -2.7952 -2.3250 0.9689
7.2441 -2.1590 -2.3250 0.9689
7.4075 -1.5056 -2.3250 0.9689
7.5121 -0.8404 -2.3250 0.9689
7.5571 -0.1684 -2.3250 0.9689
7.5421 0.5049 -2.3250 0.9689
7.4672 1.1742 -2.3250 0.9689
7.3330 1.8341 -2.3250 0.9689
7.1407 2.4795 -2.3250 0.9689
6.8917 3.1052 -2.3250 0.9689
6.5879 3.7063 -2.3250 0.9689
6.0852 5.0295 -2.4282 0.9675
4.5402 6.4585 -2.4282 0.9675
3.3231 7.1612 -2.4282 0.9675
2.0008 7.6369 -2.4282 0.9675
1.3131 7.7846 -2.4282 0.9675
0.6150 7.8706 -2.4282 0.9675
-0.0879 7.8941 -2.4282 0.9675
-0.7902 7.8550 -2.4282 0.9675
-1.4862 7.7535 -2.4282 0.9675
-3.9246 6.4608 -2.3251 0.9689
-4.4841 6.0859 -2.3251 0.9689
-5.4921 5.1944 -2.3251 0.9689
-11.0019 3.5477 -3.5555 0.9528
-5.5014 1.2464 -1.7350 0.9767
-18.8084 0.8387 -5.7908 0.9242
-5.5089 -0.7409 -1.7097 0.9770
-5.5962 -2.9862 -1.9510 0.9738
-5.5975 -3.6617 -2.0573 0.9724
-5.5990 -4.4215 -2.1944 0.9706
-4.4841 -6.0859 -2.3251 0.9689
-3.3340 -6.7845 -2.3251 0.9689
-2.0783 -7.2682 -2.3251 0.9689
0.6150 -7.8706 -2.4282 0.9675
2.6726 -7.4285 -2.4282 0.9675
3.3231 -7.1611 -2.4282 0.9675
4.5402 -6.4585 -2.4282 0.9675
5.0970 -6.0287 -2.4282 0.9675
5.6134 -5.5512 -2.4282 0.9675
6.4630 -4.4366 -2.4112 0.9677
7.4672 -1.1742 -2.3250 0.9689
7.5421 -0.5049 -2.3250 0.9689
7.5121 0.8404 -2.3250 0.9689
7.0232 2.7951 -2.3250 0.9689
6.3032 4.7534 -2.4282 0.9675
5.8551 5.2956 -2.4282 0.9675
5.3605 5.7957 -2.4282 0.9675
4.8234 6.2498 -2.4282 0.9675
4.2480 6.6543 -2.4282 0.9675
2.3390 7.5402 -2.4282 0.9675
1.6586 7.7184 -2.4282 0.9675
0.2638 7.8902 -2.4282 0.9675
-0.4395 7.8824 -2.4282 0.9675
-1.1393 7.8120 -2.4282 0.9675
-3.6329 6.6293 -2.3251 0.9689
-4.2086 6.2796 -2.3251 0.9689
-5.2553 5.4339 -2.3251 0.9689
-7.7219 6.6774 -3.1399 0.9582
-5.5084 2.0513 -1.8080 0.9757
-11.6143 3.1815 -3.7039 0.9509
-18.7371 1.6744 -5.7861 0.9243
-18.5023 -1.6534 -6.1748 0.9247
-5.5982 -4.0294 -2.2928 0.9713
-4.8628 -5.0281 -2.3251 0.9709
-4.3959 -5.4409 -2.3251 0.9709
-3.3616 -6.1341 -2.3251 0.9709
-2.8023 -6.4090 -2.3251 0.9709
-1.6215 -6.8043 -2.3251 0.9709
-1.0543 -7.2285 -2.4282 0.9697
0.2441 -7.3009 -2.4282 0.9697
0.8929 -7.2502 -2.4282 0.9697
2.7767 -6.7567 -2.4282 0.9697
3.9307 -6.1573 -2.4282 0.9697
4.9601 -5.3628 -2.4282 0.9697
5.4178 -4.9001 -2.4282 0.9697
6.2007 -3.8618 -2.4282 0.9697
6.4630 -3.2659 -2.4070 0.9699
6.4986 -2.5864 -2.3250 0.9709
6.7030 -1.9977 -2.3250 0.9709
6.8542 -1.3932 -2.3250 0.9709
6.9787 0.4671 -2.3250 0.9709
6.9095 1.0865 -2.3250 0.9709
6.6074 2.2943 -2.3250 0.9709
6.4673 2.9140 -2.3579 0.9705
6.3666 3.5818 -2.4282 0.9697
6.0225 4.1342 -2.4282 0.9697
5.6307 4.6539 -2.4282 0.9697
5.1941 5.1366 -2.4282 0.9697
4.7163 5.5785 -2.4282 0.9697
4.2011 5.9761 -2.4282 0.9697
3.0749 6.6263 -2.4282 0.9697
2.4729 6.8737 -2.4282 0.9697
-0.0814 7.3045 -2.4282 0.9697
-0.7312 7.2683 -2.4282 0.9697
-1.3752 7.1744 -2.4282 0.9697
-4.6340 5.2397 -2.3251 0.9709
-5.4896 4.3351 -2.3251 0.9709
-15.3604 2.0658 -5.1518 0.9368
-18.7033 -2.5154 -6.2731 0.9235
-5.5950 -2.3725 -2.0201 0.9747
-5.5962 -2.9862 -2.1085 0.9736
-5.0819 -4.8064 -2.3251 0.9709
-4.1492 -5.6313 -2.3251 0.9709
-1.9230 -6.7253 -2.3251 0.9709
-0.7312 -7.2683 -2.4282 0.9697
-0.0814 -7.3045 -2.4282 0.9697
0.5691 -7.2828 -2.4282 0.9697
3.0749 -6.6263 -2.4282 0.9697
3.6525 -6.3263 -2.4282 0.9697
4.2011 -5.9761 -2.4282 0.9697
4.7163 -5.5785 -2.4282 0.9697
5.1941 -5.1365 -2.4282 0.9697
6.0225 -4.1342 -2.4282 0.9697
6.6074 -2.2943 -2.3250 0.9709
6.7853 -1.6971 -2.3250 0.9709
6.9510 0.7776 -2.3250 0.9709
6.4630 3.2659 -2.4070 0.9699
6.2007 3.8619 -2.4282 0.9697
5.8324 4.3984 -2.4282 0.9697
5.4178 4.9001 -2.4282 0.9697
4.9601 5.3628 -2.4282 0.9697
4.4631 5.7830 -2.4282 0.9697
3.9307 6.1573 -2.4282 0.9697
3.3671 6.4827 -2.4282 0.9697
2.7767 6.7567 -2.4282 0.9697
0.8929 7.2502 -2.4282 0.9697
0.2441 7.3009 -2.4282 0.9697
-0.4067 7.2937 -2.4282 0.9697
-1.6215 6.8043 -2.3251 0.9709
-2.8023 6.4090 -2.3251 0.9709
-4.3959 5.4409 -2.3251 0.9709
-4.8628 5.0281 -2.3251 0.9709
-5.2910 4.5753 -2.3251 0.9709
-7.9456 5.7189 -3.2541 0.9596
-8.6194 5.1053 -3.3300 0.9587
-9.3201 4.4518 -3.4333 0.9574
-12.4711 2.2468 -4.2122 0.9480
-18.4809 -1.6515 -6.6353 0.9242
-5.5944 -2.0834 -2.1348 0.9750
-5.5956 -2.6728 -2.2176 0.9740
-5.5942 -3.3135 -2.3251 0.9728
-5.2771 -3.7983 -2.3251 0.9728
-4.9181 -4.2529 -2.3251 0.9728
-4.5201 -4.6737 -2.3251 0.9728
-4.0861 -5.0575 -2.3251 0.9728
-3.1247 -5.7018 -2.3251 0.9728
-0.9800 -6.7191 -2.4282 0.9716
-0.3780 -6.7796 -2.4282 0.9716
0.2269 -6.7864 -2.4282 0.9716
2.0118 -6.4853 -2.4282 0.9716
2.5810 -6.2805 -2.4282 0.9716
3.6537 -5.7234 -2.4282 0.9716
4.1486 -5.3755 -2.4282 0.9716
5.4214 -4.0884 -2.4282 0.9716
6.0604 -3.0624 -2.4282 0.9716
6.3089 -2.5109 -2.4282 0.9716
6.4630 -1.9262 -2.4117 0.9718
6.4668 -1.3145 -2.3599 0.9724
6.4998 -0.1448 -2.3250 0.9728
6.4869 0.4343 -2.3250 0.9728
6.4713 1.0176 -2.3426 0.9726
6.4630 1.6165 -2.3824 0.9721
5.9179 3.3294 -2.4282 0.9716
5.2339 4.3259 -2.4282 0.9716
3.3951 5.8804 -2.4282 0.9716
2.2987 6.3893 -2.4282 0.9716
1.7209 6.5685 -2.4282 0.9716
1.1294 6.6956 -2.4282 0.9716
0.5290 6.7695 -2.4282 0.9716
-0.0756 6.7898 -2.4282 0.9716
-0.6797 6.7561 -2.4282 0.9716
-1.2783 6.6687 -2.4282 0.9716
-2.8676 5.8354 -2.3251 0.9728
-5.1027 4.0296 -2.3251 0.9728
-5.4411 3.5594 -2.3251 0.9728
-9.1610 3.8846 -3.5584 0.9586
-5.5014 1.2464 -2.0172 0.9763
-5.5087 0.7408 -1.9877 0.9767
-18.4986 -0.8249 -6.6218 0.9244
-5.5089 -0.7409 -1.9878 0.9767
-5.5950 -2.3725 -2.1732 0.9745
-4.3074 -4.8704 -2.3251 0.9728
-2.8676 -5.8354 -2.3251 0.9728
-2.3368 -6.0674 -2.3251 0.9728
-1.7875 -6.2514 -2.3251 0.9728
-0.6797 -6.7561 -2.4282 0.9716
-0.0756 -6.7898 -2.4282 0.9716
0.5290 -6.7695 -2.4282 0.9716
1.1294 -6.6956 -2.4282 0.9716
2.8582 -6.1593 -2.4282 0.9716
3.3951 -5.8805 -2.4282 0.9716
3.9050 -5.5550 -2.4282 0.9716
4.3839 -5.1853 -2.4282 0.9716
4.8281 -4.7746 -2.4282 0.9716
5.2339 -4.3259 -2.4282 0.9716
5.9179 -3.3294 -2.4282 0.9716
6.4145 -2.2273 -2.4282 0.9716
6.4630 -1.6165 -2.3824 0.9721
6.4869 -0.4342 -2.3250 0.9728
6.4998 0.1448 -2.3250 0.9728
6.4745 0.7243 -2.3298 0.9727
6.4668 1.3145 -2.3599 0.9724
6.4630 1.9262 -2.4117 0.9718
5.0360 4.5547 -2.4282 0.9716
4.6106 4.9849 -2.4282 0.9716
4.1486 5.3755 -2.4282 0.9716
3.6537 5.7234 -2.4282 0.9716
0.8300 6.7393 -2.4282 0.9716
0.2269 6.7864 -2.4282 0.9716
-0.3780 6.7796 -2.4282 0.9716
-4.0861 5.0575 -2.3251 0.9728
-4.5201 4.6737 -2.3251 0.9728
-8.8395 4.2223 -3.5032 0.9592
-18.5204 1.6550 -6.6494 0.9240
-5.5089 -0.4923 -2.1195 0.9766
-5.5216 -1.5126 -2.1939 0.9758
-5.5944 -2.0834 -2.2877 0.9748
-5.4749 -2.6151 -2.3251 0.9743
-5.2204 -3.0921 -2.3251 0.9743
-3.3779 -5.0401 -2.3251 0.9743
-1.9263 -5.7535 -2.3251 0.9743
-1.4689 -6.1638 -2.4282 0.9732
-0.9145 -6.2701 -2.4282 0.9732
-0.3528 -6.3266 -2.4282 0.9732
2.4085 -5.8608 -2.4282 0.9732
3.4095 -5.3409 -2.4282 0.9732
4.3024 -4.6518 -2.4282 0.9732
4.6994 -4.2504 -2.4282 0.9732
5.3785 -3.3498 -2.4282 0.9732
5.6553 -2.8578 -2.4282 0.9732
5.8873 -2.3431 -2.4282 0.9732
6.0724 -1.8098 -2.4282 0.9732
6.3348 -0.1412 -2.4282 0.9732
6.2595 0.9843 -2.4282 0.9732
6.1470 1.5375 -2.4282 0.9732
5.9858 2.0785 -2.4282 0.9732
5.7770 2.6030 -2.4282 0.9732
5.2240 3.5861 -2.4282 0.9732
4.5054 4.4555 -2.4282 0.9732
4.0909 4.8388 -2.4282 0.9732
3.6440 5.1837 -2.4282 0.9732
3.1682 5.4875 -2.4282 0.9732
2.6672 5.7477 -2.4282 0.9732
2.1450 5.9623 -2.4282 0.9732
0.4936 6.3171 -2.4282 0.9732
-0.6342 6.3046 -2.4282 0.9732
-2.1807 5.6620 -2.3251 0.9743
-2.6759 5.4454 -2.3251 0.9743
-3.5990 4.8846 -2.3251 0.9743
-4.0195 4.5449 -2.3251 0.9743
-4.4081 4.1691 -2.3251 0.9743
-4.7617 3.7603 -2.3251 0.9743
-5.5859 2.3687 -2.3251 0.9743
-18.3945 0.8202 -7.0561 0.9242
-5.5087 -1.7764 -2.2181 0.9755
-5.5859 -2.3687 -2.3251 0.9743
-5.3529 -2.8564 -2.3251 0.9743
-5.0775 -3.3215 -2.3251 0.9743
-4.7617 -3.7603 -2.3251 0.9743
-4.4081 -4.1691 -2.3251 0.9743
-4.0195 -4.5449 -2.3251 0.9743
-3.5990 -4.8846 -2.3251 0.9743
-2.6759 -5.4454 -2.3251 0.9743
-1.6681 -5.8336 -2.3251 0.9743
-1.1929 -6.2231 -2.4282 0.9732
-0.0706 -6.3360 -2.4282 0.9732
0.4936 -6.3171 -2.4282 0.9732
1.0539 -6.2481 -2.4282 0.9732
3.1682 -5.4875 -2.4282 0.9732
3.6440 -5.1837 -2.4282 0.9732
4.5054 -4.4555 -2.4282 0.9732
5.2240 -3.5861 -2.4282 0.9732
5.5224 -3.1069 -2.4282 0.9732
5.7770 -2.6030 -2.4282 0.9732
5.9858 -2.0785 -2.4282 0.9732
6.1470 -1.5375 -2.4282 0.9732
6.2094 1.2621 -2.4282 0.9732
5.6553 2.8578 -2.4282 0.9732
5.3785 3.3498 -2.4282 0.9732
4.6994 4.2504 -2.4282 0.9732
3.8713 5.0162 -2.4282 0.9732
2.9206 5.6232 -2.4282 0.9732
2.4085 5.8608 -2.4282 0.9732
1.8773 6.0519 -2.4282 0.9732
0.2117 6.3329 -2.4282 0.9732
-0.9145 6.2700 -2.4282 0.9732
-1.9263 5.7535 -2.3251 0.9743
-2.4307 5.5592 -2.3251 0.9743
-2.9159 5.3208 -2.3251 0.9743
-4.9245 3.5444 -2.3251 0.9743
-5.2204 3.0920 -2.3251 0.9743
-10.9172 1.9668 -4.2510 0.9536
-17.9867 0.0000 -7.3615 0.9252
-1.6200 -0.2919 -0.6737 0.9929
-4.2972 -3.7160 -2.3251 0.9757
-3.9494 -4.0837 -2.3251 0.9757
-3.1628 -4.7193 -2.3251 0.9757
-2.2760 -5.2053 -2.3251 0.9757
-1.3754 -5.7714 -2.4282 0.9747
-0.3303 -5.9238 -2.4282 0.9747
0.1983 -5.9296 -2.4282 0.9747
0.7252 -5.8885 -2.4282 0.9747
1.2465 -5.8005 -2.4282 0.9747
3.1924 -5.0009 -2.4282 0.9747
4.0285 -4.3556 -2.4282 0.9747
4.4002 -3.9797 -2.4282 0.9747
5.0361 -3.1365 -2.4282 0.9747
5.5124 -2.1939 -2.4282 0.9747
5.8141 -1.1818 -2.4282 0.9747
5.8962 -0.6596 -2.4282 0.9747
5.9197 0.3963 -2.4282 0.9747
5.4092 2.4373 -2.4282 0.9747
4.5731 3.7798 -2.4282 0.9747
3.4120 4.8537 -2.4282 0.9747
2.9665 5.1381 -2.4282 0.9747
2.4974 5.3818 -2.4282 0.9747
1.5036 5.7393 -2.4282 0.9747
-0.5939 5.9032 -2.4282 0.9747
-1.1169 5.8269 -2.4282 0.9747
-1.5861 5.5471 -2.3613 0.9754
-3.7636 4.2556 -2.3251 0.9757
-4.1274 3.9037 -2.3251 0.9757
-4.7542 3.1100 -2.3251 0.9757
-1.5889 0.5124 -0.6833 0.9928
-1.6146 0.3658 -0.6776 0.9929
-1.6301 -0.2192 -0.6732 0.9929
-1.6146 -0.3658 -0.6776 0.9929
-1.5889 -0.5124 -0.6833 0.9928
-5.2303 -2.2178 -2.3251 0.9757
-4.7542 -3.1101 -2.3251 0.9757
-3.7636 -4.2556 -2.3251 0.9757
-3.3699 -4.5737 -2.3251 0.9757
-2.9495 -4.8555 -2.3251 0.9757
-1.5861 -5.5471 -2.3613 0.9754
-0.0661 -5.9326 -2.4282 0.9747
0.4622 -5.9149 -2.4282 0.9747
0.9868 -5.8503 -2.4282 0.9747
1.5036 -5.7393 -2.4282 0.9747
2.0085 -5.5827 -2.4282 0.9747
2.9665 -5.1381 -2.4282 0.9747
4.8914 -3.3577 -2.4282 0.9747
5.1708 -2.9091 -2.4282 0.9747
5.8610 -0.9216 -2.4282 0.9747
5.9315 0.1322 -2.4282 0.9747
5.8141 1.1818 -2.4282 0.9747
5.6858 1.6946 -2.4282 0.9747
5.5124 2.1939 -2.4282 0.9747
5.2953 2.6758 -2.4282 0.9747
5.0361 3.1365 -2.4282 0.9747
4.0285 4.3556 -2.4282 0.9747
3.6249 4.6969 -2.4282 0.9747
2.7347 5.2652 -2.4282 0.9747
2.2552 5.4877 -2.4282 0.9747
1.7578 5.6666 -2.4282 0.9747
1.2465 5.8005 -2.4282 0.9747
-0.3303 5.9238 -2.4282 0.9747
-0.8562 5.8709 -2.4282 0.9747
-3.1628 4.7193 -2.3251 0.9757
-3.5703 4.4190 -2.3251 0.9757
-3.9494 4.0837 -2.3251 0.9757
-4.2972 3.7160 -2.3251 0.9757
-5.1263 2.4486 -2.3251 0.9757
-5.3239 1.9827 -2.3251 0.9757
-1.6200 0.2919 -0.6737 0.9929
-1.6390 0.1465 -0.6735 0.9929
-1.5215 -0.1360 -0.6657 0.9934
-1.5015 -0.2705 -0.6649 0.9934
-4.9997 -1.8619 -2.3251 0.9770
-3.7089 -3.8350 -2.3251 0.9770
-3.3529 -4.1499 -2.3251 0.9770
-2.5640 -4.6786 -2.3251 0.9770
-2.1374 -4.8883 -2.3251 0.9770
-1.2916 -5.4199 -2.4282 0.9760
0.1862 -5.5685 -2.4282 0.9760
1.1706 -5.4473 -2.4282 0.9760
1.6507 -5.3215 -2.4282 0.9760
2.9980 -4.6963 -2.4282 0.9760
3.7832 -4.0903 -2.4282 0.9760
4.1322 -3.7374 -2.4282 0.9760
4.4485 -3.3547 -2.4282 0.9760
5.1767 -2.0603 -2.4282 0.9760
5.3396 -1.5914 -2.4282 0.9760
5.4600 -1.1098 -2.4282 0.9760
5.5371 -0.6194 -2.4282 0.9760
5.5703 -0.1241 -2.4282 0.9760
5.4051 1.3519 -2.4282 0.9760
5.2634 1.8276 -2.4282 0.9760
4.8559 2.7319 -2.4282 0.9760
4.5935 3.1532 -2.4282 0.9760
3.5972 4.2548 -2.4282 0.9760
2.7858 4.8252 -2.4282 0.9760
2.3453 5.0540 -2.4282 0.9760
1.8862 5.2427 -2.4282 0.9760
1.4121 5.3897 -2.4282 0.9760
0.9267 5.4940 -2.4282 0.9760
0.4341 5.5547 -2.4282 0.9760
-1.0489 5.4720 -2.4282 0.9760
-1.5318 5.3570 -2.4282 0.9760
-1.9175 4.9786 -2.3251 0.9770
-2.2420 3.0429 -1.6472 0.9836
-3.5344 3.9964 -2.3251 0.9770
-3.8761 3.6660 -2.3251 0.9770
-4.1870 3.3064 -2.3251 0.9770
-4.7069 2.5117 -2.3251 0.9770
-1.5029 0.3405 -0.6716 0.9933
-1.5133 0.2035 -0.6654 0.9934
-1.5259 0.0680 -0.6657 0.9934
-1.5133 -0.2035 -0.6654 0.9934
-4.9118 -2.0828 -2.3251 0.9770
-4.7069 -2.5117 -2.3251 0.9770
-4.4647 -2.9207 -2.3251 0.9770
-3.8761 -3.6660 -2.3251 0.9770
-3.5344 -3.9964 -2.3251 0.9770
-3.1647 -4.2951 -2.3251 0.9770
-2.7698 -4.5597 -2.3251 0.9770
-1.9175 -4.9786 -2.3251 0.9770
-1.5318 -5.3570 -2.4282 0.9760
-0.5577 -5.5437 -2.4282 0.9760
-0.0621 -5.5713 -2.4282 0.9760
0.4341 -5.5547 -2.4282 0.9760
1.4121 -5.3897 -2.4282 0.9760
2.3453 -5.0540 -2.4282 0.9760
3.9616 -3.9177 -2.4282 0.9760
5.2634 -1.8276 -2.4282 0.9760
5.4051 -1.3519 -2.4282 0.9760
5.1767 2.0603 -2.4282 0.9760
4.9728 2.5129 -2.4282 0.9760
4.7294 2.9455 -2.4282 0.9760
4.4485 3.3548 -2.4282 0.9760
3.7832 4.0903 -2.4282 0.9760
2.9980 4.6963 -2.4282 0.9760
1.1706 5.4473 -2.4282 0.9760
0.1862 5.5685 -2.4282 0.9760
-0.3102 5.5630 -2.4282 0.9760
-0.8041 5.5133 -2.4282 0.9760
-1.2916 5.4199 -2.4282 0.9760
-2.1374 4.8882 -2.3251 0.9770
-2.5640 4.6786 -2.3251 0.9770
-4.5903 2.7189 -2.3251 0.9770
-4.8141 2.2995 -2.3251 0.9770
-1.3993 -0.2521 -0.6581 0.9938
-1.3946 -0.3820 -0.6693 0.9936
-4.5326 -2.1650 -2.3251 0.9781
-4.3219 -2.5599 -2.3251 0.9781
-4.0769 -2.9344 -2.3251 0.9781
-2.4140 -4.4050 -2.3251 0.9781
-1.5947 -4.7632 -2.3251 0.9781
-1.2161 -5.1029 -2.4282 0.9771
-0.7571 -5.1909 -2.4282 0.9771
-0.2921 -5.2377 -2.4282 0.9771
1.1021 -5.1287 -2.4282 0.9771
1.5542 -5.0103 -2.4282 0.9771
1.9940 -4.8521 -2.4282 0.9771
2.4179 -4.6554 -2.4282 0.9771
2.8227 -4.4217 -2.4282 0.9771
4.1883 -3.1586 -2.4282 0.9771
4.6820 -2.3659 -2.4282 0.9771
4.8740 -1.9398 -2.4282 0.9771
5.0273 -1.4983 -2.4282 0.9771
5.1407 -1.0449 -2.4282 0.9771
5.2133 -0.5832 -2.4282 0.9771
4.7828 2.1550 -2.4282 0.9771
4.5720 2.5721 -2.4282 0.9771
4.0435 3.3420 -2.4282 0.9771
0.4087 5.2299 -2.4282 0.9771
-0.0584 5.2455 -2.4282 0.9771
-0.5251 5.2195 -2.4282 0.9771
-0.9876 5.1520 -2.4282 0.9771
-1.8053 4.6875 -2.3251 0.9781
-2.2154 4.5082 -2.3251 0.9781
-3.3277 3.7627 -2.3251 0.9781
-3.6494 3.4516 -2.3251 0.9781
-3.9421 3.1131 -2.3251 0.9781
-4.2036 2.7498 -2.3251 0.9781
-4.4316 2.3648 -2.3251 0.9781
-4.6245 1.9610 -2.3251 0.9781
-1.3890 0.4479 -0.6755 0.9936
-1.3967 0.3165 -0.6629 0.9937
-1.4099 0.1896 -0.6585 0.9937
-1.4212 0.0634 -0.6585 0.9937
-1.4212 -0.0634 -0.6585 0.9937
-1.4099 -0.1896 -0.6585 0.9937
-1.3890 -0.4479 -0.6755 0.9936
-4.4316 -2.3648 -2.3251 0.9781
-4.2036 -2.7498 -2.3251 0.9781
-3.9421 -3.1131 -2.3251 0.9781
-3.6494 -3.4516 -2.3251 0.9781
-1.4422 -5.0437 -2.4282 0.9771
-0.9876 -5.1520 -2.4282 0.9771
-0.0584 -5.2455 -2.4282 0.9771
0.4087 -5.2299 -2.4282 0.9771
0.8725 -5.1728 -2.4282 0.9771
1.3295 -5.0746 -2.4282 0.9771
2.2082 -4.7585 -2.4282 0.9771
3.0169 -4.2915 -2.4282 0.9771
3.3869 -4.0060 -2.4282 0.9771
3.7300 -3.6887 -2.4282 0.9771
4.0435 -3.3420 -2.4282 0.9771
4.3249 -2.9689 -2.4282 0.9771
4.7828 -2.1550 -2.4282 0.9771
5.0891 -1.2729 -2.4282 0.9771
4.6820 2.3659 -2.4282 0.9771
4.1883 3.1586 -2.4282 0.9771
3.8906 3.5188 -2.4282 0.9771
2.4179 4.6554 -2.4282 0.9771
1.5542 5.0103 -2.4282 0.9771
1.1021 5.1287 -2.4282 0.9771
-0.2921 5.2377 -2.4282 0.9771
-0.7571 5.1909 -2.4282 0.9771
-1.5947 4.7633 -2.3251 0.9781
-2.0422 3.0472 -1.6980 0.9840
-3.1568 3.9072 -2.3251 0.9781
-3.4920 3.6107 -2.3251 0.9781
-3.7996 3.2856 -2.3251 0.9781
-4.0769 2.9344 -2.3251 0.9781
-4.3219 2.5599 -2.3251 0.9781
-4.5326 2.1650 -2.3251 0.9781
-4.7073 1.7530 -2.3251 0.9781
-1.3946 0.3820 -0.6693 0.9936
-1.3993 0.2521 -0.6581 0.9938
-1.3367 0.0000 -0.6557 0.9941
-4.2772 -2.0430 -2.3251 0.9791
-4.0784 -2.4156 -2.3251 0.9791
-3.8472 -2.7691 -2.3251 0.9791
-3.5855 -3.1005 -2.3251 0.9791
-2.9789 -3.6871 -2.3251 0.9791
-2.0470 -3.0543 -1.8036 0.9838
-2.2780 -4.1568 -2.3251 0.9791
-1.1476 -4.8154 -2.4282 0.9782
-0.7144 -4.8984 -2.4282 0.9782
-0.2756 -4.9426 -2.4282 0.9782
0.1654 -4.9475 -2.4282 0.9782
2.2817 -4.3931 -2.4282 0.9782
3.3613 -3.6342 -2.4282 0.9782
3.6714 -3.3205 -2.4282 0.9782
3.9523 -2.9806 -2.4282 0.9782
4.2019 -2.6170 -2.4282 0.9782
4.9196 -0.5504 -2.4282 0.9782
4.9392 0.3306 -2.4282 0.9782
4.3144 2.4272 -2.4282 0.9782
3.5198 3.4808 -2.4282 0.9782
3.1960 3.7803 -2.4282 0.9782
2.4751 4.2871 -2.4282 0.9782
2.0837 4.4904 -2.4282 0.9782
0.8234 4.8813 -2.4282 0.9782
0.3856 4.9352 -2.4282 0.9782
-0.9319 4.8617 -2.4282 0.9782
-1.7036 4.4234 -2.3251 0.9791
-3.1402 3.5507 -2.3251 0.9791
-3.4438 3.2571 -2.3251 0.9791
-3.9667 2.5949 -2.3251 0.9791
-4.1819 2.2316 -2.3251 0.9791
-4.3640 1.8505 -2.3251 0.9791
-1.3089 0.2966 -0.6583 0.9940
-1.3251 0.1782 -0.6559 0.9941
-1.3355 0.0596 -0.6558 0.9941
-1.3355 -0.0596 -0.6558 0.9941
-1.3251 -0.1782 -0.6559 0.9941
-1.3089 -0.2966 -0.6583 0.9940
-3.9667 -2.5949 -2.3251 0.9791
-3.4438 -3.2571 -2.3251 0.9791
-2.8117 -3.8161 -2.3251 0.9791
-2.4609 -4.0512 -2.3251 0.9791
-2.0906 -4.2542 -2.3251 0.9791
-1.7036 -4.4234 -2.3251 0.9791
-0.4955 -4.9254 -2.4282 0.9782
-0.0551 -4.9500 -2.4282 0.9782
0.8234 -4.8813 -2.4282 0.9782
2.4751 -4.2870 -2.4282 0.9782
2.8469 -4.0497 -2.4282 0.9782
3.1960 -3.7803 -2.4282 0.9782
4.0812 -2.8016 -2.4282 0.9782
4.3144 -2.4272 -2.4282 0.9782
4.5133 -2.0336 -2.4282 0.9782
4.6764 -1.6238 -2.4282 0.9782
4.8023 -1.2012 -2.4282 0.9782
4.8902 -0.7689 -2.4282 0.9782
4.9392 -0.3306 -2.4282 0.9782
4.5994 1.8305 -2.4282 0.9782
4.4182 2.2326 -2.4282 0.9782
3.6714 3.3205 -2.4282 0.9782
3.0245 3.9189 -2.4282 0.9782
2.2817 4.3930 -2.4282 0.9782
1.8816 4.5787 -2.4282 0.9782
1.4666 4.7280 -2.4282 0.9782
1.0400 4.8398 -2.4282 0.9782
0.1654 4.9475 -2.4282 0.9782
-0.2756 4.9426 -2.4282 0.9782
-0.7144 4.8984 -2.4282 0.9782
-1.8990 4.3431 -2.3251 0.9791
-2.2780 4.1568 -2.3251 0.9791
-2.0381 3.0410 -1.7957 0.9838
-2.9789 3.6871 -2.3251 0.9791
-3.5855 3.1005 -2.3251 0.9791
-3.8472 2.7690 -2.3251 0.9791
-4.2772 2.0430 -2.3251 0.9791
-1.3159 0.2371 -0.6559 0.9941
-1.2624 0.0000 -0.6549 0.9943
-1.2576 -0.1124 -0.6550 0.9943
-1.2283 -0.3365 -0.6607 0.9943
-4.0442 -1.9318 -2.3251 0.9800
-3.8562 -2.2841 -2.3251 0.9800
-3.6377 -2.6182 -2.3251 0.9800
-2.0404 -3.0445 -1.9013 0.9836
-0.2606 -4.6734 -2.4282 0.9791
0.1564 -4.6780 -2.4282 0.9791
0.5722 -4.6455 -2.4282 0.9791
1.3868 -4.4705 -2.4282 0.9791
1.7792 -4.3293 -2.4282 0.9791
2.1574 -4.1538 -2.4282 0.9791
2.8597 -3.7055 -2.4282 0.9791
3.4714 -3.1397 -2.4282 0.9791
4.3489 -1.7308 -2.4282 0.9791
4.4857 -1.3369 -2.4282 0.9791
4.5868 -0.9323 -2.4282 0.9791
4.6516 -0.5204 -2.4282 0.9791
4.6795 -0.1043 -2.4282 0.9791
4.6702 0.3126 -2.4282 0.9791
4.6238 0.7271 -2.4282 0.9791
4.4217 1.5354 -2.4282 0.9791
4.0794 2.2950 -2.4282 0.9791
3.6078 2.9820 -2.4282 0.9791
3.3281 3.2912 -2.4282 0.9791
3.0219 3.5744 -2.4282 0.9791
1.9702 4.2458 -2.4282 0.9791
1.5845 4.4043 -2.4282 0.9791
-0.0521 4.6804 -2.4282 0.9791
-0.4685 4.6571 -2.4282 0.9791
-1.2868 4.5003 -2.4282 0.9791
-2.3269 3.8306 -2.3251 0.9800
-2.1762 2.9535 -1.9032 0.9836
-3.7507 2.4536 -2.3251 0.9800
-4.1263 1.7497 -2.3251 0.9800
-1.2222 0.3941 -0.6662 0.9942
-1.2514 0.1683 -0.6551 0.9943
-1.2613 0.0562 -0.6550 0.9943
-1.2613 -0.0562 -0.6550 0.9943
-1.2222 -0.3941 -0.6662 0.9942
-4.1263 -1.7497 -2.3251 0.9800
-3.5174 -2.7777 -2.3251 0.9800
-2.9692 -3.3573 -2.3251 0.9800
-2.6586 -3.6083 -2.3251 0.9800
-1.9767 -4.0225 -2.3251 0.9800
-1.6108 -4.1824 -2.3251 0.9800
-1.2868 -4.5003 -2.4282 0.9791
-0.4685 -4.6571 -2.4282 0.9791
-0.0521 -4.6804 -2.4282 0.9791
1.1862 -4.5278 -2.4282 0.9791
1.5845 -4.4043 -2.4282 0.9791
3.0219 -3.5744 -2.4282 0.9791
3.3281 -3.2912 -2.4282 0.9791
3.6078 -2.9820 -2.4282 0.9791
4.2674 -1.9228 -2.4282 0.9791
4.5408 -1.1357 -2.4282 0.9791
4.6238 -0.7271 -2.4282 0.9791
4.6702 -0.3126 -2.4282 0.9791
4.6795 0.1043 -2.4282 0.9791
4.5868 0.9323 -2.4282 0.9791
4.1776 2.1110 -2.4282 0.9791
3.7371 2.8182 -2.4282 0.9791
3.4714 3.1397 -2.4282 0.9791
2.5186 3.9453 -2.4282 0.9791
2.1574 4.1538 -2.4282 0.9791
1.3868 4.4705 -2.4282 0.9791
0.9834 4.5762 -2.4282 0.9791
-0.2606 4.6734 -2.4282 0.9791
-1.0851 4.5531 -2.4282 0.9791
-1.4860 4.4385 -2.4282 0.9791
-1.7955 4.1065 -2.3251 0.9800
-2.1539 3.9304 -2.3251 0.9800
-3.3902 2.9316 -2.3251 0.9800
-3.6377 2.6182 -2.3251 0.9800
-4.0442 1.9318 -2.3251 0.9800
-1.2162 0.4529 -0.6733 0.9942
-1.2283 0.3365 -0.6607 0.9943
-1.2426 0.2239 -0.6550 0.9943
-1.1899 -0.1063 -0.6543 0.9946
-1.1756 -0.2118 -0.6543 0.9946
-1.1577 -0.3171 -0.6575 0.9945
-3.4455 -2.4800 -2.3251 0.9808
-3.2111 -2.7768 -2.3251 0.9808
-2.6679 -3.3021 -2.3251 0.9808
-2.0402 -3.7229 -2.3251 0.9808
-1.0278 -4.3127 -2.4282 0.9800
-0.2468 -4.4266 -2.4282 0.9800
0.1481 -4.4310 -2.4282 0.9800
1.6852 -4.1007 -2.4282 0.9800
2.7087 -3.5097 -2.4282 0.9800
3.0103 -3.2547 -2.4282 0.9800
3.2881 -2.9739 -2.4282 0.9800
3.7633 -2.3438 -2.4282 0.9800
4.1192 -1.6394 -2.4282 0.9800
4.4324 -0.0988 -2.4282 0.9800
4.3010 1.0757 -2.4282 0.9800
4.1881 1.4543 -2.4282 0.9800
4.0421 1.8213 -2.4282 0.9800
3.4173 2.8245 -2.4282 0.9800
3.1523 3.1174 -2.4282 0.9800
2.8624 3.3856 -2.4282 0.9800
2.5497 3.6270 -2.4282 0.9800
0.3454 4.4200 -2.4282 0.9800
-0.0494 4.4332 -2.4282 0.9800
-0.8346 4.3542 -2.4282 0.9800
-1.2189 4.2626 -2.4282 0.9800
-1.8723 3.8100 -2.3251 0.9808
-2.2040 3.6283 -2.3251 0.9808
-2.1729 2.9491 -2.0063 0.9834
-3.0843 2.9171 -2.3251 0.9808
-3.3317 2.6310 -2.3251 0.9808
-3.5526 2.3240 -2.3251 0.9808
-1.1515 0.3713 -0.6626 0.9945
-1.1649 0.2639 -0.6542 0.9946
-1.1933 0.0532 -0.6542 0.9946
-1.1933 -0.0532 -0.6542 0.9946
-1.1840 -0.1592 -0.6543 0.9946
-1.1649 -0.2639 -0.6542 0.9946
-1.1515 -0.3713 -0.6626 0.9945
-1.1411 -0.4838 -0.6788 0.9944
-3.7454 -1.9986 -2.3251 0.9808
-3.5526 -2.3240 -2.3251 0.9808
-2.2040 -3.6283 -2.3251 0.9808
-1.8723 -3.8100 -2.3251 0.9808
-1.2189 -4.2626 -2.4282 0.9800
-0.8346 -4.3542 -2.4282 0.9800
-0.0494 -4.4332 -2.4282 0.9800
0.3454 -4.4200 -2.4282 0.9800
0.7374 -4.3717 -2.4282 0.9800
1.1236 -4.2887 -2.4282 0.9800
1.8662 -4.0215 -2.4282 0.9800
2.5497 -3.6270 -2.4282 0.9800
3.6551 -2.5091 -2.4282 0.9800
3.8639 -2.1738 -2.4282 0.9800
4.0421 -1.8213 -2.4282 0.9800
4.3796 -0.6887 -2.4282 0.9800
4.4236 -0.2961 -2.4282 0.9800
4.4060 0.4929 -2.4282 0.9800
3.9569 1.9995 -2.4282 0.9800
3.7633 2.3438 -2.4282 0.9800
3.2881 2.9739 -2.4282 0.9800
3.0103 3.2547 -2.4282 0.9800
2.7087 3.5098 -2.4282 0.9800
2.3856 3.7369 -2.4282 0.9800
0.5419 4.4002 -2.4282 0.9800
0.1481 4.4310 -2.4282 0.9800
-0.6398 4.3871 -2.4282 0.9800
-1.4075 4.2041 -2.4282 0.9800
-2.0295 3.0283 -1.9967 0.9835
-2.6679 3.3021 -2.3251 0.9808
-3.6526 2.1634 -2.3251 0.9808
-3.8307 1.8298 -2.3251 0.9808
-1.1464 0.4269 -0.6700 0.9944
-1.1577 0.3171 -0.6575 0.9945
-1.1899 0.1063 -0.6543 0.9946
-1.1319 0.0000 -0.6535 0.9948
-1.1276 -0.1008 -0.6536 0.9948
-1.0934 -0.2995 -0.6545 0.9948
-1.0827 -0.4032 -0.6671 0.9947
-3.4650 -2.0523 -2.3251 0.9816
-3.2686 -2.3526 -2.3251 0.9816
-2.5309 -3.1326 -2.3251 0.9816
-2.0404 -3.0445 -2.1160 0.9832
-1.9354 -3.5317 -2.3251 0.9816
-1.6134 -3.6899 -2.3251 0.9816
-1.3353 -3.9882 -2.4282 0.9808
0.5141 -4.1743 -2.4282 0.9808
0.8836 -4.1119 -2.4282 0.9808
2.5696 -3.3296 -2.4282 0.9808
3.1192 -2.8212 -2.4282 0.9808
3.3580 -2.5323 -2.4282 0.9808
4.1215 -0.8377 -2.4282 0.9808
4.2048 -0.0937 -2.4282 0.9808
4.1964 0.2809 -2.4282 0.9808
4.1547 0.6533 -2.4282 0.9808
3.9731 1.3796 -2.4282 0.9808
3.6655 2.0622 -2.4282 0.9808
2.7154 3.2118 -2.4282 0.9808
2.1029 3.6423 -2.4282 0.9808
1.7704 3.8150 -2.4282 0.9808
1.0659 4.0685 -2.4282 0.9808
-0.0469 4.2055 -2.4282 0.9808
-1.1563 4.0437 -2.4282 0.9808
-1.5116 3.9248 -2.4282 0.9808
-2.0908 3.4420 -2.3251 0.9816
-2.9259 2.7673 -2.3251 0.9816
-3.1606 2.4959 -2.3251 0.9816
-1.1039 0.2501 -0.6535 0.9948
-1.1220 0.1509 -0.6536 0.9948
-1.1309 0.0504 -0.6536 0.9948
-1.1220 -0.1509 -0.6536 0.9948
-1.0870 -0.3505 -0.6594 0.9947
-2.9259 -2.7673 -2.3251 0.9816
-2.3889 -3.2422 -2.3251 0.9816
-2.0908 -3.4420 -2.3251 0.9816
-1.7762 -3.6144 -2.3251 0.9816
-1.1563 -4.0437 -2.4282 0.9808
-0.7918 -4.1306 -2.4282 0.9808
-0.4210 -4.1847 -2.4282 0.9808
-0.0469 -4.2055 -2.4282 0.9808
0.3276 -4.1930 -2.4282 0.9808
0.6995 -4.1472 -2.4282 0.9808
1.4238 -3.9575 -2.4282 0.9808
1.7704 -3.8150 -2.4282 0.9808
2.4187 -3.4407 -2.4282 0.9808
2.7154 -3.2118 -2.4282 0.9808
2.9905 -2.9573 -2.4282 0.9808
3.2418 -2.6794 -2.4282 0.9808
3.4674 -2.3803 -2.4282 0.9808
3.6655 -2.0622 -2.4282 0.9808
3.8345 -1.7278 -2.4282 0.9808
3.9731 -1.3796 -2.4282 0.9808
4.0801 -1.0205 -2.4282 0.9808
4.1547 -0.6533 -2.4282 0.9808
4.1215 0.8377 -2.4282 0.9808
4.0306 1.2012 -2.4282 0.9808
3.9077 1.5552 -2.4282 0.9808
3.7538 1.8969 -2.4282 0.9808
3.3580 2.5323 -2.4282 0.9808
2.8558 3.0876 -2.4282 0.9808
2.2631 3.5450 -2.4282 0.9808
1.2461 4.0170 -2.4282 0.9808
0.8836 4.1119 -2.4282 0.9808
0.5141 4.1743 -2.4282 0.9808
-0.2341 4.1993 -2.4282 0.9808
-0.6070 4.1618 -2.4282 0.9808
-1.3353 3.9882 -2.4282 0.9808
-2.5309 3.1326 -2.3251 0.9816
-2.7997 2.8949 -2.3251 0.9816
-1.1276 0.1008 -0.6536 0.9948
