ply
format ascii 1.0
element vertex 1399
property float32 x
property float32 y
property float32 z
property float32 I
end_header
7.0654 -15.2255 1.8024 0.9347
12.8518 15.2012 1.6851 0.9232
12.7493 15.0799 1.2245 0.9239
11.4575 16.2986 0.7856 0.9233
12.0353 15.5945 0.7767 0.9242
-18.7269 6.9739 0.7880 0.9231
11.4575 16.2986 0.3365 0.9234
7.0631 -15.2206 0.2834 0.9351
17.9263 0.3995 0.3029 0.9308
12.0353 15.5945 0.3327 0.9242
-18.6786 6.9560 0.3367 0.9234
17.7860 -0.3963 -0.1002 0.9313
-18.6214 6.0046 -0.1102 0.9247
7.0624 -15.2190 -0.0945 0.9351
17.6476 -1.1814 -0.0996 0.9317
17.9263 0.3995 -0.1010 0.9308
11.4575 16.2986 -0.5610 0.9234
-18.4293 5.9427 -0.5453 0.9254
7.0616 -15.2174 -0.4724 0.9351
17.9263 0.3995 -0.5049 0.9308
12.0353 15.5945 -0.5547 0.9242
-18.2686 6.8033 -0.5489 0.9250
17.7860 -0.3963 -0.9022 0.9312
7.0609 -15.2158 -0.8507 0.9350
17.6476 -1.1814 -0.8970 0.9316
17.7860 -0.3964 -1.3044 0.9311
11.4575 16.2986 -1.4608 0.9232
-10.8322 14.7015 -1.3390 0.9294
-14.6188 11.5443 -1.3658 0.9280
-15.6528 10.2396 -1.3715 0.9277
-17.9035 7.5917 -1.4259 0.9250
7.0601 -15.2142 -1.2298 0.9349
17.9263 0.3995 -1.3147 0.9306
-11.3216 14.0129 -1.3209 0.9303
-15.3412 11.0420 -1.3859 0.9270
-16.2990 9.6539 -1.3890 0.9268
-17.7010 8.4550 -1.4383 0.9243
10.4619 -16.3884 -1.8666 0.9248
10.5148 -13.6245 -1.6523 0.9332
-9.0131 14.8376 -1.6667 0.9326
-9.8232 13.3321 -1.5899 0.9356
-11.0339 12.4762 -1.5990 0.9353
-12.0308 11.3786 -1.5898 0.9356
-13.7548 10.8621 -1.6826 0.9320
-16.9745 9.0579 -1.8471 0.9256
-17.9413 7.6077 -1.8709 0.9247
-17.8793 5.7653 -1.8035 0.9273
-5.8345 -15.1490 -1.5585 0.9368
7.0594 -15.2126 -1.6101 0.9348
10.4649 -14.8866 -1.7470 0.9295
12.0353 15.5945 -1.8912 0.9239
-8.8755 16.1957 -1.7730 0.9285
-11.2061 11.5870 -1.5476 0.9373
-14.5889 10.5005 -1.7257 0.9303
-15.5206 9.1929 -1.7318 0.9301
-5.6236 -16.7968 -2.1041 0.9311
10.4619 -16.3884 -2.3096 0.9247
10.4720 -11.3222 -1.8320 0.9398
10.8903 -9.8497 -1.7442 0.9426
18.8403 -2.1076 -2.2519 0.9265
-8.6588 14.2544 -1.9811 0.9350
-11.6232 10.9932 -1.9004 0.9376
-14.2452 9.3188 -2.0220 0.9337
-16.2315 8.6614 -2.1854 0.9286
-17.7695 5.7299 -2.2178 0.9276
10.4739 -10.3579 -1.7498 0.9424
17.6476 -1.1814 -2.1010 0.9312
17.9263 0.3995 -2.1299 0.9303
12.0353 15.5945 -2.3399 0.9237
-8.7975 13.1268 -1.8771 0.9383
-10.8448 11.2135 -1.8530 0.9391
-12.5471 10.8499 -1.9704 0.9354
-13.9041 10.0076 -2.0349 0.9333
-17.7960 8.5004 -2.3427 0.9236
-5.6572 -10.3231 -1.6679 0.9536
-5.5995 -16.7247 -2.4990 0.9312
-2.5454 -17.4526 -2.4990 0.9312
0.6137 -18.3545 -2.6021 0.9285
5.4410 -17.5403 -2.6021 0.9285
8.1289 -15.6509 -2.4988 0.9312
9.4897 -14.8653 -2.4988 0.9312
10.4675 -13.5632 -2.4275 0.9331
10.4815 -6.5280 -1.7496 0.9513
17.7962 -0.3966 -2.5222 0.9306
17.7608 1.1889 -2.5222 0.9306
17.5845 2.7650 -2.5222 0.9306
17.2686 4.3192 -2.5222 0.9306
12.6568 12.5166 -2.5222 0.9306
11.4925 13.5935 -2.5222 0.9306
10.1424 14.4278 -2.4988 0.9312
6.2170 17.2804 -2.6021 0.9285
4.6543 17.7652 -2.6021 0.9285
3.0546 18.1090 -2.6021 0.9285
-0.2046 18.3636 -2.6021 0.9285
-10.1970 11.5300 -2.1809 0.9397
-11.2455 10.6359 -2.1931 0.9394
-15.5474 8.2964 -2.4969 0.9313
-17.4676 5.6326 -2.6005 0.9285
-5.6129 -11.4220 -1.8032 0.9499
-5.6192 -14.5899 -2.2153 0.9388
-4.8489 -16.9576 -2.4990 0.9312
-1.7732 -17.6265 -2.5101 0.9309
1.4307 -18.3090 -2.6021 0.9285
3.0546 -18.1089 -2.6021 0.9285
6.2170 -17.2804 -2.6021 0.9285
7.0149 -15.1168 -2.3613 0.9349
8.8180 -15.2733 -2.4988 0.9312
10.4699 -12.3838 -2.2977 0.9366
10.4739 -10.3579 -2.0872 0.9422
10.7289 -6.0360 -1.7442 0.9515
13.4331 -2.1123 -1.9267 0.9465
17.7608 -1.1889 -2.5222 0.9306
17.7962 0.3966 -2.5222 0.9306
17.4439 3.5456 -2.5222 0.9306
17.0591 5.0841 -2.5222 0.9306
15.1097 9.4104 -2.5222 0.9306
14.2122 10.7179 -2.5222 0.9306
13.2018 11.9403 -2.5222 0.9306
12.0867 13.0680 -2.5222 0.9306
10.8756 14.0919 -2.5222 0.9306
9.4897 14.8653 -2.4988 0.9312
8.1289 15.6509 -2.4988 0.9312
5.4411 17.5403 -2.6021 0.9285
3.8583 17.9549 -2.6021 0.9285
2.2449 18.2271 -2.6021 0.9285
0.6137 18.3545 -2.6021 0.9285
-4.0887 17.1567 -2.4990 0.9312
-5.5995 16.7247 -2.4990 0.9312
-7.7567 17.7401 -2.7434 0.9248
-8.5307 12.7287 -2.1711 0.9400
-9.9293 12.2896 -2.2386 0.9382
-10.5044 10.8614 -2.1409 0.9408
-12.1192 10.4799 -2.2701 0.9373
-14.3109 8.4764 -2.3567 0.9350
-16.9674 8.1046 -2.6643 0.9268
-5.6157 -12.8436 -2.3092 0.9448
-4.8160 -14.3846 -2.4990 0.9404
-3.5166 -14.7562 -2.4990 0.9404
-2.1892 -15.0107 -2.4990 0.9404
4.6797 -15.0861 -2.6021 0.9380
6.0039 -14.6097 -2.6021 0.9380
6.9915 -13.4611 -2.4988 0.9404
9.2675 -12.0082 -2.4988 0.9404
10.2995 -11.1357 -2.4988 0.9404
10.4757 -9.4747 -2.3269 0.9443
10.4840 -5.2978 -1.9351 0.9535
10.4862 -4.1734 -1.8593 0.9553
10.4883 -3.1259 -1.8029 0.9566
15.2151 -1.7021 -2.5222 0.9398
15.2758 1.0226 -2.5222 0.9398
15.1241 2.3782 -2.5222 0.9398
14.8524 3.7148 -2.5222 0.9398
13.9585 6.2894 -2.5222 0.9398
13.3433 7.5068 -2.5222 0.9398
12.6222 8.6646 -2.5222 0.9398
10.8859 10.7653 -2.5222 0.9398
8.7233 12.4091 -2.4988 0.9404
6.4675 13.9371 -2.5312 0.9396
4.0031 15.2796 -2.6021 0.9380
2.6272 15.5752 -2.6021 0.9380
-1.5810 15.7159 -2.6021 0.9380
-4.1704 14.5849 -2.4990 0.9404
-5.5197 11.2323 -2.0618 0.9505
-8.9178 12.1033 -2.4767 0.9409
-9.8791 11.1704 -2.4566 0.9413
-17.2973 7.3347 -3.0952 0.9267
-17.4070 5.6130 -3.0130 0.9285
-5.6086 -9.2330 -1.7797 0.9572
-5.4520 -14.1558 -2.4990 0.9404
-0.1760 -15.7943 -2.6021 0.9380
1.2305 -15.7472 -2.6021 0.9380
2.6272 -15.5752 -2.6021 0.9380
5.3471 -14.8626 -2.6021 0.9380
6.4675 -13.9371 -2.5312 0.9396
7.5842 -13.1363 -2.4988 0.9404
8.7233 -12.4091 -2.4988 0.9404
9.7932 -11.5834 -2.4988 0.9404
10.4773 -8.6597 -2.2393 0.9464
10.4802 -7.1943 -2.0941 0.9498
10.4828 -5.8975 -1.9815 0.9524
10.4872 -3.6416 -1.8289 0.9560
10.4893 -2.6236 -1.7812 0.9571
15.2758 -1.0226 -2.5222 0.9398
15.2151 1.7021 -2.5222 0.9398
14.6722 4.3728 -2.5222 0.9398
13.6644 6.9049 -2.5222 0.9398
12.9956 8.0938 -2.5222 0.9398
12.2237 9.2183 -2.5222 0.9398
11.3547 10.2697 -2.5222 0.9398
10.2995 11.1357 -2.4988 0.9404
8.1619 12.7854 -2.4988 0.9404
4.6798 15.0861 -2.6021 0.9380
3.3184 15.4427 -2.6021 0.9380
1.9308 15.6768 -2.6021 0.9380
-3.5166 14.7562 -2.4990 0.9404
-4.8160 14.3847 -2.4990 0.9404
-8.2878 12.3662 -2.4524 0.9414
-10.1827 10.5288 -2.4130 0.9423
-13.8718 8.2163 -2.6560 0.9367
-17.0457 6.3479 -2.9965 0.9289
-5.8650 -5.0716 -1.4574 0.9689
-5.8319 -7.2182 -1.7442 0.9629
-5.6069 -8.3660 -1.8930 0.9598
-5.6106 -10.2380 -2.1944 0.9536
-5.3264 -12.1818 -2.4990 0.9473
-4.2210 -12.6075 -2.4990 0.9473
-3.0821 -12.9332 -2.4990 0.9473
-1.9188 -13.1562 -2.4990 0.9473
-0.7707 -13.8223 -2.6021 0.9452
5.2622 -12.8047 -2.6021 0.9452
7.1535 -11.2058 -2.4988 0.9473
8.1225 -10.5246 -2.4988 0.9473
10.4788 -7.9024 -2.4669 0.9480
10.4815 -6.5280 -2.3210 0.9510
10.4840 -5.2978 -2.2079 0.9533
10.4862 -4.1734 -2.1214 0.9551
13.2556 2.0844 -2.5222 0.9469
13.0175 3.2559 -2.5222 0.9469
12.6760 4.4016 -2.5222 0.9469
11.6948 6.5794 -2.5222 0.9469
11.0628 7.5942 -2.5222 0.9469
10.2474 8.4696 -2.4988 0.9473
9.4528 9.3481 -2.4988 0.9473
8.5833 10.1524 -2.4988 0.9473
6.6472 11.5134 -2.4988 0.9473
5.8273 12.5576 -2.6021 0.9452
1.0785 13.8017 -2.6021 0.9452
-0.1542 13.8430 -2.6021 0.9452
-1.3857 13.7743 -2.6021 0.9452
-2.5029 13.0576 -2.4990 0.9473
-4.7784 12.4070 -2.4990 0.9473
-7.3298 14.9157 -3.1238 0.9346
-7.7180 12.7055 -2.7942 0.9413
-11.8396 9.3496 -2.8356 0.9404
-12.6292 8.2616 -2.8366 0.9404
-17.6921 5.7049 -3.4940 0.9271
-5.6054 -7.6077 -1.7762 0.9623
-5.6086 -9.2330 -2.0305 0.9570
-5.6129 -11.4220 -2.3921 0.9495
-4.7784 -12.4070 -2.4990 0.9473
-3.6552 -12.7830 -2.4990 0.9473
-2.5029 -13.0576 -2.4990 0.9473
-1.3857 -13.7743 -2.6021 0.9452
-0.1542 -13.8429 -2.6021 0.9452
2.3026 -13.6510 -2.6021 0.9452
4.6865 -13.0264 -2.6021 0.9452
6.6472 -11.5134 -2.4988 0.9473
10.2474 -8.4697 -2.4988 0.9473
10.4851 -4.7244 -2.1616 0.9543
10.4893 -2.6236 -2.0323 0.9569
13.2556 -2.0844 -2.5222 0.9469
12.8595 3.8325 -2.5222 0.9469
12.4674 4.9619 -2.5222 0.9469
11.9763 6.0519 -2.5222 0.9469
11.3901 7.0938 -2.5222 0.9469
10.7135 8.0794 -2.5222 0.9469
9.8599 8.9177 -2.4988 0.9473
2.9085 13.5348 -2.6021 0.9452
-4.2210 12.6075 -2.4990 0.9473
-7.5354 13.7504 -2.9472 0.9382
-9.1676 11.3468 -2.7419 0.9424
-12.0931 8.7041 -2.8006 0.9412
-13.4559 7.9700 -2.9395 0.9383
-15.1191 7.2218 -3.1494 0.9341
-5.6228 -5.8140 -1.7097 0.9675
-5.6069 -8.3660 -2.1288 0.9597
-5.6106 -10.2380 -2.4678 0.9534
-4.7363 -10.8321 -2.4990 0.9528
-3.7534 -11.2107 -2.4990 0.9528
2.5862 -12.0353 -2.6021 0.9509
7.2226 -9.3586 -2.4988 0.9528
8.0269 -8.6786 -2.4988 0.9528
10.0346 -6.2496 -2.4988 0.9528
10.4883 -3.1258 -2.3134 0.9562
10.4902 -2.1322 -2.2628 0.9572
11.9289 -0.2658 -2.5222 0.9524
11.2716 3.9139 -2.5222 0.9524
10.8785 4.9016 -2.5222 0.9524
9.7462 6.6904 -2.4988 0.9528
7.6323 9.0276 -2.4988 0.9528
6.1550 10.6608 -2.6021 0.9509
5.1817 11.1663 -2.6021 0.9509
4.1673 11.5832 -2.6021 0.9509
2.0475 12.1386 -2.6021 0.9509
0.9590 12.2726 -2.6021 0.9509
-0.1371 12.3093 -2.6021 0.9509
-1.2322 12.2482 -2.6021 0.9509
-2.2256 11.6109 -2.4990 0.9528
-3.2502 11.3668 -2.4990 0.9528
-5.2141 10.6104 -2.4990 0.9528
-7.4410 12.2495 -3.0296 0.9431
-8.2270 11.1658 -2.9317 0.9449
-9.2292 10.4356 -2.9448 0.9446
-10.2538 9.6979 -2.9833 0.9439
-11.9770 7.8350 -3.0253 0.9432
-13.2218 7.0554 -3.1679 0.9406
-15.9295 5.1366 -3.5379 0.9339
-5.6483 -5.3421 -1.6433 0.9687
-5.6054 -7.6076 -1.9975 0.9621
-5.6086 -9.2330 -2.2835 0.9568
-3.2502 -11.3668 -2.4990 0.9528
-1.2322 -12.2482 -2.6021 0.9509
2.0475 -12.1386 -2.6021 0.9509
4.1673 -11.5832 -2.6021 0.9509
6.1550 -10.6608 -2.6021 0.9509
7.6323 -9.0276 -2.4988 0.9528
10.4872 -3.6416 -2.3466 0.9556
10.4893 -2.6236 -2.2855 0.9568
11.7870 -1.8534 -2.5222 0.9524
11.9052 -0.7970 -2.5222 0.9524
11.9289 0.2658 -2.5222 0.9524
11.6927 2.3766 -2.5222 0.9524
11.4348 3.4079 -2.5222 0.9524
11.0861 4.4121 -2.5222 0.9524
10.6494 5.3814 -2.5222 0.9524
10.0346 6.2496 -2.4988 0.9528
8.7675 7.9297 -2.4988 0.9528
6.4653 10.1277 -2.5398 0.9521
5.6740 10.9244 -2.6021 0.9509
4.6792 11.3861 -2.6021 0.9509
3.6472 11.7573 -2.6021 0.9509
0.4113 12.3032 -2.6021 0.9509
-0.6853 12.2909 -2.6021 0.9509
-2.7407 11.5003 -2.4990 0.9528
-7.8362 11.6924 -2.9753 0.9441
-8.6131 10.6606 -2.8970 0.9455
-5.5006 5.6875 -1.6725 0.9682
-10.8229 9.3589 -3.0245 0.9432
-12.7675 7.5622 -3.1367 0.9411
-13.6708 6.5300 -3.2025 0.9399
-14.7344 5.4871 -3.3235 0.9377
-17.8666 4.8942 -3.9158 0.9271
-5.6021 -4.8443 -1.7406 0.9700
-5.6017 -5.7922 -1.8938 0.9674
-5.6040 -6.9362 -2.0957 0.9640
-5.6069 -8.3660 -2.3669 0.9595
-3.3758 -10.0829 -2.4990 0.9572
-2.4650 -10.3434 -2.4990 0.9572
-1.5829 -10.8535 -2.5778 0.9559
0.3700 -11.0655 -2.6021 0.9555
2.3261 -10.8246 -2.6021 0.9555
4.2084 -10.2407 -2.6021 0.9555
5.1032 -9.8254 -2.6021 0.9555
6.4960 -8.4171 -2.4988 0.9573
7.2194 -7.8055 -2.4988 0.9573
7.8855 -7.1320 -2.4988 0.9573
8.4890 -6.4019 -2.4988 0.9573
9.0251 -5.6209 -2.4988 0.9573
9.8787 -3.9316 -2.4988 0.9573
10.1894 -3.0368 -2.4988 0.9573
10.6650 -1.1931 -2.5222 0.9569
10.7075 0.7168 -2.5222 0.9569
10.0440 3.4877 -2.4988 0.9573
7.5600 7.4762 -2.4988 0.9573
6.8645 8.1194 -2.4988 0.9573
5.5358 9.5883 -2.6021 0.9555
4.6604 10.0430 -2.6021 0.9555
0.8625 11.0380 -2.6021 0.9555
-0.1233 11.0710 -2.6021 0.9555
-1.1082 11.0161 -2.6021 0.9555
-4.6896 9.5430 -2.4990 0.9572
-7.7018 10.4530 -3.0515 0.9480
-11.2718 7.3737 -3.1656 0.9462
-12.0711 6.4413 -3.2156 0.9453
-12.8844 5.4635 -3.2891 0.9441
-14.2812 4.6051 -3.5266 0.9402
-18.3781 4.1639 -4.4288 0.9255
-5.6054 -7.6076 -2.2209 0.9619
-5.5203 -9.0878 -2.4990 0.9572
-3.8216 -9.9225 -2.4990 0.9572
-2.9233 -10.2233 -2.4990 0.9572
-2.0017 -10.4429 -2.4990 0.9572
-1.1082 -11.0161 -2.6021 0.9555
0.8625 -11.0380 -2.6021 0.9555
2.8059 -10.7102 -2.6021 0.9555
4.6604 -10.0430 -2.6021 0.9555
5.5358 -9.5883 -2.6021 0.9555
6.3673 -9.0576 -2.6021 0.9555
6.8645 -8.1194 -2.4988 0.9573
7.5600 -7.4762 -2.4988 0.9573
10.3146 -2.5799 -2.4988 0.9573
10.7075 -0.7168 -2.5222 0.9569
10.7288 0.2391 -2.5222 0.9569
10.6650 1.1930 -2.5222 0.9569
10.4193 2.1178 -2.4988 0.9573
10.1894 3.0368 -2.4988 0.9573
9.8787 3.9316 -2.4988 0.9573
9.4896 4.7953 -2.4988 0.9573
8.4890 6.4018 -2.4988 0.9573
7.8855 7.1320 -2.4988 0.9573
7.2194 7.8055 -2.4988 0.9573
6.4960 8.4171 -2.4988 0.9573
5.1032 9.8254 -2.6021 0.9555
3.2803 10.5746 -2.6021 0.9555
1.3534 10.9886 -2.6021 0.9555
-1.5829 10.8535 -2.5778 0.9559
-3.3758 10.0829 -2.4990 0.9572
-4.2598 9.7424 -2.4990 0.9572
-7.3887 11.0247 -3.1192 0.9469
-9.2666 9.5816 -3.1327 0.9467
-9.9928 8.6411 -3.1048 0.9472
-10.8312 7.7958 -3.1364 0.9466
-12.4662 5.9546 -3.2469 0.9448
-13.5417 5.0430 -3.3961 0.9424
-5.7962 -3.4331 -1.7442 0.9725
-5.6017 -5.7922 -2.0863 0.9673
-5.3734 -8.0176 -2.4990 0.9609
-3.0642 -9.1524 -2.4990 0.9609
0.3358 -10.0443 -2.6021 0.9593
1.2285 -9.9745 -2.6021 0.9593
2.1114 -9.8256 -2.6021 0.9593
2.9775 -9.5987 -2.6021 0.9593
3.8201 -9.2955 -2.6021 0.9593
5.4077 -8.4710 -2.6021 0.9593
6.1402 -7.9560 -2.6021 0.9593
6.5532 -7.0852 -2.4988 0.9609
8.1922 -5.1021 -2.4988 0.9609
8.6138 -4.3528 -2.4988 0.9609
8.9670 -3.5688 -2.4988 0.9609
9.4577 -1.9224 -2.4988 0.9609
9.6296 0.6446 -2.4988 0.9609
9.5340 1.4991 -2.4988 0.9609
9.1171 3.1658 -2.4988 0.9609
8.4113 4.7321 -2.4988 0.9609
7.4391 6.1485 -2.4988 0.9609
6.8623 6.7862 -2.4988 0.9609
6.4630 7.6445 -2.5919 0.9595
5.0249 8.7035 -2.6021 0.9593
4.2303 9.1162 -2.6021 0.9593
3.4022 9.4565 -2.6021 0.9593
2.5470 9.7218 -2.6021 0.9593
1.6716 9.9099 -2.6021 0.9593
-3.4689 9.0068 -2.4990 0.9609
-4.2568 8.6623 -2.4990 0.9609
-5.0109 8.2491 -2.4990 0.9609
-8.0597 9.1133 -3.1500 0.9510
-5.5079 5.2093 -1.9629 0.9692
-9.6153 7.5931 -3.1722 0.9506
-10.4535 6.8384 -3.2343 0.9497
-5.9434 -3.1715 -1.7442 0.9725
-5.6008 -5.2972 -1.9960 0.9686
-5.0109 -8.2491 -2.4990 0.9609
-4.2568 -8.6623 -2.4990 0.9609
-1.8170 -9.4792 -2.4990 0.9609
-1.0060 -9.9994 -2.6021 0.9593
3.4022 -9.4565 -2.6021 0.9593
5.0249 -8.7034 -2.6021 0.9593
5.7797 -8.2217 -2.6021 0.9593
6.8623 -6.7862 -2.4988 0.9609
7.4390 -6.1485 -2.4988 0.9609
7.9568 -5.4620 -2.4988 0.9609
6.7903 -3.0596 -1.9284 0.9697
9.1171 -3.1658 -2.4988 0.9609
9.6487 0.2150 -2.4988 0.9609
9.2491 2.7565 -2.4988 0.9609
8.9670 3.5688 -2.4988 0.9609
8.6138 4.3527 -2.4988 0.9609
8.1922 5.1021 -2.4988 0.9609
7.7056 5.8110 -2.4988 0.9609
6.5532 7.0852 -2.4988 0.9609
6.1402 7.9561 -2.6021 0.9593
4.6322 8.9187 -2.6021 0.9593
2.9775 9.5987 -2.6021 0.9593
2.1114 9.8256 -2.6021 0.9593
1.2285 9.9745 -2.6021 0.9593
0.3358 10.0443 -2.6021 0.9593
-0.5595 10.0343 -2.6021 0.9593
-1.4504 9.9447 -2.6021 0.9593
-4.6384 8.4641 -2.4990 0.9609
-5.3734 8.0177 -2.4990 0.9609
-8.4784 8.7666 -3.1577 0.9509
-5.5079 4.7629 -1.8854 0.9704
-5.7739 -2.1503 -1.7442 0.9747
-5.5956 -2.6728 -1.7555 0.9746
-5.5982 -4.0294 -1.9526 0.9717
-5.6017 -5.7922 -2.2811 0.9671
-4.2423 -7.7413 -2.4990 0.9640
-2.8026 -8.3708 -2.4990 0.9640
-2.0464 -8.5870 -2.4990 0.9640
-1.3265 -9.0954 -2.6021 0.9625
-0.5117 -9.1774 -2.6021 0.9625
0.3071 -9.1865 -2.6021 0.9625
3.4938 -8.5018 -2.6021 0.9625
5.6158 -7.2766 -2.6021 0.9625
6.2412 -6.7479 -2.6021 0.9625
6.5465 -5.9210 -2.4988 0.9640
7.0475 -5.3148 -2.4988 0.9640
7.4926 -4.6664 -2.4988 0.9640
7.8782 -3.9810 -2.4988 0.9640
8.6501 -1.7582 -2.4988 0.9640
8.7722 -0.9813 -2.4988 0.9640
8.5631 2.1418 -2.4988 0.9640
8.3385 2.8954 -2.4988 0.9640
8.0477 3.6261 -2.4988 0.9640
7.2773 4.9956 -2.4988 0.9640
6.4630 6.3914 -2.5732 0.9629
5.9344 7.0192 -2.6021 0.9625
5.2861 7.5196 -2.6021 0.9625
4.5958 7.9602 -2.6021 0.9625
3.8691 8.3377 -2.6021 0.9625
3.1116 8.6489 -2.6021 0.9625
2.3295 8.8916 -2.6021 0.9625
1.5288 9.0636 -2.6021 0.9625
0.7161 9.1637 -2.6021 0.9625
-0.9200 9.1455 -2.6021 0.9625
-1.6618 8.6697 -2.4990 0.9640
-3.8933 7.9226 -2.4990 0.9640
-4.5830 7.5446 -2.4990 0.9640
-5.2363 7.1068 -2.4990 0.9640
-8.1718 7.7288 -3.1842 0.9543
-8.9879 7.0977 -3.2421 0.9535
-9.7329 6.3670 -3.2925 0.9528
-5.8640 -1.8909 -1.7442 0.9747
-5.6724 -2.4053 -1.7442 0.9747
-5.5962 -2.9862 -1.7957 0.9740
-5.5975 -3.6617 -1.8936 0.9726
-5.5990 -4.4215 -2.0197 0.9708
-5.6008 -5.2972 -2.1824 0.9685
-5.6028 -6.3352 -2.3942 0.9655
-5.2363 -7.1067 -2.4990 0.9640
-1.6618 -8.6697 -2.4990 0.9640
-0.9200 -9.1455 -2.6021 0.9625
2.3295 -8.8916 -2.6021 0.9625
3.8691 -8.3377 -2.6021 0.9625
4.5958 -7.9602 -2.6021 0.9625
5.2861 -7.5196 -2.6021 0.9625
7.2773 -4.9956 -2.4988 0.9640
8.3385 -2.8954 -2.4988 0.9640
8.7198 -1.3711 -2.4988 0.9640
8.8247 0.1966 -2.4988 0.9640
8.6501 1.7582 -2.4988 0.9640
8.4592 2.5211 -2.4988 0.9640
8.2013 3.2640 -2.4988 0.9640
7.4926 4.6664 -2.4988 0.9640
0.3071 9.1865 -2.6021 0.9625
-2.0464 8.5870 -2.4990 0.9640
-3.5365 8.0882 -2.4990 0.9640
-4.2423 7.7413 -2.4990 0.9640
-5.5477 6.8664 -2.4990 0.9640
-7.8066 8.0720 -3.1790 0.9544
-8.5669 7.4080 -3.2062 0.9540
-10.0808 5.9709 -3.3168 0.9525
-5.5012 2.0487 -1.6618 0.9759
-12.7972 3.5055 -3.7563 0.9463
-5.5016 -0.0000 -1.6922 0.9772
-5.5944 -2.0834 -1.8362 0.9753
-5.5968 -3.3150 -2.0008 0.9731
-5.5982 -4.0294 -2.1215 0.9715
-5.6017 -5.7922 -2.4784 0.9668
-5.1060 -6.3198 -2.4990 0.9666
-4.5233 -6.7492 -2.4990 0.9666
-3.2550 -7.4443 -2.4990 0.9666
-2.5795 -7.7044 -2.4990 0.9666
-1.2209 -8.3714 -2.6021 0.9652
1.0341 -8.3965 -2.6021 0.9652
1.7774 -8.2711 -2.6021 0.9652
3.2157 -7.8249 -2.6021 0.9652
4.5521 -7.1308 -2.6021 0.9652
5.7443 -6.2107 -2.6021 0.9652
6.2743 -5.6748 -2.6021 0.9652
7.7858 -2.3204 -2.4988 0.9666
8.0739 -0.9032 -2.4988 0.9666
8.1222 -0.1810 -2.4988 0.9666
8.0256 1.2620 -2.4988 0.9666
7.6747 2.6650 -2.4988 0.9666
7.4071 3.3375 -2.4988 0.9666
7.0806 3.9835 -2.4988 0.9666
6.6980 4.5979 -2.4988 0.9666
6.4630 5.3418 -2.5790 0.9655
5.4620 6.4604 -2.6021 0.9652
3.5611 7.6739 -2.6021 0.9652
2.8639 7.9604 -2.6021 0.9652
2.1440 8.1838 -2.6021 0.9652
1.4071 8.3421 -2.6021 0.9652
-0.0942 8.4594 -2.6021 0.9652
-2.2337 7.8117 -2.4990 0.9666
-4.8194 6.5410 -2.4990 0.9666
-5.5100 3.6045 -2.0252 0.9728
-9.8105 5.2350 -3.4202 0.9545
-11.4058 3.6779 -3.6861 0.9511
-5.5014 1.2464 -1.7350 0.9767
-5.5016 0.2453 -1.6938 0.9772
-5.5016 -0.2454 -1.6939 0.9772
-5.6915 -1.8353 -1.8393 0.9753
-5.5962 -2.9862 -1.9510 0.9738
-5.6008 -5.2972 -2.3711 0.9683
-5.3825 -6.0861 -2.4990 0.9666
-4.8194 -6.5410 -2.4990 0.9666
-1.5829 -8.2581 -2.5862 0.9654
2.8639 -7.9604 -2.6021 0.9652
3.5611 -7.6739 -2.6021 0.9652
4.2300 -7.3265 -2.6021 0.9652
5.4620 -6.4604 -2.6021 0.9652
6.0153 -5.9487 -2.6021 0.9652
6.6980 -4.5979 -2.4988 0.9666
6.7821 -3.0559 -2.2880 0.9693
7.8815 -1.9713 -2.4988 0.9666
8.0256 -1.2620 -2.4988 0.9666
8.1061 -0.5426 -2.4988 0.9666
8.0739 0.9032 -2.4988 0.9666
7.5484 3.0042 -2.4988 0.9666
6.4865 4.8917 -2.4988 0.9666
5.7443 6.2107 -2.6021 0.9652
3.2157 7.8249 -2.6021 0.9652
2.5065 8.0801 -2.6021 0.9652
1.7774 8.2711 -2.6021 0.9652
0.2827 8.4552 -2.6021 0.9652
-0.4710 8.4468 -2.6021 0.9652
-1.2209 8.3714 -2.6021 0.9652
-3.2549 7.4443 -2.4990 0.9666
-3.9046 7.1250 -2.4990 0.9666
-4.5233 6.7492 -2.4990 0.9666
-5.1060 6.3198 -2.4990 0.9666
-10.1985 4.8714 -3.4763 0.9538
-10.9975 4.0955 -3.6095 0.9521
-12.0251 3.2940 -3.8349 0.9492
-14.5535 2.6219 -4.5484 0.9400
-18.5657 -1.6591 -6.1960 0.9244
-5.5944 -2.0834 -1.9844 0.9752
-5.5968 -3.3150 -2.1623 0.9730
-5.5982 -4.0294 -2.2928 0.9713
-5.5999 -4.8424 -2.4609 0.9693
-3.0118 -6.8883 -2.4990 0.9688
-2.3868 -7.1290 -2.4990 0.9688
-1.7428 -7.3131 -2.4990 0.9688
-1.1297 -7.7461 -2.6021 0.9675
-0.4358 -7.8159 -2.6021 0.9675
0.2616 -7.8237 -2.6021 0.9675
0.9569 -7.7694 -2.6021 0.9675
1.6446 -7.6534 -2.6021 0.9675
2.9755 -7.2405 -2.6021 0.9675
3.6081 -6.9469 -2.6021 0.9675
4.2121 -6.5982 -2.6021 0.9675
4.7827 -6.1971 -2.6021 0.9675
5.3153 -5.7468 -2.6021 0.9675
5.8057 -5.2510 -2.6021 0.9675
6.7095 -3.3904 -2.4988 0.9688
7.2043 -2.1471 -2.4988 0.9688
7.5007 0.5021 -2.4988 0.9688
7.4262 1.1677 -2.4988 0.9688
6.8538 3.0882 -2.4988 0.9688
6.4538 4.4303 -2.6021 0.9675
6.0339 4.9871 -2.6021 0.9675
4.5019 6.4040 -2.6021 0.9675
3.9140 6.7793 -2.6021 0.9675
2.6500 7.3659 -2.6021 0.9675
1.3020 7.7190 -2.6021 0.9675
-0.7836 7.7887 -2.6021 0.9675
-1.4737 7.6881 -2.6021 0.9675
-2.7020 7.0156 -2.4990 0.9688
-4.9805 5.6315 -2.4990 0.9688
-5.5080 4.3496 -2.3330 0.9708
-8.5825 5.6144 -3.4091 0.9577
-9.2965 4.9608 -3.5026 0.9566
-10.0134 4.2461 -3.6154 0.9552
-5.5085 1.7762 -1.9239 0.9759
-17.1809 2.3106 -5.7624 0.9295
-18.5727 0.8282 -6.1798 0.9246
-5.5962 -2.9862 -2.1085 0.9736
-4.4595 -6.0525 -2.4990 0.9688
-1.4737 -7.6881 -2.6021 0.9675
-0.7836 -7.7888 -2.6021 0.9675
-0.0872 -7.8276 -2.6021 0.9675
0.6098 -7.8043 -2.6021 0.9675
1.3020 -7.7190 -2.6021 0.9675
3.9140 -6.7793 -2.6021 0.9675
4.5019 -6.4040 -2.6021 0.9675
6.0339 -4.9871 -2.6021 0.9675
6.4538 -4.4303 -2.6021 0.9675
6.5518 -3.6860 -2.4988 0.9688
7.1015 -2.4659 -2.4988 0.9688
7.4262 -1.1677 -2.4988 0.9688
7.4709 0.8357 -2.4988 0.9688
7.3668 1.4974 -2.4988 0.9688
6.7095 3.3904 -2.4988 0.9688
5.8057 5.2509 -2.6021 0.9675
3.6082 6.9469 -2.6021 0.9675
2.3193 7.4766 -2.6021 0.9675
1.6446 7.6534 -2.6021 0.9675
0.9569 7.7694 -2.6021 0.9675
0.2616 7.8237 -2.6021 0.9675
-0.4358 7.8159 -2.6021 0.9675
-1.1297 7.7461 -2.6021 0.9675
-1.7428 7.3131 -2.4990 0.9688
-2.3868 7.1290 -2.4990 0.9688
-4.1854 6.2451 -2.4990 0.9688
-5.2264 5.4041 -2.4990 0.9688
-10.3838 3.8670 -3.6832 0.9544
-11.3352 3.1050 -3.9067 0.9517
-18.5608 1.6586 -6.1943 0.9245
-18.4743 0.0000 -6.6065 0.9245
-18.4617 -1.6498 -6.6284 0.9243
-5.5944 -2.0834 -2.1348 0.9750
-5.5956 -2.6728 -2.2176 0.9740
-5.5968 -3.3150 -2.3262 0.9727
-5.5982 -4.0294 -2.4666 0.9711
-3.3584 -6.1282 -2.4990 0.9708
-2.2186 -6.6266 -2.4990 0.9708
-1.6200 -6.7978 -2.4990 0.9708
-1.0501 -7.2002 -2.6021 0.9696
-0.4051 -7.2651 -2.6021 0.9696
3.3539 -6.4574 -2.6021 0.9696
4.4457 -5.7604 -2.6021 0.9696
5.3966 -4.8809 -2.6021 0.9696
5.8096 -4.3812 -2.6021 0.9696
6.1765 -3.8467 -2.6021 0.9696
6.6966 -1.9958 -2.4988 0.9708
6.9721 0.4667 -2.4988 0.9708
6.4662 2.9135 -2.5363 0.9703
6.3417 3.5678 -2.6021 0.9696
5.9990 4.1180 -2.6021 0.9696
5.6086 4.6357 -2.6021 0.9696
2.4633 6.8468 -2.6021 0.9696
1.8441 7.0388 -2.6021 0.9696
-0.7283 7.2399 -2.6021 0.9696
-1.3698 7.1463 -2.6021 0.9696
-1.9212 6.7188 -2.4990 0.9708
-2.5116 6.5212 -2.4990 0.9708
-3.0820 6.2718 -2.4990 0.9708
-3.6280 5.9725 -2.4990 0.9708
-5.4843 4.3309 -2.4990 0.9708
-8.8242 4.7087 -3.5768 0.9584
-9.4927 4.0253 -3.6873 0.9571
-10.2403 3.3021 -3.8477 0.9553
-5.5014 1.2464 -2.0172 0.9763
-5.6915 -1.8353 -2.1385 0.9749
-5.5950 -2.3725 -2.1732 0.9745
-5.5962 -2.9862 -2.2683 0.9734
-5.5975 -3.6617 -2.3920 0.9720
-4.6295 -5.2346 -2.4990 0.9708
-4.1452 -5.6259 -2.4990 0.9708
-3.6280 -5.9725 -2.4990 0.9708
-3.0820 -6.2718 -2.4990 0.9708
-1.9212 -6.7188 -2.4990 0.9708
-1.3698 -7.1463 -2.6021 0.9696
1.2103 -7.1750 -2.6021 0.9696
2.4633 -6.8468 -2.6021 0.9696
3.6382 -6.3015 -2.6021 0.9696
4.1846 -5.9527 -2.6021 0.9696
4.6978 -5.5566 -2.6021 0.9696
5.6086 -4.6357 -2.6021 0.9696
6.9029 -1.0854 -2.4988 0.9708
6.9721 -0.4667 -2.4988 0.9708
6.6966 1.9958 -2.4988 0.9708
6.4630 3.2659 -2.5895 0.9697
6.1765 3.8467 -2.6021 0.9696
5.3966 4.8809 -2.6021 0.9696
4.4457 5.7604 -2.6021 0.9696
1.5287 7.1140 -2.6021 0.9696
0.2431 7.2723 -2.6021 0.9696
-1.0501 7.2002 -2.6021 0.9696
-1.6200 6.7978 -2.4990 0.9708
-2.7996 6.4028 -2.4990 0.9708
-3.3584 6.1282 -2.4990 0.9708
-3.8905 5.8050 -2.4990 0.9708
-4.3917 5.4357 -2.4990 0.9708
-4.8581 5.0232 -2.4990 0.9708
-7.8152 5.6250 -3.4434 0.9599
-8.4850 5.0257 -3.5266 0.9590
-9.8271 3.6596 -3.7500 0.9564
-18.4985 1.6530 -6.6416 0.9241
-18.2257 0.0000 -6.9844 0.9249
-5.5956 -2.6728 -2.3764 0.9738
-5.5968 -3.3150 -2.4928 0.9725
-5.2927 -3.8095 -2.4990 0.9725
-4.9326 -4.2654 -2.4990 0.9725
-3.1339 -5.7187 -2.4990 0.9725
-2.6125 -5.9749 -2.4990 0.9725
-1.5741 -6.6051 -2.6021 0.9713
-0.9799 -6.7190 -2.6021 0.9713
0.2269 -6.7863 -2.6021 0.9713
1.4265 -6.6386 -2.6021 0.9713
2.0117 -6.4853 -2.6021 0.9713
3.1297 -6.0258 -2.6021 0.9713
3.6536 -5.7233 -2.6021 0.9713
6.3088 -2.5109 -2.6021 0.9713
6.4680 -1.3147 -2.5293 0.9721
6.5191 -0.1453 -2.4988 0.9725
6.5061 0.4355 -2.4988 0.9725
6.4630 1.6165 -2.5530 0.9719
6.4144 2.2273 -2.6021 0.9713
5.9179 3.3294 -2.6021 0.9713
3.9050 5.5549 -2.6021 0.9713
3.3951 5.8804 -2.6021 0.9713
2.8582 6.1593 -2.6021 0.9713
2.2986 6.3892 -2.6021 0.9713
0.5290 6.7695 -2.6021 0.9713
-0.6797 6.7560 -2.6021 0.9713
-1.2783 6.6687 -2.6021 0.9713
-2.3437 6.0854 -2.4990 0.9725
-2.8761 5.8526 -2.4990 0.9725
-3.8682 5.2499 -2.4990 0.9725
-4.7377 4.4809 -2.4990 0.9725
-5.1178 4.0414 -2.4990 0.9725
-5.4572 3.5699 -2.4990 0.9725
-5.5078 2.9391 -2.3924 0.9736
-5.5136 0.7415 -2.1319 0.9765
-18.4795 -0.8241 -7.0887 0.9238
-5.5962 -2.9862 -2.4308 0.9732
-5.1178 -4.0415 -2.4990 0.9725
-4.7377 -4.4809 -2.4990 0.9725
-2.3437 -6.0854 -2.4990 0.9725
-1.2783 -6.6687 -2.6021 0.9713
0.5290 -6.7695 -2.6021 0.9713
2.2986 -6.3892 -2.6021 0.9713
2.8582 -6.1592 -2.6021 0.9713
3.3951 -5.8804 -2.6021 0.9713
3.9050 -5.5549 -2.6021 0.9713
5.2338 -4.3259 -2.6021 0.9713
5.9179 -3.3293 -2.6021 0.9713
6.1907 -2.7894 -2.6021 0.9713
6.4144 -2.2273 -2.6021 0.9713
6.4727 -1.0178 -2.5109 0.9723
6.5061 -0.4355 -2.4988 0.9725
6.5191 0.1453 -2.4988 0.9725
6.4803 0.7249 -2.4988 0.9725
6.3088 2.5109 -2.6021 0.9713
5.7637 3.5896 -2.6021 0.9713
5.4213 4.0884 -2.6021 0.9713
5.0359 4.5547 -2.6021 0.9713
3.6537 5.7233 -2.6021 0.9713
3.1297 6.0258 -2.6021 0.9713
2.5810 6.2805 -2.6021 0.9713
1.4265 6.6386 -2.6021 0.9713
0.2269 6.7863 -2.6021 0.9713
-0.9799 6.7190 -2.6021 0.9713
-3.1339 5.7187 -2.4990 0.9725
-4.0982 5.0724 -2.4990 0.9725
-4.5334 4.6875 -2.4990 0.9725
-8.7044 4.1577 -3.6967 0.9595
-9.3246 3.4725 -3.8131 0.9583
-11.3068 2.0370 -4.4027 0.9520
-17.9552 0.0000 -7.3486 0.9253
-1.6390 -0.1465 -0.6735 0.9929
-1.6200 -0.2919 -0.6737 0.9929
-1.6035 -0.4392 -0.6804 0.9928
-5.5097 -2.6318 -2.4990 0.9740
-5.2536 -3.1117 -2.4990 0.9740
-4.6186 -3.9939 -2.4990 0.9740
-4.2448 -4.3891 -2.4990 0.9740
-2.4462 -5.5945 -2.4990 0.9740
-1.4739 -6.1846 -2.6021 0.9729
-0.9176 -6.2913 -2.6021 0.9729
-0.3540 -6.3480 -2.6021 0.9729
0.2124 -6.3543 -2.6021 0.9729
1.8837 -6.0724 -2.6021 0.9729
2.9305 -5.6422 -2.6021 0.9729
3.4210 -5.3589 -2.6021 0.9729
3.8844 -5.0332 -2.6021 0.9729
4.7153 -4.2647 -2.6021 0.9729
6.2304 -1.2664 -2.6021 0.9729
6.3184 -0.7068 -2.6021 0.9729
6.2806 0.9876 -2.6021 0.9729
6.1678 1.5427 -2.6021 0.9729
6.0060 2.0855 -2.6021 0.9729
5.7966 2.6118 -2.6021 0.9729
5.5411 3.1174 -2.6021 0.9729
4.9006 4.0504 -2.6021 0.9729
4.5206 4.4705 -2.6021 0.9729
3.1789 5.5060 -2.6021 0.9729
2.6762 5.7671 -2.6021 0.9729
1.0575 6.2693 -2.6021 0.9729
0.4953 6.3385 -2.6021 0.9729
-0.0708 6.3574 -2.6021 0.9729
-0.6364 6.3259 -2.6021 0.9729
-1.1969 6.2441 -2.6021 0.9729
-1.6787 5.8706 -2.4990 0.9740
-2.6929 5.4800 -2.4990 0.9740
-3.6219 4.9157 -2.4990 0.9740
-4.0451 4.5738 -2.4990 0.9740
-4.4361 4.1956 -2.4990 0.9740
-4.7919 3.7841 -2.4990 0.9740
-5.3870 2.8746 -2.4990 0.9740
-8.5731 3.6353 -3.8112 0.9606
-1.5889 0.5124 -0.6833 0.9928
-1.6301 -0.2192 -0.6732 0.9929
-1.6146 -0.3658 -0.6776 0.9929
-5.1097 -3.3426 -2.4990 0.9740
-4.4361 -4.1956 -2.4990 0.9740
-3.1700 -5.2186 -2.4990 0.9740
-2.1945 -5.6979 -2.4990 0.9740
-1.6787 -5.8706 -2.4990 0.9740
-1.1969 -6.2441 -2.6021 0.9729
-0.6364 -6.3259 -2.6021 0.9729
0.4953 -6.3385 -2.6021 0.9729
1.0575 -6.2693 -2.6021 0.9729
1.6113 -6.1503 -2.6021 0.9729
2.6762 -5.7671 -2.6021 0.9729
3.6564 -5.2013 -2.6021 0.9729
4.1048 -4.8552 -2.6021 0.9729
4.5206 -4.4705 -2.6021 0.9729
4.9006 -4.0504 -2.6021 0.9729
6.1678 -1.5427 -2.6021 0.9729
5.6745 2.8674 -2.6021 0.9729
5.3967 3.3611 -2.6021 0.9729
5.0762 3.8281 -2.6021 0.9729
3.8844 5.0332 -2.6021 0.9729
2.9305 5.6422 -2.6021 0.9729
1.8837 6.0724 -2.6021 0.9729
1.3357 6.2159 -2.6021 0.9729
0.7772 6.3101 -2.6021 0.9729
-0.3540 6.3479 -2.6021 0.9729
-1.4739 6.1846 -2.6021 0.9729
-2.4462 5.5945 -2.4990 0.9740
-2.9344 5.3546 -2.4990 0.9740
-3.3993 5.0722 -2.4990 0.9740
-4.2448 4.3891 -2.4990 0.9740
-5.2535 3.1117 -2.4990 0.9740
-5.5097 2.6317 -2.4990 0.9740
-1.6390 0.1465 -0.6735 0.9929
-1.5266 0.0000 -0.6653 0.9934
-1.5215 -0.1360 -0.6657 0.9934
-1.5015 -0.2705 -0.6649 0.9934
-1.5001 -0.4109 -0.6779 0.9932
-5.3736 -2.0011 -2.4990 0.9753
-4.9336 -2.9222 -2.4990 0.9753
-3.9863 -4.1218 -2.4990 0.9753
-3.1923 -4.7633 -2.4990 0.9753
-2.2972 -5.2538 -2.4990 0.9753
-1.8205 -5.4374 -2.4990 0.9753
0.7298 -5.9258 -2.6021 0.9743
1.2544 -5.8373 -2.6021 0.9743
2.2695 -5.5225 -2.6021 0.9743
2.7520 -5.2986 -2.6021 0.9743
3.2127 -5.0326 -2.6021 0.9743
4.7670 -3.5950 -2.6021 0.9743
5.0681 -3.1564 -2.6021 0.9743
5.7219 -1.7053 -2.6021 0.9743
5.8510 -1.1893 -2.6021 0.9743
5.9336 -0.6638 -2.6021 0.9743
5.9573 0.3988 -2.6021 0.9743
5.8981 0.9274 -2.6021 0.9743
4.9224 3.3790 -2.6021 0.9743
4.6021 3.8037 -2.6021 0.9743
3.8548 4.5595 -2.6021 0.9743
3.4337 4.8845 -2.6021 0.9743
2.9853 5.1707 -2.6021 0.9743
2.5132 5.4159 -2.6021 0.9743
2.0212 5.6181 -2.6021 0.9743
1.5132 5.7757 -2.6021 0.9743
0.4651 5.9525 -2.6021 0.9743
-0.0665 5.9703 -2.6021 0.9743
-0.5976 5.9406 -2.6021 0.9743
-1.5897 5.5594 -2.5200 0.9751
-2.0609 5.3509 -2.4990 0.9753
-3.4013 4.6163 -2.4990 0.9753
-4.1659 3.9401 -2.4990 0.9753
-4.7985 3.1390 -2.4990 0.9753
-5.2791 2.2385 -2.4990 0.9753
-1.4861 0.4792 -0.6805 0.9932
-1.5029 0.3405 -0.6716 0.9933
-1.5133 0.2035 -0.6654 0.9934
-1.5259 0.0680 -0.6657 0.9934
-1.5259 -0.0680 -0.6657 0.9934
-1.5133 -0.2035 -0.6654 0.9934
-5.2791 -2.2385 -2.4990 0.9753
-5.0589 -2.6995 -2.4990 0.9753
-4.7985 -3.1391 -2.4990 0.9753
-4.5001 -3.5537 -2.4990 0.9753
-3.4013 -4.6163 -2.4990 0.9753
-2.9770 -4.9007 -2.4990 0.9753
-2.5289 -5.1462 -2.4990 0.9753
-1.5897 -5.5594 -2.5200 0.9751
-1.1240 -5.8639 -2.6021 0.9743
-0.5976 -5.9406 -2.6021 0.9743
0.4651 -5.9525 -2.6021 0.9743
0.9931 -5.8874 -2.6021 0.9743
2.5132 -5.4159 -2.6021 0.9743
3.4337 -4.8845 -2.6021 0.9743
3.8548 -4.5595 -2.6021 0.9743
4.2453 -4.1983 -2.6021 0.9743
4.9224 -3.3791 -2.6021 0.9743
5.2036 -2.9275 -2.6021 0.9743
5.4436 -2.4527 -2.6021 0.9743
5.6403 -1.9585 -2.6021 0.9743
5.7922 -1.4487 -2.6021 0.9743
5.8981 -0.9274 -2.6021 0.9743
5.9573 -0.3988 -2.6021 0.9743
5.9336 0.6638 -2.6021 0.9743
5.5474 2.2078 -2.6021 0.9743
4.7670 3.5950 -2.6021 0.9743
4.4281 4.0050 -2.6021 0.9743
4.0541 4.3832 -2.6021 0.9743
3.6479 4.7267 -2.6021 0.9743
3.2127 5.0326 -2.6021 0.9743
2.7520 5.2986 -2.6021 0.9743
2.2695 5.5225 -2.6021 0.9743
0.1995 5.9673 -2.6021 0.9743
-0.3324 5.9613 -2.6021 0.9743
-1.8205 5.4374 -2.4990 0.9753
-2.2972 5.2538 -2.4990 0.9753
-4.3373 3.7506 -2.4990 0.9753
-5.1741 2.4715 -2.4990 0.9753
-1.5001 0.4109 -0.6779 0.9932
-1.5015 0.2705 -0.6649 0.9934
-1.5215 0.1360 -0.6657 0.9934
-1.4172 -0.1266 -0.6586 0.9937
-5.0593 -1.8841 -2.4990 0.9765
-4.8715 -2.3269 -2.4990 0.9765
-4.3818 -3.1538 -2.4990 0.9765
-3.0056 -4.4847 -2.4990 0.9765
-2.5945 -4.7345 -2.4990 0.9765
-2.1629 -4.9466 -2.4990 0.9765
-1.7140 -5.1195 -2.4990 0.9765
-1.3032 -5.4683 -2.6021 0.9755
-0.8113 -5.5626 -2.6021 0.9755
-0.3130 -5.6128 -2.6021 0.9755
0.1878 -5.6183 -2.6021 0.9755
1.1810 -5.4960 -2.6021 0.9755
1.6655 -5.3691 -2.6021 0.9755
2.1368 -5.1995 -2.6021 0.9755
2.5911 -4.9887 -2.6021 0.9755
3.0248 -4.7383 -2.6021 0.9755
3.8170 -4.1269 -2.6021 0.9755
4.1692 -3.7708 -2.6021 0.9755
4.4882 -3.3847 -2.6021 0.9755
5.0173 -2.5353 -2.6021 0.9755
5.2230 -2.0787 -2.6021 0.9755
5.3873 -1.6056 -2.6021 0.9755
5.5866 -0.6250 -2.6021 0.9755
5.6201 -0.1252 -2.6021 0.9755
5.6089 0.3755 -2.6021 0.9755
5.5532 0.8732 -2.6021 0.9755
5.4535 1.3640 -2.6021 0.9755
5.1252 2.3093 -2.6021 0.9755
4.6346 3.1814 -2.6021 0.9755
4.3330 3.5813 -2.6021 0.9755
3.6294 4.2929 -2.6021 0.9755
2.8107 4.8684 -2.6021 0.9755
2.3663 5.0992 -2.6021 0.9755
1.9030 5.2896 -2.6021 0.9755
0.9350 5.5432 -2.6021 0.9755
-0.5627 5.5932 -2.6021 0.9755
-2.8029 4.6142 -2.4990 0.9765
-3.9223 3.7097 -2.4990 0.9765
-4.5179 2.9555 -2.4990 0.9765
-4.7631 2.5416 -2.4990 0.9765
-4.9704 2.1076 -2.4990 0.9765
-1.3890 0.4479 -0.6755 0.9936
-1.3967 0.3165 -0.6629 0.9937
-1.4099 0.1896 -0.6585 0.9937
-1.4212 -0.0634 -0.6585 0.9937
-1.4099 -0.1896 -0.6585 0.9937
-1.3967 -0.3165 -0.6629 0.9937
-1.3890 -0.4479 -0.6755 0.9936
-4.2369 -3.3459 -2.4990 0.9765
-3.9223 -3.7097 -2.4990 0.9765
-3.5766 -4.0441 -2.4990 0.9765
-2.8029 -4.6142 -2.4990 0.9765
-2.3811 -4.8453 -2.4990 0.9765
-1.9404 -5.0380 -2.4990 0.9765
-1.5455 -5.4048 -2.6021 0.9755
0.9350 -5.5432 -2.6021 0.9755
2.3663 -5.0992 -2.6021 0.9755
2.8107 -4.8683 -2.6021 0.9755
3.2329 -4.5988 -2.6021 0.9755
3.9971 -3.9528 -2.6021 0.9755
4.6346 -3.1814 -2.6021 0.9755
4.8993 -2.7563 -2.6021 0.9755
5.1252 -2.3093 -2.6021 0.9755
5.5532 -0.8732 -2.6021 0.9755
5.6089 -0.3755 -2.6021 0.9755
5.5866 0.6250 -2.6021 0.9755
5.0173 2.5353 -2.6021 0.9755
4.7717 2.9718 -2.6021 0.9755
4.4883 3.3847 -2.6021 0.9755
3.4345 4.4503 -2.6021 0.9755
3.0248 4.7383 -2.6021 0.9755
2.5911 4.9887 -2.6021 0.9755
2.1368 5.1996 -2.6021 0.9755
1.6655 5.3691 -2.6021 0.9755
0.6872 5.5793 -2.6021 0.9755
-0.8113 5.5626 -2.6021 0.9755
-1.3032 5.4683 -2.6021 0.9755
-1.7140 5.1195 -2.4990 0.9765
-3.0056 4.4847 -2.4990 0.9765
-3.3929 4.1994 -2.4990 0.9765
-4.8715 2.3270 -2.4990 0.9765
-5.0593 1.8841 -2.4990 0.9765
-1.3993 0.2521 -0.6581 0.9938
-1.3367 0.0000 -0.6557 0.9941
-1.3317 -0.1190 -0.6558 0.9941
-1.3159 -0.2371 -0.6559 0.9941
-1.3061 -0.3578 -0.6642 0.9940
-1.2931 -0.4815 -0.6768 0.9939
-4.5971 -2.1958 -2.4990 0.9776
-4.1349 -2.9761 -2.4990 0.9776
-3.8536 -3.3323 -2.4990 0.9776
-3.2017 -3.9628 -2.4990 0.9776
-1.6174 -4.8310 -2.4990 0.9776
-0.2953 -5.2965 -2.6021 0.9766
0.6484 -5.2649 -2.6021 0.9766
1.1145 -5.1863 -2.6021 0.9766
2.0164 -4.9066 -2.6021 0.9766
3.2410 -4.1995 -2.6021 0.9766
4.5028 -2.8044 -2.6021 0.9766
4.9287 -1.9616 -2.6021 0.9766
5.1984 -1.0566 -2.6021 0.9766
5.2718 -0.5898 -2.6021 0.9766
5.2929 0.3543 -2.6021 0.9766
5.2403 0.8240 -2.6021 0.9766
5.0112 1.7401 -2.6021 0.9766
4.8365 2.1792 -2.6021 0.9766
4.6233 2.6010 -2.6021 0.9766
4.3734 3.0022 -2.6021 0.9766
4.0889 3.3795 -2.6021 0.9766
3.4249 4.0510 -2.6021 0.9766
2.6524 4.5940 -2.6021 0.9766
2.2329 4.8119 -2.6021 0.9766
1.3444 5.1315 -2.6021 0.9766
-1.8310 4.7542 -2.4990 0.9776
-2.6449 4.3542 -2.4990 0.9776
-2.2022 2.9889 -1.8211 0.9836
-3.3751 3.8162 -2.4990 0.9776
-3.7013 3.5007 -2.4990 0.9776
-3.9982 3.1573 -2.4990 0.9776
-4.4947 2.3984 -2.4990 0.9776
-4.6903 1.9889 -2.4990 0.9776
-1.3355 0.0596 -0.6558 0.9941
-1.3089 -0.2966 -0.6583 0.9940
-1.3003 -0.4193 -0.6702 0.9939
-4.4947 -2.3984 -2.4990 0.9776
-3.9982 -3.1574 -2.4990 0.9776
-3.7013 -3.5007 -2.4990 0.9776
-2.2469 -4.5723 -2.4990 0.9776
-1.8310 -4.7541 -2.4990 0.9776
-0.9987 -5.2099 -2.6021 0.9766
-0.0591 -5.3044 -2.6021 0.9766
1.3444 -5.1315 -2.6021 0.9766
1.7958 -4.9915 -2.6021 0.9766
3.0507 -4.3397 -2.6021 0.9766
3.7718 -3.7301 -2.6021 0.9766
4.6233 -2.6010 -2.6021 0.9766
4.8364 -2.1792 -2.6021 0.9766
5.1462 -1.2871 -2.6021 0.9766
5.3034 0.1182 -2.6021 0.9766
5.1984 1.0566 -2.6021 0.9766
5.0838 1.5151 -2.6021 0.9766
4.5028 2.8044 -2.6021 0.9766
4.2354 3.1940 -2.6021 0.9766
3.9343 3.5583 -2.6021 0.9766
3.6019 3.8944 -2.6021 0.9766
2.4451 4.7076 -2.6021 0.9766
2.0164 4.9066 -2.6021 0.9766
1.1145 5.1863 -2.6021 0.9766
-0.2953 5.2965 -2.6021 0.9766
-1.6174 4.8310 -2.4990 0.9776
-2.4484 4.4677 -2.4990 0.9776
-3.2017 3.9628 -2.4990 0.9776
-3.8536 3.3323 -2.4990 0.9776
-4.1349 2.9761 -2.4990 0.9776
-4.3834 2.5963 -2.4990 0.9776
-4.5971 2.1958 -2.4990 0.9776
-1.3061 0.3578 -0.6642 0.9940
-1.3317 0.1190 -0.6558 0.9941
-1.2624 0.0000 -0.6549 0.9943
-1.2162 -0.4529 -0.6733 0.9942
-4.3467 -2.0762 -2.4990 0.9785
-4.1446 -2.4549 -2.4990 0.9785
-3.9097 -2.8140 -2.4990 0.9785
-3.6437 -3.1508 -2.4990 0.9785
-3.3488 -3.4626 -2.4990 0.9785
-1.9298 -4.4136 -2.4990 0.9785
-1.5829 -4.7280 -2.5866 0.9778
-0.7239 -4.9633 -2.6021 0.9777
-0.2792 -5.0080 -2.6021 0.9777
0.6131 -4.9782 -2.6021 0.9777
1.0538 -4.9039 -2.6021 0.9777
1.4861 -4.7906 -2.6021 0.9777
2.3119 -4.4512 -2.6021 0.9777
3.0645 -3.9708 -2.6021 0.9777
3.7200 -3.3645 -2.6021 0.9777
4.0047 -3.0201 -2.6021 0.9777
4.2576 -2.6516 -2.6021 0.9777
4.8069 -1.4326 -2.6021 0.9777
4.9153 -0.9991 -2.6021 0.9777
4.9847 -0.5576 -2.6021 0.9777
5.0046 0.3350 -2.6021 0.9777
4.9549 0.7791 -2.6021 0.9777
4.8659 1.2171 -2.6021 0.9777
4.7383 1.6453 -2.6021 0.9777
4.3715 2.4593 -2.6021 0.9777
4.1352 2.8387 -2.6021 0.9777
3.5664 3.5269 -2.6021 0.9777
2.5079 4.3438 -2.6021 0.9777
2.1113 4.5498 -2.6021 0.9777
1.6980 4.7196 -2.6021 0.9777
1.2712 4.8521 -2.6021 0.9777
0.8343 4.9459 -2.6021 0.9777
-0.9443 4.9261 -2.6021 0.9777
-3.1912 3.6084 -2.4990 0.9785
-3.7804 2.9854 -2.4990 0.9785
-4.2499 2.2678 -2.4990 0.9785
-4.4348 1.8805 -2.4990 0.9785
-1.2222 0.3941 -0.6662 0.9942
-1.2514 0.1683 -0.6551 0.9943
-1.2316 -0.2790 -0.6551 0.9943
-1.2222 -0.3941 -0.6662 0.9942
-4.4349 -1.8805 -2.4990 0.9785
-4.0312 -2.6371 -2.4990 0.9785
-3.7804 -2.9854 -2.4990 0.9785
-3.1912 -3.6084 -2.4990 0.9785
-2.8574 -3.8781 -2.4990 0.9785
-2.5009 -4.1170 -2.4990 0.9785
-2.1245 -4.3233 -2.4990 0.9785
-0.5021 -4.9906 -2.6021 0.9777
0.3907 -5.0005 -2.6021 0.9777
0.8343 -4.9459 -2.6021 0.9777
2.1113 -4.5498 -2.6021 0.9777
2.5079 -4.3438 -2.6021 0.9777
2.8846 -4.1034 -2.6021 0.9777
3.5664 -3.5269 -2.6021 0.9777
4.3715 -2.4594 -2.6021 0.9777
4.5730 -2.0605 -2.6021 0.9777
4.8659 -1.2171 -2.6021 0.9777
4.9549 -0.7791 -2.6021 0.9777
5.0046 -0.3350 -2.6021 0.9777
5.0146 0.1118 -2.6021 0.9777
4.9153 0.9991 -2.6021 0.9777
4.0047 3.0201 -2.6021 0.9777
3.0645 3.9708 -2.6021 0.9777
2.3119 4.4512 -2.6021 0.9777
1.4861 4.7906 -2.6021 0.9777
1.0538 4.9039 -2.6021 0.9777
0.1676 5.0130 -2.6021 0.9777
-0.2792 5.0080 -2.6021 0.9777
-0.7239 4.9633 -2.6021 0.9777
-1.1628 4.8792 -2.6021 0.9777
-1.5829 4.7280 -2.5866 0.9778
-1.9298 4.4137 -2.4990 0.9785
-3.3488 3.4626 -2.4990 0.9785
-4.1446 2.4549 -2.4990 0.9785
-4.3467 2.0762 -2.4990 0.9785
-1.2162 0.4529 -0.6733 0.9942
-1.2283 0.3365 -0.6607 0.9943
-1.1944 0.0000 -0.6542 0.9946
-1.1756 -0.2118 -0.6543 0.9946
-1.1577 -0.3171 -0.6575 0.9945
-1.1464 -0.4269 -0.6700 0.9944
-4.1171 -1.9666 -2.4990 0.9794
-3.9257 -2.3252 -2.4990 0.9794
-3.7032 -2.6654 -2.4990 0.9794
-3.4513 -2.9844 -2.4990 0.9794
-1.8279 -4.1805 -2.4990 0.9794
-1.5083 -4.5051 -2.6021 0.9786
-0.2645 -4.7436 -2.6021 0.9786
0.9981 -4.6449 -2.6021 0.9786
1.4076 -4.5376 -2.6021 0.9786
2.1898 -4.2162 -2.6021 0.9786
2.9027 -3.7611 -2.6021 0.9786
3.2259 -3.4878 -2.6021 0.9786
3.5235 -3.1868 -2.6021 0.9786
4.0327 -2.5116 -2.6021 0.9786
4.2403 -2.1427 -2.6021 0.9786
4.6557 -0.9463 -2.6021 0.9786
4.6933 0.7380 -2.6021 0.9786
4.6089 1.1528 -2.6021 0.9786
4.4880 1.5584 -2.6021 0.9786
4.3315 1.9517 -2.6021 0.9786
4.1406 2.3295 -2.6021 0.9786
3.9169 2.6888 -2.6021 0.9786
3.6620 3.0267 -2.6021 0.9786
3.0673 3.6280 -2.6021 0.9786
2.7322 3.8867 -2.6021 0.9786
1.6083 4.4704 -2.6021 0.9786
1.2040 4.5958 -2.6021 0.9786
0.3701 4.7365 -2.6021 0.9786
-0.0529 4.7506 -2.6021 0.9786
-0.4755 4.7271 -2.6021 0.9786
-1.3061 4.5679 -2.6021 0.9786
-2.3688 3.8996 -2.4990 0.9794
-2.1782 2.9563 -2.0112 0.9834
-3.0227 3.4178 -2.4990 0.9794
-3.3149 3.1352 -2.4990 0.9794
-3.8183 2.4978 -2.4990 0.9794
-1.1411 0.4838 -0.6788 0.9944
-1.1515 0.3713 -0.6626 0.9945
-1.1649 0.2639 -0.6542 0.9946
-1.1840 0.1592 -0.6543 0.9946
-1.1933 0.0532 -0.6542 0.9946
-1.1649 -0.2639 -0.6542 0.9946
-4.0254 -2.1480 -2.4990 0.9794
-3.3149 -3.1352 -2.4990 0.9794
-3.0227 -3.4178 -2.4990 0.9794
-2.3688 -3.8996 -2.4990 0.9794
-1.3061 -4.5679 -2.6021 0.9786
-0.8944 -4.6660 -2.6021 0.9786
-0.4755 -4.7271 -2.6021 0.9786
1.6083 -4.4704 -2.6021 0.9786
1.9998 -4.3095 -2.6021 0.9786
2.3755 -4.1144 -2.6021 0.9786
2.7322 -3.8867 -2.6021 0.9786
3.9169 -2.6888 -2.6021 0.9786
4.6089 -1.1528 -2.6021 0.9786
4.6933 -0.7380 -2.6021 0.9786
4.7403 -0.3173 -2.6021 0.9786
4.7497 0.1058 -2.6021 0.9786
4.4142 1.7568 -2.6021 0.9786
4.0327 2.5116 -2.6021 0.9786
3.5235 3.1868 -2.6021 0.9786
3.2259 3.4878 -2.6021 0.9786
2.9027 3.7611 -2.6021 0.9786
2.5564 4.0045 -2.6021 0.9786
2.1898 4.2162 -2.6021 0.9786
0.1588 4.7483 -2.6021 0.9786
-0.6856 4.7012 -2.6021 0.9786
-1.5083 4.5051 -2.6021 0.9786
-1.8279 4.1805 -2.4990 0.9794
-2.1927 4.0012 -2.4990 0.9794
-2.8674 3.5491 -2.4990 0.9794
-3.7032 2.6654 -2.4990 0.9794
-4.1171 1.9666 -2.4990 0.9794
-1.1464 0.4269 -0.6700 0.9944
-1.1899 0.1063 -0.6543 0.9946
-1.1319 0.0000 -0.6535 0.9948
-1.1276 -0.1008 -0.6536 0.9948
-1.0827 -0.4032 -0.6671 0.9947
-3.7242 -2.2058 -2.4990 0.9802
-3.2741 -2.8312 -2.4990 0.9802
-3.0091 -3.1113 -2.4990 0.9802
-2.0404 -3.0445 -2.1160 0.9832
0.1506 -4.5045 -2.6021 0.9794
0.5509 -4.4732 -2.6021 0.9794
0.9469 -4.4064 -2.6021 0.9794
1.3353 -4.3046 -2.6021 0.9794
1.7131 -4.1687 -2.6021 0.9794
2.4251 -3.7989 -2.6021 0.9794
2.7536 -3.5679 -2.6021 0.9794
3.0603 -3.3087 -2.6021 0.9794
4.0225 -2.0327 -2.6021 0.9794
4.1875 -1.6666 -2.6021 0.9794
4.4166 -0.8977 -2.6021 0.9794
4.4790 -0.5011 -2.6021 0.9794
4.4969 0.3010 -2.6021 0.9794
4.4523 0.7001 -2.6021 0.9794
4.2576 1.4784 -2.6021 0.9794
3.9280 2.2099 -2.6021 0.9794
3.2046 3.1691 -2.6021 0.9794
2.9098 3.4418 -2.6021 0.9794
0.3511 4.4933 -2.6021 0.9794
-0.0502 4.5067 -2.6021 0.9794
-0.8485 4.4264 -2.6021 0.9794
-1.2391 4.3333 -2.6021 0.9794
-1.5840 4.1127 -2.5445 0.9798
-1.9090 3.8847 -2.4990 0.9802
-2.2472 3.6994 -2.4990 0.9802
-2.1749 2.9518 -2.1169 0.9832
-2.8675 3.2423 -2.4990 0.9802
-3.1447 2.9742 -2.4990 0.9802
-3.3969 2.6825 -2.4990 0.9802
-3.8187 2.0377 -2.4990 0.9802
-1.0769 0.4566 -0.6753 0.9946
-1.1039 0.2501 -0.6535 0.9948
-1.1309 0.0504 -0.6536 0.9948
-1.1309 -0.0504 -0.6536 0.9948
-1.0870 -0.3505 -0.6594 0.9947
-1.0769 -0.4566 -0.6753 0.9946
-3.8187 -2.0377 -2.4990 0.9802
-3.3969 -2.6825 -2.4990 0.9802
-3.1447 -2.9742 -2.4990 0.9802
-2.5675 -3.4847 -2.4990 0.9802
-1.5840 -4.1127 -2.5445 0.9798
-1.2391 -4.3333 -2.6021 0.9794
-0.8485 -4.4264 -2.6021 0.9794
-0.4511 -4.4843 -2.6021 0.9794
0.3511 -4.4933 -2.6021 0.9794
1.1422 -4.3598 -2.6021 0.9794
1.5257 -4.2408 -2.6021 0.9794
1.8971 -4.0882 -2.6021 0.9794
3.2046 -3.1691 -2.6021 0.9794
3.7157 -2.5507 -2.6021 0.9794
3.9280 -2.2098 -2.6021 0.9794
4.1091 -1.8515 -2.6021 0.9794
4.2576 -1.4784 -2.6021 0.9794
4.3723 -1.0936 -2.6021 0.9794
4.4523 -0.7001 -2.6021 0.9794
4.4969 -0.3010 -2.6021 0.9794
4.4166 0.8977 -2.6021 0.9794
4.0225 2.0327 -2.6021 0.9794
3.8257 2.3827 -2.6021 0.9794
3.5984 2.7137 -2.6021 0.9794
3.3426 3.0232 -2.6021 0.9794
3.0603 3.3087 -2.6021 0.9794
2.7536 3.5679 -2.6021 0.9794
2.4251 3.7989 -2.6021 0.9794
0.9469 4.4064 -2.6021 0.9794
0.5509 4.4732 -2.6021 0.9794
0.1506 4.5045 -2.6021 0.9794
-0.2509 4.5000 -2.6021 0.9794
-0.6504 4.4598 -2.6021 0.9794
-1.0448 4.3842 -2.6021 0.9794
-1.4309 4.2738 -2.6021 0.9794
-1.7340 3.9659 -2.4990 0.9802
-2.0801 3.7958 -2.4990 0.9802
-3.7242 2.2058 -2.4990 0.9802
-3.9057 1.8656 -2.4990 0.9802
-1.0934 0.2995 -0.6545 0.9948
-1.1141 0.2007 -0.6536 0.9948
-1.1276 0.1008 -0.6536 0.9948
