ply
format ascii 1.0
element vertex 1582
property float32 x
property float32 y
property float32 z
property float32 I
end_header
-10.9349 4.6168 -2.5090 0.9526
-11.5425 2.5895 -2.5005 0.9528
-11.7071 1.5458 -2.4961 0.9529
-10.6653 -3.4842 -2.3717 0.9552
-10.2945 -4.4152 -2.3677 0.9552
-7.3934 -8.4535 -2.3739 0.9551
-5.7598 -9.6135 -2.3689 0.9552
-2.9997 -10.7732 -2.3639 0.9553
-2.0250 -10.9934 -2.3629 0.9553
0.9605 -11.1333 -2.3621 0.9553
1.9512 -11.0053 -2.3626 0.9553
2.9271 -10.7909 -2.3634 0.9553
3.8808 -10.4917 -2.3646 0.9553
4.7587 -10.0121 -2.3433 0.9557
5.6382 -9.5548 -2.3451 0.9557
6.4748 -9.0216 -2.3473 0.9556
7.2622 -8.4164 -2.3498 0.9556
9.6700 -6.4838 -2.4610 0.9535
10.7017 -4.6748 -2.4685 0.9534
11.0945 -3.7066 -2.4726 0.9533
11.6166 -1.6800 -2.4811 0.9531
11.7409 -0.6372 -2.4854 0.9531
11.0726 2.4064 -2.3952 0.9547
6.4588 6.0224 -1.8667 0.9645
4.1074 6.6676 -1.6554 0.9685
5.3919 10.8090 -2.5533 0.9518
1.4581 7.4021 -1.5947 0.9696
-8.1250 8.0670 -2.4202 0.9543
-11.4806 2.8749 -2.5017 0.9528
-11.6711 1.8352 -2.4973 0.9528
-11.7696 -0.2690 -2.4885 0.9530
-10.7531 -3.2214 -2.3728 0.9551
-9.4689 -5.9272 -2.3613 0.9554
-8.9757 -6.8050 -2.3809 0.9550
-6.8256 -8.9067 -2.3720 0.9552
-5.9969 -9.4709 -2.3695 0.9552
-5.1227 -9.9596 -2.3674 0.9552
-2.2959 -10.9412 -2.3631 0.9553
-1.3094 -11.0991 -2.3624 0.9553
1.6788 -11.0493 -2.3624 0.9553
2.6596 -10.8586 -2.3631 0.9553
4.5534 -10.2235 -2.3657 0.9553
5.3994 -9.6888 -2.3446 0.9557
7.0501 -8.5904 -2.3491 0.9556
7.7979 -7.9357 -2.3518 0.9555
8.4861 -7.2169 -2.3548 0.9555
10.0799 -5.8510 -2.4636 0.9535
10.5784 -4.9353 -2.4675 0.9534
10.9946 -3.9775 -2.4714 0.9533
11.7158 -0.9263 -2.4842 0.9531
11.2493 1.1277 -2.3898 0.9548
10.9075 3.1215 -2.3982 0.9547
10.6033 4.0899 -2.4023 0.9546
10.0235 7.4063 -2.6344 0.9503
7.8259 8.3064 -2.4123 0.9544
4.3068 6.6197 -1.6694 0.9682
5.6415 10.6434 -2.5463 0.9519
2.9394 6.9915 -1.6032 0.9695
2.2863 7.1726 -1.5913 0.9697
0.6724 16.6492 -3.5222 0.9341
-6.3433 9.5669 -2.4264 0.9542
-7.1646 8.9530 -2.4239 0.9542
-7.9262 8.2679 -2.4210 0.9543
-8.6217 7.5175 -2.4179 0.9543
-9.2456 6.7083 -2.4146 0.9544
-11.4116 3.1589 -2.5029 0.9527
-11.7504 1.0751 -2.4942 0.9529
-11.7125 -1.0283 -2.4853 0.9531
-11.0743 -1.9807 -2.3780 0.9550
-9.6164 -5.6941 -2.3623 0.9553
-9.1446 -6.5840 -2.3819 0.9550
-8.5083 -7.3639 -2.3785 0.9550
-7.8067 -8.0838 -2.3755 0.9551
-7.0455 -8.7382 -2.3727 0.9551
-5.3682 -9.8325 -2.3680 0.9552
-3.5287 -10.6152 -2.3646 0.9553
-0.5887 -11.1591 -2.3621 0.9553
0.4100 -11.1666 -2.3620 0.9553
6.0186 -9.3252 -2.3461 0.9556
6.8339 -8.7592 -2.3484 0.9556
7.5972 -8.1231 -2.3510 0.9555
8.3024 -7.4215 -2.3539 0.9555
9.3310 -6.9477 -2.4591 0.9536
10.4489 -5.1926 -2.4664 0.9534
10.8882 -4.2457 -2.4703 0.9533
11.2424 -3.2619 -2.4744 0.9533
11.5085 -2.2490 -2.4787 0.9532
11.6837 -1.2145 -2.4830 0.9531
11.7663 -0.1668 -2.4874 0.9530
10.6960 3.8252 -2.4012 0.9546
11.6428 6.7014 -2.8396 0.9466
10.3567 7.2644 -2.6740 0.9496
6.0686 6.1308 -1.8234 0.9653
6.5672 9.5687 -2.4532 0.9537
5.8890 10.4770 -2.5405 0.9521
2.4657 7.1229 -1.5933 0.9697
1.8170 7.3027 -1.5907 0.9697
-6.9436 9.1298 -2.4246 0.9542
-7.7223 8.4638 -2.4218 0.9542
-9.0808 6.9371 -2.4155 0.9544
-10.0668 6.3529 -2.5162 0.9525
-11.0014 4.4470 -2.5083 0.9526
-11.5775 2.4112 -2.4998 0.9528
-11.7801 0.3124 -2.4910 0.9530
-11.7401 -0.7394 -2.4865 0.9530
-8.0066 -7.8913 -2.3763 0.9551
-7.2612 -8.5644 -2.3734 0.9551
-6.4605 -9.1685 -2.3708 0.9552
-5.6106 -9.6993 -2.3685 0.9552
-4.7182 -10.1531 -2.3666 0.9553
-3.7903 -10.5266 -2.3650 0.9553
-2.8337 -10.8171 -2.3637 0.9553
0.1343 -11.1733 -2.3620 0.9553
1.1314 -11.1175 -2.3622 0.9553
2.1201 -10.9745 -2.3627 0.9553
4.9126 -9.9391 -2.3435 0.9557
6.6138 -8.9226 -2.3477 0.9556
9.1007 -7.1320 -2.4441 0.9538
9.7709 -6.3361 -2.4616 0.9535
10.3131 -5.4466 -2.4653 0.9534
10.7753 -4.5111 -2.4692 0.9534
11.1533 -3.5368 -2.4733 0.9533
11.4440 -2.5311 -2.4775 0.9532
11.7528 -0.4569 -2.4862 0.9531
11.4246 0.5780 -2.4180 0.9543
11.2039 1.5785 -2.3917 0.9548
11.0377 2.5771 -2.3959 0.9547
9.5208 5.1715 -2.2902 0.9567
9.4988 7.6250 -2.5748 0.9514
6.6647 9.2147 -2.4039 0.9546
3.9911 6.7073 -1.6498 0.9686
5.2354 10.9117 -2.5583 0.9517
2.6457 7.0730 -1.5963 0.9696
1.9959 7.2531 -1.5902 0.9697
1.3459 7.4332 -1.5968 0.9696
1.3708 15.2368 -3.2338 0.9394
-2.3212 8.4561 -1.8536 0.9648
-3.2501 8.7056 -1.9643 0.9627
-3.8765 5.3669 -1.3994 0.9733
-8.2462 7.9395 -2.4197 0.9543
-8.9103 7.1619 -2.4164 0.9543
-10.4450 5.6821 -2.5134 0.9525
-11.2524 3.7216 -2.5052 0.9527
-11.5200 2.6974 -2.5010 0.9528
-11.6944 1.6552 -2.4966 0.9529
-11.7746 0.6033 -2.4922 0.9529
-11.7605 -0.4496 -2.4877 0.9530
-11.3805 -1.4603 -2.4253 0.9542
-10.6992 -3.3852 -2.3721 0.9552
-10.3370 -4.3198 -2.3681 0.9552
-8.8680 -6.9404 -2.3804 0.9550
-8.2018 -7.6941 -2.3771 0.9551
-7.4728 -8.3853 -2.3742 0.9551
-5.8498 -9.5603 -2.3691 0.9552
-4.0496 -10.4317 -2.3654 0.9553
-3.1002 -10.7453 -2.3640 0.9553
-0.1415 -11.1733 -2.3620 0.9553
3.7826 -10.5268 -2.3645 0.9553
4.6649 -10.0553 -2.3431 0.9557
5.5484 -9.6061 -2.3449 0.9557
7.9205 -7.8166 -2.3523 0.9555
8.5979 -7.0873 -2.3553 0.9555
11.3727 -2.8114 -2.4763 0.9532
11.7322 -0.7464 -2.4850 0.9531
11.2340 1.3008 -2.3905 0.9548
11.0925 2.3028 -2.3947 0.9547
12.2358 6.2602 -2.9053 0.9454
9.8202 7.4921 -2.6109 0.9508
5.4864 10.7465 -2.5505 0.9519
2.1749 7.2035 -1.5906 0.9697
-6.4884 9.4668 -2.4260 0.9542
-7.3000 8.8402 -2.4234 0.9542
-11.4554 2.9824 -2.5021 0.9528
-11.7619 0.8942 -2.4934 0.9529
-11.0392 -2.1499 -2.3773 0.9551
-10.7846 -3.1216 -2.3732 0.9551
-9.5253 -5.8396 -2.3617 0.9553
-8.3922 -7.4920 -2.3780 0.9550
-6.9091 -8.8437 -2.3722 0.9552
-5.2158 -9.9123 -2.3676 0.9552
-4.3066 -10.3305 -2.3658 0.9553
0.5815 -11.1591 -2.3620 0.9553
6.1621 -9.2331 -2.3464 0.9556
7.7227 -8.0071 -2.3515 0.9555
8.4173 -7.2946 -2.3544 0.9555
10.0234 -5.9438 -2.4633 0.9535
10.5302 -5.0329 -2.4670 0.9534
10.9552 -4.0791 -2.4710 0.9533
11.5451 -2.0725 -2.4794 0.9532
11.7710 0.0140 -2.4882 0.9530
11.2572 1.0227 -2.3893 0.9548
11.1406 2.0273 -2.3936 0.9548
10.2573 4.9324 -2.4058 0.9545
8.9927 7.8309 -2.5206 0.9524
6.9266 8.6442 -2.3415 0.9557
6.5037 9.7955 -2.4854 0.9531
5.7352 10.5806 -2.5440 0.9520
3.0082 6.9725 -1.6052 0.9694
2.3540 7.1538 -1.5919 0.9697
1.7054 7.3336 -1.5915 0.9697
1.0520 7.5147 -1.6039 0.9695
0.8129 16.3488 -3.4601 0.9353
-7.8498 8.3424 -2.4213 0.9542
-10.1606 6.1959 -2.5156 0.9525
-10.6566 5.2557 -2.5116 0.9526
-11.6097 2.2324 -2.4990 0.9528
-11.7799 0.1313 -2.4902 0.9530
-11.7238 -0.9194 -2.4858 0.9531
-11.0943 -1.8777 -2.3785 0.9550
-10.8635 -2.8558 -2.3743 0.9551
-10.1484 -4.7267 -2.3664 0.9553
-9.2069 -6.4995 -2.3822 0.9550
-8.5778 -7.2853 -2.3789 0.9550
-7.8827 -8.0117 -2.3758 0.9551
-7.1274 -8.6732 -2.3730 0.9551
-6.3178 -9.2650 -2.3704 0.9552
-5.4601 -9.7829 -2.3682 0.9552
-4.5612 -10.2231 -2.3663 0.9553
-2.6670 -10.8585 -2.3635 0.9553
0.3059 -11.1699 -2.3620 0.9553
1.3022 -11.0991 -2.3622 0.9553
3.2577 -10.6976 -2.3638 0.9553
6.7513 -8.8215 -2.3481 0.9556
7.5203 -8.1925 -2.3507 0.9556
8.2318 -7.4975 -2.3536 0.9555
10.3983 -5.2889 -2.4660 0.9534
10.8463 -4.3463 -2.4699 0.9534
11.6697 -1.3231 -2.4826 0.9531
11.7621 -0.2764 -2.4869 0.9530
11.2735 0.7442 -2.3882 0.9549
11.1818 1.7509 -2.3924 0.9548
11.0000 2.7471 -2.3966 0.9547
10.7293 3.7247 -2.4007 0.9546
11.7849 6.6377 -2.8591 0.9462
8.2164 8.1473 -2.4459 0.9538
6.6046 9.4335 -2.4342 0.9540
5.9820 10.4139 -2.5386 0.9521
1.8845 7.2840 -1.5904 0.9697
1.1619 15.5967 -3.3060 0.9381
-6.8590 9.1952 -2.4249 0.9542
-8.3654 7.8101 -2.4191 0.9543
-10.0087 6.4475 -2.5166 0.9525
-11.3049 3.5473 -2.5045 0.9527
-11.5566 2.5194 -2.5002 0.9528
-11.7789 0.4222 -2.4914 0.9530
-11.7486 -0.6300 -2.4870 0.9530
-11.1427 -1.6042 -2.3796 0.9550
-10.6429 -3.5481 -2.3714 0.9552
-10.2665 -4.4769 -2.3675 0.9552
-9.8101 -5.3671 -2.3637 0.9553
-9.3683 -6.2728 -2.3832 0.9550
-8.7582 -7.0741 -2.3798 0.9550
-3.8884 -10.4915 -2.3651 0.9553
-2.9345 -10.7908 -2.3638 0.9553
0.0301 -11.1741 -2.3620 0.9553
2.0177 -10.9935 -2.3626 0.9553
5.6962 -9.5211 -2.3453 0.9557
7.3135 -8.3730 -2.3500 0.9556
8.0414 -7.6957 -2.3528 0.9555
10.7309 -4.6106 -2.4688 0.9534
11.7445 0.4845 -2.4847 0.9531
11.2162 1.4736 -2.3912 0.9548
11.0592 2.4736 -2.3955 0.9547
10.8128 3.4572 -2.3996 0.9546
10.4786 4.4162 -2.4037 0.9546
10.8304 7.0597 -2.7328 0.9485
8.5043 8.0263 -2.4718 0.9533
5.5678 6.2859 -1.7750 0.9663
6.7001 9.0842 -2.3860 0.9549
5.3305 10.8494 -2.5552 0.9518
2.7138 7.0541 -1.5976 0.9696
1.4140 7.4144 -1.5955 0.9696
0.7549 7.5970 -1.6138 0.9693
-8.1729 8.0171 -2.4200 0.9543
-8.8445 7.2457 -2.4168 0.9543
-11.6806 1.7644 -2.4970 0.9529
-11.7664 -0.3400 -2.4882 0.9530
-11.6496 -1.3847 -2.4798 0.9532
-10.7322 -3.2859 -2.3725 0.9551
-10.3786 -4.2240 -2.3686 0.9552
-9.9439 -5.1255 -2.3647 0.9553
-8.9336 -6.8585 -2.3807 0.9550
-8.2743 -7.6183 -2.3775 0.9551
-6.7711 -8.9471 -2.3718 0.9552
-5.0622 -9.9899 -2.3673 0.9552
-4.1469 -10.3942 -2.3655 0.9553
-0.2456 -11.1715 -2.3620 0.9553
3.6842 -10.5610 -2.3643 0.9553
4.6153 -10.1962 -2.3658 0.9553
6.3043 -9.1389 -2.3468 0.9556
7.8464 -7.8891 -2.3520 0.9555
8.5303 -7.1661 -2.3550 0.9555
9.5446 -6.6609 -2.4603 0.9535
10.6092 -4.8718 -2.4677 0.9534
11.0197 -3.9114 -2.4717 0.9533
11.3440 -2.9168 -2.4759 0.9532
11.7730 0.1949 -2.4889 0.9530
11.2436 1.1958 -2.3901 0.9548
10.8897 3.1878 -2.3985 0.9547
10.5796 4.1544 -2.4025 0.9546
7.6213 5.7029 -2.0121 0.9618
6.7906 8.7465 -2.3406 0.9557
5.5806 10.6840 -2.5479 0.9519
-6.4005 9.5278 -2.4262 0.9542
-9.2851 6.6517 -2.4143 0.9544
-10.2519 6.0375 -2.5149 0.9525
-10.7331 5.0900 -2.5110 0.9526
-11.1264 4.1046 -2.5068 0.9527
-11.7552 1.0039 -2.4939 0.9529
-11.7770 -0.0496 -2.4894 0.9530
-11.7047 -1.0990 -2.4850 0.9531
-10.8151 -3.0215 -2.3736 0.9551
-10.4844 -3.9684 -2.3696 0.9552
-8.4629 -7.4146 -2.3783 0.9550
-6.9920 -8.7800 -2.3725 0.9551
-5.3084 -9.8642 -2.3678 0.9552
-3.4644 -10.6359 -2.3645 0.9553
-1.5162 -11.0733 -2.3625 0.9553
1.4725 -11.0781 -2.3623 0.9553
2.4565 -10.9055 -2.3630 0.9553
3.4219 -10.6472 -2.3640 0.9553
5.2170 -9.7861 -2.3442 0.9557
9.3737 -6.8918 -2.4593 0.9535
9.9660 -6.0360 -2.4629 0.9535
10.4812 -5.1300 -2.4666 0.9534
11.5232 -2.1796 -2.4790 0.9532
11.7685 -0.0957 -2.4877 0.9530
11.2641 0.9175 -2.3889 0.9548
10.6739 3.8903 -2.4014 0.9546
10.3010 4.8358 -2.4054 0.9545
9.1088 7.7840 -2.5327 0.9522
1.7731 7.3148 -1.5910 0.9697
0.9485 16.0564 -3.3999 0.9364
-2.6293 8.5413 -1.8891 0.9641
-4.7135 9.1104 -2.1682 0.9589
-6.9982 9.0871 -2.4244 0.9542
-7.7727 8.4163 -2.4216 0.9542
10.5849 0.4715 -2.4902 0.9574
9.9358 2.2566 -2.3946 0.9590
9.7097 3.1396 -2.3983 0.9589
9.4048 4.0001 -2.4020 0.9589
9.0233 4.8309 -2.4055 0.9588
7.3001 5.7879 -2.1895 0.9624
7.2618 8.2526 -2.5835 0.9558
4.7569 6.4940 -1.8919 0.9675
2.4493 13.0752 -3.1264 0.9468
-5.2137 8.8966 -2.4235 0.9585
-7.3634 7.1758 -2.4164 0.9586
-7.9652 6.4819 -2.4135 0.9587
-9.7644 4.3005 -2.5076 0.9571
-10.0944 3.4064 -2.5038 0.9572
-10.5813 -0.3405 -2.4881 0.9574
-9.6476 -2.9885 -2.3737 0.9593
-9.3282 -3.8322 -2.3701 0.9594
-6.7768 -7.5124 -2.3778 0.9593
-6.0728 -8.0792 -2.3754 0.9593
-5.3223 -8.5814 -2.3732 0.9594
-4.5312 -9.0152 -2.3714 0.9594
-3.7057 -9.3775 -2.3698 0.9594
0.7113 -10.0448 -2.3667 0.9595
1.6056 -9.9428 -2.3671 0.9595
2.4878 -9.7626 -2.3678 0.9594
3.3185 -9.4136 -2.3459 0.9598
4.9462 -8.6842 -2.3488 0.9598
7.0906 -7.0827 -2.3554 0.9597
8.6144 -5.9699 -2.4632 0.9578
9.1251 -5.1837 -2.4665 0.9578
9.5649 -4.3544 -2.4700 0.9577
9.9300 -3.4881 -2.4736 0.9577
10.2172 -2.5914 -2.4773 0.9576
10.4240 -1.6714 -2.4812 0.9575
9.7801 2.8978 -2.3973 0.9590
9.4968 3.7652 -2.4010 0.9589
9.6463 7.2676 -2.8385 0.9516
7.5336 8.1470 -2.6079 0.9554
6.5667 8.5155 -2.5273 0.9568
6.1658 9.6729 -2.6959 0.9540
3.7716 12.2244 -3.0067 0.9488
1.6257 13.4320 -3.1799 0.9459
0.4462 14.3701 -3.3789 0.9426
-4.9936 9.0245 -2.4240 0.9585
-5.7746 8.5356 -2.4220 0.9585
-7.8054 6.6788 -2.4143 0.9587
-8.6028 6.1204 -2.4813 0.9575
-10.4696 1.8115 -2.4972 0.9573
-10.5912 -0.0793 -2.4892 0.9574
-9.9447 -1.8745 -2.3784 0.9593
-9.7225 -2.7506 -2.3747 0.9593
-8.0981 -5.9460 -2.3612 0.9596
-7.5255 -6.6370 -2.3582 0.9596
-6.9622 -7.3451 -2.3785 0.9593
-5.5338 -8.4494 -2.3738 0.9593
-3.0902 -9.5937 -2.3688 0.9594
-2.2203 -9.8270 -2.3678 0.9594
-1.3335 -9.9830 -2.3671 0.9595
-0.4368 -10.0606 -2.3667 0.9595
0.4632 -10.0592 -2.3666 0.9595
1.3597 -9.9788 -2.3669 0.9595
3.9220 -9.1829 -2.3468 0.9598
4.7294 -8.8018 -2.3483 0.9598
6.2300 -7.8335 -2.3523 0.9597
6.9116 -7.2533 -2.3547 0.9597
7.6835 -6.7405 -2.4022 0.9589
8.9911 -5.4054 -2.4656 0.9578
9.8369 -3.7305 -2.4726 0.9577
10.5859 -0.0514 -2.4880 0.9574
10.3336 0.8759 -2.4373 0.9583
9.5828 3.5282 -2.4000 0.9589
9.9645 7.1287 -2.8795 0.9509
6.2883 9.3478 -2.6478 0.9548
3.0555 6.9661 -1.7878 0.9692
1.9439 13.3001 -3.1591 0.9463
0.7781 13.9500 -3.2837 0.9442
-1.0009 8.0899 -1.9158 0.9671
-5.5636 8.6775 -2.4226 0.9585
-6.3104 8.1387 -2.4204 0.9586
-7.0047 7.5350 -2.4179 0.9586
-8.2137 6.1544 -2.4122 0.9587
-9.0956 5.6222 -2.5131 0.9570
-10.4263 2.0702 -2.4982 0.9573
-10.5528 1.1292 -2.4943 0.9573
-10.5945 0.1822 -2.4903 0.9574
-9.5138 -3.3700 -2.3721 0.9594
-9.1613 -4.1998 -2.3686 0.9594
-8.2454 -5.7463 -2.3620 0.9595
-7.1436 -7.1732 -2.3793 0.9593
-5.7420 -8.3124 -2.3744 0.9593
-3.3265 -9.5159 -2.3692 0.9594
-2.4623 -9.7703 -2.3680 0.9594
0.2148 -10.0675 -2.3666 0.9595
2.0027 -9.8717 -2.3673 0.9595
2.8493 -9.5634 -2.3453 0.9598
6.7285 -7.4195 -2.3540 0.9597
7.3722 -6.7965 -2.3566 0.9596
8.3035 -6.3832 -2.4615 0.9579
9.3311 -4.8173 -2.4680 0.9578
10.0684 -3.0898 -2.4752 0.9576
10.3199 -2.1818 -2.4790 0.9576
10.5768 -0.3124 -2.4869 0.9575
9.6629 3.2892 -2.3990 0.9589
8.9502 4.9701 -2.4061 0.9588
10.2902 6.9844 -2.9229 0.9502
9.1442 7.4815 -2.7768 0.9526
8.0857 7.9214 -2.6603 0.9546
5.8037 9.9636 -2.7100 0.9537
5.0009 10.6769 -2.7709 0.9527
3.3250 12.5384 -3.0487 0.9481
2.2570 13.1630 -3.1388 0.9466
1.0991 13.6402 -3.2162 0.9453
-6.1092 8.2942 -2.4210 0.9586
-6.8186 7.7079 -2.4186 0.9586
-7.4713 7.0604 -2.4159 0.9586
-8.0621 6.3574 -2.4130 0.9587
-9.4307 5.0171 -2.5106 0.9571
-9.8269 4.1490 -2.5069 0.9571
-10.3765 2.3279 -2.4993 0.9572
-10.4681 -1.4425 -2.4835 0.9575
-9.5980 -3.1355 -2.3731 0.9594
-8.8613 -4.7786 -2.3661 0.9595
-8.3877 -5.5431 -2.3629 0.9595
-7.8491 -6.2618 -2.3598 0.9596
-6.6594 -7.6142 -2.3774 0.9593
-4.3916 -9.0826 -2.3711 0.9594
-2.7030 -9.7077 -2.3683 0.9594
-1.8248 -9.9065 -2.3674 0.9595
-0.9328 -10.0275 -2.3669 0.9595
1.7583 -9.9173 -2.3672 0.9595
2.6376 -9.7238 -2.3679 0.9594
3.4631 -9.3623 -2.3461 0.9598
5.0797 -8.6083 -2.3491 0.9598
5.8329 -8.1272 -2.3511 0.9597
7.2000 -6.9742 -2.3559 0.9596
9.6330 -4.2080 -2.4706 0.9577
9.9849 -3.3359 -2.4742 0.9577
10.2585 -2.4348 -2.4780 0.9576
10.5612 -0.5731 -2.4858 0.9575
10.5871 0.3727 -2.4898 0.9574
10.0922 1.2640 -2.3904 0.9591
9.7370 3.0485 -2.3980 0.9589
9.0666 4.7459 -2.4051 0.9588
10.6244 6.8344 -2.9690 0.9494
9.4515 7.3512 -2.8141 0.9520
3.6024 12.3461 -3.0226 0.9485
2.5649 13.0209 -3.1190 0.9469
1.4251 13.5114 -3.1931 0.9457
0.2296 14.6383 -3.4408 0.9416
-4.1205 8.9524 -2.3162 0.9603
-6.6282 7.8760 -2.4193 0.9586
-7.2971 7.2449 -2.4167 0.9586
-9.3077 5.2503 -2.5115 0.9570
-10.4934 1.6500 -2.4965 0.9573
-10.5820 0.7053 -2.4925 0.9574
-10.5858 -0.2419 -2.4885 0.9574
-10.5051 -1.1843 -2.4846 0.9575
-9.6766 -2.8989 -2.3741 0.9593
-9.3650 -3.7457 -2.3705 0.9594
-8.9800 -4.5602 -2.3670 0.9595
-8.5251 -5.3364 -2.3638 0.9595
-5.4025 -8.5322 -2.3734 0.9594
-4.6154 -8.9733 -2.3715 0.9594
-3.7932 -9.3432 -2.3699 0.9594
-2.9422 -9.6392 -2.3686 0.9594
-2.0689 -9.8594 -2.3676 0.9595
-0.2822 -10.0660 -2.3667 0.9595
0.6177 -10.0510 -2.3667 0.9595
1.5129 -9.9571 -2.3670 0.9595
2.3965 -9.7850 -2.3677 0.9595
3.2305 -9.4436 -2.3457 0.9598
4.0630 -9.1225 -2.3470 0.9598
5.6291 -8.2666 -2.3505 0.9597
7.0235 -7.1476 -2.3551 0.9597
8.5572 -6.0491 -2.4629 0.9579
9.0751 -5.2678 -2.4662 0.9578
9.5225 -4.4427 -2.4696 0.9577
9.8955 -3.5799 -2.4732 0.9577
10.1911 -2.6861 -2.4769 0.9576
10.4063 -1.7682 -2.4808 0.9576
10.5883 0.1113 -2.4887 0.9574
10.1159 1.0141 -2.3894 0.9591
10.0008 1.9163 -2.3932 0.9590
9.5300 3.6759 -2.4006 0.9589
9.7658 7.2159 -2.8538 0.9513
7.6373 8.1062 -2.6175 0.9553
6.6653 8.4789 -2.5347 0.9567
3.6169 6.8237 -1.8151 0.9688
4.7216 11.2304 -2.8632 0.9512
0.5738 14.2099 -3.3424 0.9432
-6.4336 8.0394 -2.4200 0.9586
-7.1182 7.4251 -2.4174 0.9586
-7.7438 6.7521 -2.4147 0.9587
-9.1788 5.4805 -2.5125 0.9570
-9.6179 4.6326 -2.5090 0.9571
-10.2578 2.8395 -2.5015 0.9572
-10.5932 0.0194 -2.4896 0.9574
-10.5358 -0.9250 -2.4857 0.9575
-9.7493 -2.6603 -2.3751 0.9593
-9.4584 -3.5149 -2.3715 0.9594
-9.0934 -4.3390 -2.3680 0.9594
-8.1543 -5.8710 -2.3615 0.9596
-6.3463 -7.8711 -2.3763 0.9593
-4.0234 -9.2483 -2.3703 0.9594
-1.4265 -9.9704 -2.3671 0.9595
-0.5305 -10.0562 -2.3667 0.9595
0.3695 -10.0630 -2.3666 0.9595
1.2666 -9.9909 -2.3669 0.9595
2.1541 -9.8402 -2.3675 0.9595
2.9961 -9.5192 -2.3454 0.9598
4.6468 -8.8448 -2.3482 0.9598
5.4222 -8.4011 -2.3500 0.9597
6.8429 -7.3166 -2.3544 0.9597
9.8002 -3.8214 -2.4722 0.9577
10.5832 -0.1500 -2.4876 0.9574
10.0407 1.6682 -2.3921 0.9590
9.6137 3.4382 -2.3996 0.9589
9.2822 4.2893 -2.4032 0.9589
8.8750 5.1083 -2.4067 0.9588
6.3269 9.2185 -2.6278 0.9551
4.1511 11.9913 -2.9823 0.9492
0.8985 13.7947 -3.2490 0.9448
-5.4829 8.7298 -2.4228 0.9585
-6.2349 8.1980 -2.4206 0.9586
-7.5773 6.9434 -2.4154 0.9586
-10.5942 0.2809 -2.4907 0.9574
-10.5601 -0.6650 -2.4868 0.9575
-9.5462 -3.2817 -2.3725 0.9594
-9.2014 -4.1149 -2.3689 0.9594
-8.2997 -5.6701 -2.3623 0.9595
-5.8198 -8.2593 -2.3746 0.9593
-3.4152 -9.4850 -2.3693 0.9594
-2.5534 -9.7473 -2.3681 0.9594
-1.6723 -9.9329 -2.3673 0.9595
1.0196 -10.0186 -2.3668 0.9595
1.9105 -9.8896 -2.3673 0.9595
3.6068 -9.3088 -2.3463 0.9598
4.4263 -8.9551 -2.3477 0.9598
5.9580 -8.0379 -2.3515 0.9597
7.3077 -6.8641 -2.3563 0.9596
8.2426 -6.4595 -2.4612 0.9579
9.6990 -4.0605 -2.4712 0.9577
10.0377 -3.1830 -2.4748 0.9577
10.2975 -2.2775 -2.4786 0.9576
10.5716 -0.4109 -2.4865 0.9575
10.5830 0.5354 -2.4904 0.9574
10.0743 1.4193 -2.3911 0.9591
8.9948 4.8858 -2.4057 0.9588
10.4154 6.9284 -2.9400 0.9499
9.2594 7.4329 -2.7906 0.9524
8.1909 7.8762 -2.6706 0.9544
7.1958 8.2780 -2.5778 0.9559
5.8558 9.8410 -2.6914 0.9540
5.0939 10.6168 -2.7675 0.9528
2.6455 7.0723 -1.7746 0.9694
1.2229 13.5923 -3.2074 0.9455
0.0047 14.9515 -3.5140 0.9404
-3.2498 8.7046 -2.1837 0.9625
-3.8739 5.3633 -1.5549 0.9732
-8.0036 6.4331 -2.4133 0.9587
-9.7893 4.2410 -2.5073 0.9571
-10.3561 2.4249 -2.4997 0.9572
-10.5146 1.4882 -2.4958 0.9573
-10.5887 0.5425 -2.4918 0.9574
-10.4828 -1.3451 -2.4839 0.9575
-9.8771 -2.1779 -2.3771 0.9593
-9.6284 -3.0464 -2.3734 0.9594
-9.3040 -3.8881 -2.3699 0.9594
-8.9067 -4.6965 -2.3665 0.9595
-8.4402 -5.4655 -2.3632 0.9595
-7.3865 -6.9293 -2.3803 0.9592
-6.7308 -7.5527 -2.3776 0.9593
-6.0235 -8.1152 -2.3752 0.9593
-5.2700 -8.6129 -2.3731 0.9594
-4.4764 -9.0420 -2.3712 0.9594
-2.7935 -9.6825 -2.3684 0.9594
-1.0262 -10.0185 -2.3669 0.9595
-0.1275 -10.0690 -2.3666 0.9595
0.7720 -10.0404 -2.3667 0.9595
3.3755 -9.3937 -2.3459 0.9598
4.2032 -9.0600 -2.3473 0.9598
6.4699 -7.6410 -2.3531 0.9597
7.1338 -7.0402 -2.3556 0.9597
8.0780 -6.6587 -2.4604 0.9579
8.6511 -5.9182 -2.4634 0.9578
9.1571 -5.1290 -2.4667 0.9578
9.9519 -3.4283 -2.4738 0.9577
10.2338 -2.5299 -2.4776 0.9576
10.5536 -0.6714 -2.4854 0.9575
10.5883 0.2740 -2.4893 0.9574
10.1019 1.1697 -2.3900 0.9591
9.9729 2.0703 -2.3938 0.9590
9.7634 2.9571 -2.3976 0.9589
9.1090 4.6605 -2.4048 0.9588
9.5694 7.3007 -2.8288 0.9517
7.4667 8.1731 -2.6018 0.9555
4.9126 6.4508 -1.9057 0.9672
6.1024 9.7023 -2.6938 0.9540
5.3386 10.4569 -2.7594 0.9529
3.7054 12.2724 -3.0129 0.9487
1.5471 13.4634 -3.1850 0.9458
0.1940 7.7590 -1.8241 0.9686
-2.9844 8.6387 -2.1480 0.9631
-6.5552 7.9383 -2.4196 0.9586
-7.2301 7.3135 -2.4170 0.9586
-8.7579 6.1513 -2.5153 0.9570
-10.0322 3.5951 -2.5046 0.9572
-10.2974 2.6809 -2.5008 0.9572
-10.4793 1.7480 -2.4969 0.9573
-10.5767 0.8041 -2.4929 0.9574
-10.5175 -1.0865 -2.4850 0.9575
-7.4846 -6.6818 -2.3580 0.9596
-6.9172 -7.3865 -2.3784 0.9593
-6.2236 -7.9662 -2.3759 0.9593
-5.4823 -8.4822 -2.3737 0.9593
-3.8804 -9.3080 -2.3701 0.9594
-3.0320 -9.6119 -2.3687 0.9594
-2.1608 -9.8400 -2.3677 0.9594
-1.2732 -9.9907 -2.3670 0.9595
-0.3760 -10.0630 -2.3667 0.9595
0.5241 -10.0562 -2.3667 0.9595
3.9776 -9.1594 -2.3469 0.9598
5.5514 -8.3180 -2.3503 0.9597
6.2776 -7.7962 -2.3525 0.9597
6.9558 -7.2119 -2.3549 0.9597
7.8202 -6.7772 -2.4321 0.9584
9.0244 -5.3514 -2.4658 0.9578
9.4792 -4.5305 -2.4692 0.9577
9.8602 -3.6714 -2.4728 0.9577
10.5292 -0.9313 -2.4843 0.9575
9.8292 2.7141 -2.3965 0.9590
9.5623 3.5864 -2.4002 0.9589
9.8859 7.1633 -2.8693 0.9511
8.7708 7.6376 -2.7333 0.9533
7.7416 8.0650 -2.6274 0.9551
6.7644 8.4418 -2.5424 0.9565
6.2628 9.4325 -2.6610 0.9545
5.5810 10.2962 -2.7525 0.9530
4.7445 10.9968 -2.8148 0.9520
2.9703 12.7721 -3.0819 0.9475
-0.3137 7.8921 -1.8563 0.9681
-4.8253 9.1175 -2.4244 0.9585
-5.6156 8.6433 -2.4225 0.9585
-6.3590 8.0999 -2.4202 0.9586
-7.0496 7.4920 -2.4177 0.9586
-7.6816 6.8248 -2.4150 0.9587
-8.2500 6.1041 -2.4120 0.9587
-9.1286 5.5666 -2.5129 0.9570
-9.5757 4.7227 -2.5093 0.9571
-9.9446 3.8431 -2.5057 0.9571
-10.4375 2.0070 -2.4980 0.9573
-10.5943 0.1181 -2.4901 0.9574
-10.3338 -1.7490 -2.4632 0.9578
-9.7752 -2.5698 -2.3755 0.9593
-8.7061 -5.0462 -2.3650 0.9595
-7.6498 -6.4972 -2.3588 0.9596
-7.0996 -7.2157 -2.3791 0.9593
-6.4200 -7.8124 -2.3765 0.9593
-5.6914 -8.3464 -2.3742 0.9593
-4.9192 -8.8137 -2.3722 0.9594
-4.1096 -9.2111 -2.3705 0.9594
2.0623 -9.8596 -2.3674 0.9595
5.3432 -8.4505 -2.3498 0.9598
6.0817 -7.9467 -2.3518 0.9597
7.4137 -6.7524 -2.3568 0.9596
8.8863 -5.5704 -2.4649 0.9578
10.4984 -1.1903 -2.4832 0.9575
10.5764 0.6981 -2.4911 0.9574
10.0541 1.5743 -2.3917 0.9590
9.6438 3.3479 -2.3992 0.9589
8.9209 5.0246 -2.4063 0.9588
8.0954 5.5665 -2.3090 0.9604
7.0593 5.8473 -2.1543 0.9630
7.0292 8.3418 -2.5638 0.9562
4.9404 10.7159 -2.7733 0.9527
3.2561 12.5849 -3.0551 0.9480
-0.2306 15.3294 -3.6032 0.9389
-7.5132 7.0146 -2.4157 0.9586
-8.0997 6.3080 -2.4128 0.9587
-9.4600 4.9595 -2.5103 0.9571
-9.8507 4.0891 -2.5067 0.9571
-10.1613 3.1884 -2.5029 0.9572
-10.3893 2.2649 -2.4991 0.9572
-10.5929 0.3797 -2.4912 0.9574
-10.4581 -1.5056 -2.4832 0.9575
-9.8399 -2.3287 -2.3765 0.9593
-9.2408 -4.0296 -2.3693 0.9594
-8.8314 -4.8316 -2.3659 0.9595
-8.3533 -5.5932 -2.3627 0.9595
-6.6128 -7.6538 -2.3772 0.9593
-1.7648 -9.9172 -2.3674 0.9595
0.0272 -10.0697 -2.3666 0.9595
0.9262 -10.0276 -2.3667 0.9595
1.8182 -9.9067 -2.3672 0.9595
3.5197 -9.3416 -2.3461 0.9598
5.8822 -8.0923 -2.3512 0.9597
6.5877 -7.5420 -2.3535 0.9597
7.2424 -6.9312 -2.3560 0.9596
9.2370 -4.9889 -2.4673 0.9578
9.6592 -4.1501 -2.4708 0.9577
10.0060 -3.2759 -2.4745 0.9577
10.4613 -1.4484 -2.4821 0.9575
10.5656 -0.5094 -2.4860 0.9575
9.7194 3.1076 -2.3982 0.9589
10.5418 6.8717 -2.9575 0.9496
5.5681 6.2862 -1.9736 0.9661
5.9411 9.7759 -2.6886 0.9541
5.1865 10.5565 -2.7643 0.9528
2.4901 13.0562 -3.1238 0.9469
0.7556 7.6035 -1.7958 0.9691
0.1421 14.7453 -3.4656 0.9412
-6.6752 7.8353 -2.4191 0.9586
-7.3401 7.2002 -2.4165 0.9586
-7.9443 6.5082 -2.4136 0.9587
-9.7508 4.3328 -2.5077 0.9571
-10.0837 3.4396 -2.5040 0.9572
-10.3347 2.5217 -2.5001 0.9572
-10.5830 -0.3058 -2.4883 0.9574
-10.4967 -1.2476 -2.4843 0.9575
-9.9072 -2.0879 -2.3796 0.9593
-7.4517 -6.8610 -2.3806 0.9592
-6.8017 -7.4904 -2.3779 0.9593
-6.0995 -8.0596 -2.3755 0.9593
-5.3505 -8.5642 -2.3733 0.9594
-3.7365 -9.3655 -2.3698 0.9594
-0.2213 -10.0674 -2.3667 0.9595
0.6785 -10.0471 -2.3667 0.9595
2.4557 -9.7705 -2.3677 0.9594
4.1183 -9.0981 -2.3471 0.9598
4.9176 -8.7001 -2.3488 0.9598
5.6793 -8.2330 -2.3507 0.9597
6.3977 -7.7002 -2.3529 0.9597
8.5944 -5.9978 -2.4631 0.9579
9.1076 -5.2134 -2.4664 0.9578
9.9180 -3.5203 -2.4734 0.9577
10.2081 -2.6247 -2.4772 0.9576
10.4179 -1.7054 -2.4810 0.9576
10.5452 -0.7696 -2.4850 0.9575
10.1106 1.0753 -2.3896 0.9591
9.5085 3.7338 -2.4008 0.9589
9.1507 4.5747 -2.4044 0.9588
9.6882 7.2496 -2.8439 0.9515
6.6013 8.5027 -2.5299 0.9567
5.4303 10.3963 -2.7566 0.9529
2.2444 7.1910 -1.7705 0.9695
1.6683 13.4147 -3.1771 0.9460
-6.4816 7.9999 -2.4198 0.9586
-8.5075 6.0946 -2.4596 0.9579
-9.2109 5.4244 -2.5123 0.9570
-10.2737 2.7771 -2.5012 0.9572
-10.4643 1.8459 -2.4973 0.9573
-10.5920 -0.0446 -2.4894 0.9574
-10.5289 -0.9886 -2.4854 0.9575
-10.0007 -1.8511 -2.3903 0.9591
-9.7320 -2.7190 -2.3748 0.9593
-9.4361 -3.5716 -2.3712 0.9594
-9.0662 -4.3934 -2.3678 0.9594
-8.6255 -5.1780 -2.3644 0.9595
-8.1179 -5.9197 -2.3613 0.9596
-5.5617 -8.4315 -2.3739 0.9593
-4.7826 -8.8871 -2.3719 0.9594
-3.9672 -9.2721 -2.3702 0.9594
-2.2525 -9.8198 -2.3678 0.9594
1.3270 -9.9831 -2.3669 0.9595
2.2136 -9.8272 -2.3675 0.9595
4.7004 -8.8170 -2.3483 0.9598
7.6161 -6.7255 -2.3880 0.9591
9.8240 -3.7626 -2.4724 0.9577
10.3681 -1.9611 -2.4800 0.9576
10.5184 -1.0292 -2.4839 0.9575
10.0315 1.7290 -2.3924 0.9590
9.8525 2.6220 -2.3962 0.9590
7.9204 5.6272 -2.2834 0.9609
8.8829 7.5910 -2.7462 0.9531
7.8465 8.0233 -2.6375 0.9549
6.8640 8.4044 -2.5503 0.9564
3.0797 6.9594 -1.7886 0.9692
0.8208 13.8951 -3.2714 0.9444
-0.4782 15.7207 -3.6964 0.9374
-0.9731 8.0822 -1.9132 0.9671
-1.7608 8.2927 -1.9924 0.9658
-4.7129 9.1092 -2.4104 0.9587
-5.5353 8.6960 -2.4227 0.9585
-6.9802 7.5582 -2.4180 0.9586
-7.6185 6.8970 -2.4153 0.9587
-8.1939 6.1815 -2.4123 0.9587
7.7703 5.1014 -2.4067 0.9623
5.6070 9.2946 -2.8105 0.9561
2.2331 11.9213 -3.1403 0.9511
1.1961 12.4512 -3.2387 0.9496
0.0837 13.1648 -3.4087 0.9471
-1.2646 15.1926 -3.9473 0.9390
-3.2199 8.7864 -2.4229 0.9621
-8.0425 5.4278 -2.5122 0.9607
-8.8571 3.9009 -2.5058 0.9608
-9.3839 2.2571 -2.4990 0.9609
-9.6050 -0.3091 -2.4882 0.9611
-9.3699 -2.0068 -2.4811 0.9612
-8.1171 -4.2176 -2.3684 0.9629
-7.6984 -4.9194 -2.3655 0.9630
-6.6853 -6.1959 -2.3600 0.9630
-6.0991 -6.7612 -2.3576 0.9631
-5.5194 -7.3431 -2.3784 0.9628
-4.1190 -8.1950 -2.3748 0.9628
-1.7973 -8.9805 -2.3713 0.9629
-0.1713 -9.1538 -2.3705 0.9629
1.4457 -8.9522 -2.3479 0.9632
3.7709 -8.2587 -2.3507 0.9632
4.4961 -7.8940 -2.3522 0.9632
5.8378 -6.9796 -2.3559 0.9631
6.4438 -6.4365 -2.3582 0.9631
7.3030 -6.0944 -2.4628 0.9615
7.8268 -5.4241 -2.4656 0.9614
9.0187 -3.1679 -2.4750 0.9613
9.4647 -1.5175 -2.4819 0.9612
9.5762 -0.6674 -2.4854 0.9611
9.6114 0.1906 -2.4890 0.9611
9.5698 1.0496 -2.4927 0.9610
8.8735 2.6291 -2.3963 0.9625
8.2870 4.1769 -2.4028 0.9624
7.8911 4.9064 -2.4059 0.9623
7.4305 5.5982 -2.4088 0.9623
5.7606 6.2296 -2.1969 0.9655
6.4157 8.3198 -2.7203 0.9575
4.4313 10.8213 -3.0277 0.9528
1.4938 12.3418 -3.2188 0.9499
-0.8177 13.9947 -3.6297 0.9437
-3.7800 8.5564 -2.4220 0.9621
-5.2344 7.7370 -2.4186 0.9621
-5.8992 7.2325 -2.4165 0.9622
-8.7614 4.1198 -2.5067 0.9608
-9.0821 3.3167 -2.5034 0.9608
-9.3290 2.4890 -2.4999 0.9609
-9.6136 -0.0720 -2.4892 0.9611
-8.2216 -4.0175 -2.3693 0.9629
-7.3577 -5.4023 -2.3634 0.9630
-6.8382 -6.0308 -2.3607 0.9630
-5.0299 -7.6800 -2.3770 0.9628
-4.3208 -8.0923 -2.3752 0.9628
-3.5787 -8.4404 -2.3737 0.9628
-2.8093 -8.7218 -2.3725 0.9628
-2.0186 -8.9342 -2.3715 0.9629
-1.2124 -9.0763 -2.3709 0.9629
-0.3971 -9.1469 -2.3705 0.9629
0.4212 -9.1457 -2.3705 0.9629
1.2243 -8.9847 -2.3478 0.9632
2.0221 -8.8416 -2.3483 0.9632
2.8045 -8.6288 -2.3492 0.9632
4.9999 -7.5906 -2.3534 0.9631
5.6623 -7.1197 -2.3553 0.9631
6.2813 -6.5918 -2.3575 0.9631
7.1483 -6.2709 -2.4621 0.9615
7.6881 -5.6138 -2.4648 0.9614
8.1683 -4.9107 -2.4677 0.9614
8.5850 -4.1670 -2.4708 0.9613
8.9345 -3.3883 -2.4741 0.9613
9.2138 -2.5805 -2.4774 0.9612
9.4207 -1.7500 -2.4809 0.9612
9.5529 -0.9031 -2.4845 0.9611
9.6093 -0.0466 -2.4881 0.9611
9.5890 0.8128 -2.4917 0.9610
9.0986 1.5990 -2.3919 0.9625
8.9323 2.4084 -2.3953 0.9625
8.6937 3.2008 -2.3987 0.9624
8.0070 4.7086 -2.4050 0.9623
7.5639 5.4114 -2.4080 0.9623
8.6275 7.4217 -2.9466 0.9541
6.6708 8.2226 -2.7415 0.9572
4.6259 10.5463 -2.9818 0.9535
2.7689 11.5886 -3.0850 0.9520
1.7818 12.1910 -3.1900 0.9504
-0.4607 13.6736 -3.5423 0.9450
-1.7908 8.3001 -2.1985 0.9655
-2.6622 8.5482 -2.3181 0.9637
-3.5683 8.6485 -2.4223 0.9621
-4.3236 8.2903 -2.4209 0.9621
-5.0429 7.8655 -2.4192 0.9621
-5.7204 7.3777 -2.4171 0.9622
-6.9278 6.2304 -2.4124 0.9622
-9.4608 1.8785 -2.4974 0.9609
-8.3213 -3.8147 -2.3701 0.9629
-7.9372 -4.5366 -2.3671 0.9629
-7.4913 -5.2208 -2.3642 0.9630
-6.9871 -5.8621 -2.3614 0.9630
-6.4289 -6.4556 -2.3589 0.9631
-5.2190 -7.5552 -2.3775 0.9628
-3.7865 -8.3509 -2.3741 0.9628
-3.0241 -8.6509 -2.3728 0.9628
-1.4362 -9.0441 -2.3710 0.9629
-0.6228 -9.1346 -2.3706 0.9629
1.8031 -8.8881 -2.3482 0.9632
2.5904 -8.6944 -2.3489 0.9632
3.3578 -8.4322 -2.3500 0.9632
4.8101 -7.7101 -2.3529 0.9631
6.9893 -6.4436 -2.4614 0.9615
8.0420 -5.1091 -2.4669 0.9614
8.8449 -3.6064 -2.4731 0.9613
9.5239 -1.1382 -2.4835 0.9611
9.6014 -0.2836 -2.4871 0.9611
8.4768 3.7601 -2.4010 0.9624
7.6926 5.2213 -2.4072 0.9623
7.2042 5.8943 -2.4101 0.9623
6.9289 8.1226 -2.7643 0.9568
6.1638 8.6916 -2.7589 0.9569
5.4542 9.3636 -2.8057 0.9562
4.8198 10.2903 -2.9421 0.9541
4.0204 11.0610 -3.0472 0.9525
1.0086 12.5166 -3.2513 0.9494
-3.3542 8.7352 -2.4227 0.9621
-4.1184 8.3960 -2.4213 0.9621
-3.9644 5.3822 -1.7308 0.9728
-6.1815 6.9876 -2.4155 0.9622
-6.7739 6.4013 -2.4131 0.9622
-7.3274 5.7780 -2.4161 0.9622
-8.1232 5.3025 -2.5117 0.9607
-9.4152 2.1122 -2.4984 0.9609
-9.5526 1.2613 -2.4948 0.9610
-9.6131 0.4028 -2.4912 0.9610
-9.5039 -1.3097 -2.4840 0.9611
-9.0956 -2.0946 -2.4167 0.9622
-8.7165 -2.8475 -2.3742 0.9628
-6.5881 -6.2968 -2.3596 0.9630
-5.4052 -7.4259 -2.3781 0.9628
-2.4574 -8.8255 -2.3720 0.9629
-1.6590 -9.0066 -2.3712 0.9629
-0.8480 -9.1168 -2.3707 0.9629
-0.0306 -9.1552 -2.3705 0.9629
0.7870 -9.1217 -2.3706 0.9629
1.5831 -8.9293 -2.3480 0.9632
2.3748 -8.7548 -2.3487 0.9632
3.8977 -8.2006 -2.3509 0.9632
4.6174 -7.8249 -2.3524 0.9632
6.6683 -6.4592 -2.4037 0.9624
7.3972 -5.9826 -2.4633 0.9615
8.7500 -3.8222 -2.4722 0.9613
9.0684 -3.0297 -2.4756 0.9613
9.3156 -2.2110 -2.4790 0.9612
9.5876 -0.5203 -2.4861 0.9611
9.3005 1.1649 -2.4269 0.9620
8.8342 2.7658 -2.3968 0.9625
8.5638 3.5484 -2.4001 0.9624
8.2237 4.3047 -2.4033 0.9624
5.6042 6.2505 -2.1736 0.9659
4.1066 6.6662 -2.0272 0.9682
3.4236 6.8632 -1.9858 0.9688
1.3090 12.4105 -3.2311 0.9497
-1.0639 14.4039 -3.7396 0.9421
-4.6506 8.1081 -2.4201 0.9621
-3.7774 5.4026 -1.7068 0.9731
-6.6157 6.5684 -2.4138 0.9622
-7.1681 5.9451 -2.4112 0.9623
-7.9925 5.5032 -2.5125 0.9607
-8.8216 3.9838 -2.5062 0.9608
-9.1298 3.1760 -2.5028 0.9608
-9.3639 2.3449 -2.4993 0.9609
-9.6089 -0.2196 -2.4886 0.9611
-8.7875 -2.6325 -2.3751 0.9628
-7.7449 -4.8480 -2.3658 0.9630
-6.7435 -6.1340 -2.3603 0.9630
-6.1625 -6.7047 -2.3579 0.9631
-5.5341 -7.2214 -2.3556 0.9631
-3.4483 -8.4936 -2.3735 0.9628
-2.6748 -8.7632 -2.3723 0.9628
-1.8810 -8.9636 -2.3714 0.9629
-1.0728 -9.0935 -2.3708 0.9629
-0.2566 -9.1518 -2.3705 0.9629
1.3622 -8.9651 -2.3479 0.9632
2.1578 -8.8099 -2.3485 0.9632
7.7750 -5.4962 -2.4653 0.9614
9.2546 -2.4393 -2.4780 0.9612
9.4487 -1.6055 -2.4815 0.9612
9.6113 0.1010 -2.4887 0.9611
9.5778 0.9602 -2.4923 0.9610
9.0752 1.7390 -2.3925 0.9625
8.3244 4.0989 -2.4025 0.9624
7.9354 4.8321 -2.4056 0.9623
6.5117 8.2835 -2.7281 0.9574
5.9444 9.1367 -2.8223 0.9560
5.1334 9.6847 -2.8380 0.9557
3.5829 11.2400 -3.0545 0.9524
0.3120 7.7256 -2.0019 0.9686
-3.7004 8.5918 -2.4221 0.9621
-4.4499 8.2220 -2.4206 0.9621
-7.0213 6.1221 -2.4120 0.9622
-7.8568 5.7007 -2.5133 0.9607
-8.3244 4.9704 -2.5103 0.9607
-8.7238 4.2019 -2.5071 0.9608
-9.0520 3.4016 -2.5038 0.9608
-9.3068 2.5762 -2.5003 0.9609
-9.4862 1.7325 -2.4968 0.9609
-9.5892 0.8773 -2.4932 0.9610
-8.8532 -2.4158 -2.3760 0.9628
-8.2598 -3.9412 -2.3696 0.9629
-7.8649 -4.6570 -2.3666 0.9629
-6.8949 -5.9676 -2.3610 0.9630
-3.6574 -8.4072 -2.3739 0.9628
-2.8906 -8.6956 -2.3726 0.9628
-1.2970 -9.0647 -2.3709 0.9629
-0.4824 -9.1429 -2.3706 0.9629
0.3359 -9.1491 -2.3705 0.9629
4.2241 -8.0402 -2.3516 0.9632
5.5953 -7.1715 -2.3551 0.9631
6.2189 -6.6494 -2.3573 0.9631
7.0887 -6.3366 -2.4618 0.9615
7.6346 -5.6846 -2.4645 0.9614
9.1881 -2.6659 -2.4771 0.9612
9.4026 -1.8374 -2.4805 0.9612
9.6070 -0.1361 -2.4877 0.9611
9.5947 0.7232 -2.4913 0.9610
9.1118 1.5139 -2.3916 0.9626
8.7219 3.1192 -2.3983 0.9624
8.4199 3.8908 -2.4016 0.9624
7.6131 5.3400 -2.4077 0.9623
8.7366 7.3750 -2.9603 0.9539
6.1013 8.8898 -2.7917 0.9564
5.3012 9.4312 -2.8012 0.9563
3.8534 11.1312 -3.0499 0.9525
2.8682 11.5277 -3.0757 0.9521
-0.3303 13.5538 -3.5104 0.9455
-3.4877 8.6818 -2.4225 0.9621
-4.2465 8.3308 -2.4211 0.9621
-4.9699 7.9128 -2.4193 0.9621
-6.2870 6.8907 -2.4151 0.9622
-6.8702 6.2954 -2.4127 0.9622
-8.6205 4.4175 -2.5080 0.9608
-9.4443 1.9669 -2.4977 0.9609
-9.5685 1.1142 -2.4942 0.9610
-9.6158 0.2550 -2.4906 0.9610
-8.9135 -2.1974 -2.3770 0.9628
-7.5405 -5.1514 -2.3645 0.9630
-5.2897 -7.5069 -2.3777 0.9628
-4.5946 -7.9430 -2.3759 0.9628
-2.3214 -8.8616 -2.3719 0.9629
0.1100 -9.1546 -2.3705 0.9629
0.9181 -9.0206 -2.3477 0.9632
1.7202 -8.9043 -2.3481 0.9632
2.5091 -8.7178 -2.3488 0.9632
4.0237 -8.1406 -2.3512 0.9632
5.4153 -7.3057 -2.3546 0.9631
6.0513 -6.7991 -2.3567 0.9631
6.9282 -6.5077 -2.4611 0.9615
7.4896 -5.8694 -2.4637 0.9614
7.9930 -5.1832 -2.4666 0.9614
8.4342 -4.4543 -2.4696 0.9614
9.5115 -1.2267 -2.4831 0.9611
9.5969 -0.3730 -2.4867 0.9611
9.6058 0.4860 -2.4903 0.9610
9.0041 2.1022 -2.3940 0.9625
8.5102 3.6804 -2.4007 0.9624
8.1584 4.4315 -2.4039 0.9624
7.7400 5.1487 -2.4069 0.9623
3.3083 6.8952 -1.9802 0.9689
2.6452 7.0716 -1.9549 0.9693
2.1661 11.9627 -3.1477 0.9510
0.0042 13.2407 -3.4283 0.9468
-0.7163 8.0185 -2.0844 0.9673
-3.2494 8.7036 -2.4054 0.9623
-4.7740 8.0347 -2.4198 0.9621
-6.7147 6.4649 -2.4134 0.9622
-8.0745 5.3787 -2.5120 0.9607
-8.5119 4.6305 -2.5089 0.9608
-8.8798 3.8470 -2.5056 0.9608
-9.1753 3.0346 -2.5022 0.9609
-9.3965 2.2002 -2.4987 0.9609
-9.5418 1.3505 -2.4952 0.9610
-9.5171 -1.2212 -2.4844 0.9611
-9.2693 -2.0439 -2.4576 0.9615
-8.7439 -2.7666 -2.3746 0.9628
-8.4504 -3.5314 -2.3713 0.9629
-7.6679 -4.9654 -2.3653 0.9630
-5.4746 -7.3758 -2.3783 0.9628
-4.7903 -7.8288 -2.3764 0.9628
-4.0692 -8.2194 -2.3747 0.9628
-3.3171 -8.5448 -2.3733 0.9628
-2.5397 -8.8026 -2.3721 0.9629
-1.7429 -8.9910 -2.3713 0.9629
0.7019 -9.1286 -2.3705 0.9629
1.4998 -8.9434 -2.3480 0.9632
3.0687 -8.5399 -2.3495 0.9632
3.8209 -8.2361 -2.3508 0.9632
4.5439 -7.8671 -2.3523 0.9632
5.2321 -7.4355 -2.3540 0.9631
6.5102 -6.4247 -2.3682 0.9629
7.3403 -6.0506 -2.4630 0.9615
7.8601 -5.3771 -2.4658 0.9614
8.3189 -4.6595 -2.4688 0.9614
8.7128 -3.9030 -2.4719 0.9613
9.0385 -3.1137 -2.4752 0.9613
9.2932 -2.2973 -2.4786 0.9612
9.4746 -1.4604 -2.4821 0.9612
9.5158 1.1019 -2.4803 0.9612
8.8583 2.6830 -2.3965 0.9625
8.5953 3.4680 -2.3998 0.9624
8.2623 4.2273 -2.4030 0.9624
7.3972 5.6435 -2.4090 0.9623
6.5504 5.9947 -2.2991 0.9640
7.2901 7.9799 -2.7985 0.9563
6.3537 8.3432 -2.7153 0.9576
5.7921 9.2089 -2.8168 0.9560
3.4939 6.8437 -1.9895 0.9687
3.4133 11.3052 -3.0576 0.9524
0.3239 12.9520 -3.3546 0.9479
-4.5752 8.1517 -2.4203 0.9621
-3.7803 5.5155 -1.7313 0.9727
-7.9419 5.5782 -2.5128 0.9607
-8.3979 4.8409 -2.5098 0.9607
-8.7853 4.0664 -2.5065 0.9608
-9.3430 2.4324 -2.4997 0.9609
-9.5094 1.5862 -2.4962 0.9609
-9.4085 -1.8323 -2.4818 0.9612
-8.5382 -3.3230 -2.3722 0.9629
-7.7907 -4.7763 -2.3661 0.9629
-2.7565 -8.7383 -2.3724 0.9628
-1.9645 -8.9460 -2.3715 0.9629
-0.3418 -9.1491 -2.3705 0.9629
0.4764 -9.1430 -2.3705 0.9629
1.2785 -8.9773 -2.3478 0.9632
2.8566 -8.6119 -2.3493 0.9632
4.3476 -7.9753 -2.3518 0.9632
5.0460 -7.5607 -2.3535 0.9631
5.7056 -7.0858 -2.3555 0.9631
7.1865 -6.2281 -2.4622 0.9615
7.7225 -5.5677 -2.4650 0.9614
8.6107 -4.1154 -2.4710 0.9613
8.9556 -3.3346 -2.4743 0.9613
9.2301 -2.5251 -2.4777 0.9612
9.5591 -0.8455 -2.4847 0.9611
9.6104 0.0114 -2.4883 0.9611
9.0897 1.6541 -2.3921 0.9625
7.9790 4.7573 -2.4052 0.9623
7.5317 5.4574 -2.4082 0.9623
6.0368 9.0921 -2.8258 0.9559
5.1890 9.5729 -2.8193 0.9560
2.7041 11.6277 -3.0910 0.9519
1.7122 12.2308 -3.1977 0.9503
0.6303 12.6755 -3.2860 0.9489
-4.3734 8.2637 -2.4208 0.9621
-5.0902 7.8345 -2.4190 0.9621
-6.9648 6.1880 -2.4122 0.9622
-7.8043 5.7744 -2.5136 0.9607
-8.2788 5.0484 -2.5106 0.9607
-8.6854 4.2836 -2.5074 0.9608
-9.2837 2.6633 -2.5007 0.9609
-9.4711 1.8211 -2.4971 0.9609
-9.5821 0.9668 -2.4936 0.9610
-9.5734 -0.7507 -2.4863 0.9611
-8.8766 -2.3335 -2.3764 0.9628
-8.2974 -3.8646 -2.3699 0.9629
-7.4589 -5.2655 -2.3640 0.9630
-6.9510 -5.9037 -2.3613 0.9630
-5.7783 -7.0315 -2.3565 0.9631
-5.1730 -7.5862 -2.3774 0.9628
-2.1849 -8.8957 -2.3717 0.9629
-0.5675 -9.1381 -2.3706 0.9629
1.8568 -8.8772 -2.3482 0.9632
3.4088 -8.4120 -2.3501 0.9632
4.8568 -7.6813 -2.3530 0.9631
5.5277 -7.2227 -2.3549 0.9631
6.1561 -6.7064 -2.3570 0.9631
7.0286 -6.4016 -2.4615 0.9615
7.5804 -5.7548 -2.4642 0.9614
8.0734 -5.0608 -2.4671 0.9614
8.8673 -3.5532 -2.4734 0.9613
9.5316 -1.0807 -2.4837 0.9611
9.6039 -0.2256 -2.4873 0.9611
8.9729 2.2409 -2.3946 0.9625
8.7493 3.0374 -2.3980 0.9625
8.0912 4.5573 -2.4044 0.9624
7.0585 5.8466 -2.3731 0.9628
7.8267 7.7609 -2.8539 0.9555
5.3940 9.3904 -2.8039 0.9562
3.9548 11.0888 -3.0482 0.9525
2.9666 11.4662 -3.0666 0.9522
-0.2021 13.4349 -3.4789 0.9460
-2.4745 8.5005 -2.2923 0.9641
-5.5829 7.4844 -2.4176 0.9622
-6.8120 6.3599 -2.4129 0.9622
-8.5802 4.4982 -2.5083 0.9608
-8.9357 3.7093 -2.5050 0.9608
-9.4269 2.0551 -2.4981 0.9609
-9.5591 1.2035 -2.4946 0.9610
-9.6144 0.3446 -2.4909 0.9610
-8.6983 -2.8999 -2.3740 0.9628
-8.0225 -4.3891 -2.3677 0.9629
-7.0968 -5.7321 -2.3620 0.9630
-5.9516 -6.8886 -2.3571 0.9631
-5.3599 -7.4579 -2.3779 0.9628
-4.6688 -7.9004 -2.3760 0.9628
-3.1851 -8.5939 -2.3730 0.9628
0.8421 -9.1169 -2.3706 0.9629
1.6371 -8.9197 -2.3480 0.9632
3.1997 -8.4924 -2.3497 0.9632
3.9474 -8.1772 -2.3510 0.9632
5.3465 -7.3552 -2.3544 0.9631
5.9871 -6.8545 -2.3564 0.9631
7.4337 -5.9382 -2.4634 0.9615
7.9434 -5.2568 -2.4663 0.9614
8.3912 -4.5321 -2.4693 0.9614
8.7737 -3.7696 -2.4725 0.9613
9.5915 -0.4624 -2.4863 0.9611
8.8182 2.8194 -2.3971 0.9625
8.1983 4.3546 -2.4035 0.9624
7.7866 5.0757 -2.4066 0.9623
7.3110 5.7576 -2.4095 0.9623
8.0995 7.6443 -2.8836 0.9550
5.5683 6.2864 -2.1744 0.9659
6.2369 8.4562 -2.7206 0.9575
5.6396 9.2797 -2.8116 0.9561
4.9421 10.0590 -2.9018 0.9547
-1.1916 14.9060 -3.8717 0.9401
-3.9618 8.4724 -2.4216 0.9621
-4.6993 8.0795 -2.4200 0.9621
-3.8001 5.3659 -1.7024 0.9732
-7.2034 5.9013 -2.4110 0.9623
-8.0250 5.4544 -2.5123 0.9607
-8.4695 4.7103 -2.5092 0.9607
-9.3770 2.2880 -2.4991 0.9609
-9.5303 1.4396 -2.4955 0.9610
-9.6065 -0.2776 -2.4883 0.9611
-9.5296 -1.1327 -2.4847 0.9611
-8.4842 -3.4530 -2.3717 0.9629
-7.7148 -4.8944 -2.3656 0.9630
-6.7058 -6.1742 -2.3601 0.9630
-6.1215 -6.7414 -2.3577 0.9631
-5.4900 -7.2543 -2.3555 0.9631
-4.8634 -7.7844 -2.3765 0.9628
-4.1459 -8.1816 -2.3748 0.9628
-3.3968 -8.5140 -2.3734 0.9628
-2.6217 -8.7789 -2.3722 0.9629
-1.0178 -9.0997 -2.3708 0.9629
2.2110 -8.7969 -2.3485 0.9632
2.9888 -8.5677 -2.3494 0.9632
3.7438 -8.2708 -2.3506 0.9632
4.4701 -7.9085 -2.3521 0.9632
5.1622 -7.4833 -2.3538 0.9631
7.2827 -6.1180 -2.4627 0.9615
7.8087 -5.4495 -2.4655 0.9614
8.6748 -3.9836 -2.4716 0.9613
9.0079 -3.1973 -2.4749 0.9613
9.2701 -2.3835 -2.4783 0.9612
9.4592 -1.5485 -2.4818 0.9612
9.5734 -0.6987 -2.4853 0.9611
9.6114 0.1591 -2.4889 0.9611
9.5727 1.0181 -2.4925 0.9610
9.0654 1.7940 -2.3927 0.9625
8.8816 2.5999 -2.3961 0.9625
8.6260 3.3872 -2.3995 0.9624
8.3002 4.1495 -2.4027 0.9624
7.9068 4.8803 -2.4058 0.9623
7.4485 5.5736 -2.4087 0.9623
8.3800 7.5268 -2.9164 0.9545
5.8846 9.1652 -2.8201 0.9560
4.4410 10.7442 -3.0101 0.9531
3.5163 11.2659 -3.0557 0.9524
2.5379 11.7268 -3.1066 0.9516
1.5330 12.3269 -3.2162 0.9500
0.2656 7.7384 -2.0048 0.9685
-5.8757 7.2521 -2.4166 0.9622
-6.4935 6.6921 -2.4143 0.9622
-7.8905 5.6526 -2.5131 0.9607
-8.7482 4.1487 -2.5069 0.9608
-9.0716 3.3466 -2.5035 0.9608
-9.3213 2.5197 -2.5001 0.9609
-9.6143 -0.0405 -2.4893 0.9611
-8.8376 -2.4690 -2.3758 0.9628
-8.2352 -3.9907 -2.3694 0.9629
-7.3757 -5.3784 -2.3635 0.9630
-6.2877 -6.5901 -2.3583 0.9631
-2.8379 -8.7126 -2.3725 0.9628
-1.2422 -9.0723 -2.3709 0.9629
-0.4271 -9.1456 -2.3705 0.9629
0.3912 -9.1470 -2.3705 0.9629
1.1948 -8.9886 -2.3478 0.9632
1.9930 -8.8480 -2.3483 0.9632
4.2728 -8.0149 -2.3517 0.9632
5.6388 -7.1380 -2.3553 0.9631
6.2594 -6.6121 -2.3574 0.9631
7.6694 -5.6387 -2.4647 0.9614
8.9229 -3.4174 -2.4739 0.9613
9.4144 -1.7807 -2.4808 0.9612
9.5911 0.7812 -2.4915 0.9610
9.1033 1.5690 -2.3918 0.9626
8.9396 2.3790 -2.3952 0.9625
8.7037 3.1721 -2.3985 0.9624
8.0220 4.6821 -2.4049 0.9623
8.6657 7.4054 -2.9514 0.9540
6.0762 8.9688 -2.8049 0.9562
5.2435 9.4618 -2.8009 0.9563
3.7874 11.1583 -3.0510 0.9525
2.8039 11.5672 -3.0817 0.9520
0.4540 7.6863 -1.9936 0.9687
-0.4147 13.6314 -3.5311 0.9452
-1.7606 8.2918 -2.1948 0.9656
-2.6286 8.5389 -2.3133 0.9638
-3.5400 8.6603 -2.4224 0.9621
-5.0173 7.8822 -2.4192 0.9621
-6.3281 6.8521 -2.4150 0.9622
-6.9076 6.2533 -2.4125 0.9622
-7.7512 5.8475 -2.5139 0.9607
8.7868 0.3914 -2.4899 0.9641
8.2435 1.8722 -2.3931 0.9655
8.0538 2.6042 -2.3962 0.9654
7.7989 3.3170 -2.3992 0.9654
7.4806 4.0050 -2.4021 0.9653
6.6640 5.2835 -2.4075 0.9653
3.8640 10.1426 -3.0726 0.9559
1.0973 11.4226 -3.2485 0.9534
-1.0716 12.8741 -3.6572 0.9477
-2.2136 8.2591 -2.4206 0.9651
-2.9411 8.0254 -2.4197 0.9651
-3.6441 7.7269 -2.4185 0.9651
-4.3168 7.3662 -2.4170 0.9651
-3.7492 5.2573 -1.8280 0.9735
-6.8848 5.6027 -2.5129 0.9638
-7.3498 4.9604 -2.5102 0.9638
-7.7546 4.2795 -2.5074 0.9638
-8.0961 3.5657 -2.5044 0.9639
-8.3718 2.8251 -2.5013 0.9639
-8.5796 2.0637 -2.4981 0.9640
-8.7182 1.2877 -2.4948 0.9640
-8.7850 -0.2827 -2.4883 0.9641
-8.7131 -1.0646 -2.4850 0.9642
-8.5721 -1.8359 -2.4817 0.9642
-8.0162 -2.4832 -2.3757 0.9657
-7.7528 -3.1850 -2.3727 0.9658
-7.4285 -3.8598 -2.3699 0.9658
-6.6087 -5.1081 -2.3646 0.9659
-6.1200 -5.6720 -2.3622 0.9659
-5.5839 -6.1900 -2.3600 0.9659
-4.3868 -7.0731 -2.3562 0.9660
-3.7353 -7.4317 -2.3546 0.9660
-1.6301 -8.1450 -2.3515 0.9661
-0.8961 -8.2562 -2.3510 0.9661
-0.1553 -8.3024 -2.3508 0.9661
0.5866 -8.2832 -2.3508 0.9661
1.3240 -8.1988 -2.3511 0.9661
3.4532 -7.5629 -2.3536 0.9660
4.7493 -6.8367 -2.3566 0.9660
6.1546 -6.1477 -2.4626 0.9645
6.6853 -5.5789 -2.4650 0.9644
7.1642 -4.9649 -2.4676 0.9644
7.9510 -3.6197 -2.4732 0.9643
8.2525 -2.8988 -2.4762 0.9643
8.7905 0.1743 -2.4890 0.9641
8.7515 0.9598 -2.4923 0.9641
8.2842 1.6676 -2.3922 0.9655
7.8757 3.1225 -2.3984 0.9654
7.2120 4.4842 -2.4042 0.9653
6.7904 5.1160 -2.4068 0.9653
6.3130 5.7078 -2.4094 0.9652
4.7211 9.1111 -2.9050 0.9582
4.1032 10.0199 -3.0652 0.9560
3.2180 10.4301 -3.0900 0.9556
0.3653 11.7647 -3.3321 0.9522
-2.0093 8.3120 -2.4208 0.9651
-2.7424 8.0965 -2.4200 0.9651
-3.4528 7.8156 -2.4188 0.9651
-4.1344 7.4718 -2.4174 0.9651
-3.6921 5.4573 -1.8653 0.9730
-5.9527 6.0946 -2.4118 0.9652
-6.4783 5.5432 -2.4137 0.9652
-7.2273 5.1418 -2.5109 0.9638
-7.6490 4.4709 -2.5082 0.9638
-8.5291 2.2756 -2.4990 0.9640
-8.6870 1.5030 -2.4958 0.9640
-8.7399 -0.8495 -2.4859 0.9642
-8.6179 -1.6244 -2.4826 0.9642
-8.2371 -2.3304 -2.4234 0.9650
-7.8317 -2.9937 -2.3736 0.9657
-7.5240 -3.6765 -2.3707 0.9658
-6.7347 -4.9449 -2.3653 0.9659
-5.7364 -6.0518 -2.3606 0.9659
-1.0996 -8.2320 -2.3511 0.9661
-0.3602 -8.2962 -2.3508 0.9661
0.3820 -8.2950 -2.3507 0.9661
1.8519 -8.0973 -2.3515 0.9661
2.5683 -7.9022 -2.3523 0.9660
3.2651 -7.6447 -2.3533 0.9660
3.9368 -7.3267 -2.3546 0.9660
5.9696 -6.2647 -2.4497 0.9647
7.4762 -4.4946 -2.4695 0.9644
7.8567 -3.8135 -2.4723 0.9643
8.6185 -1.6010 -2.4816 0.9642
8.7889 -0.0426 -2.4881 0.9641
8.3198 1.4621 -2.3914 0.9655
8.1667 2.2020 -2.3945 0.9654
7.6640 3.6286 -2.4005 0.9654
7.3182 4.3035 -2.4034 0.9653
6.4502 5.5487 -2.4087 0.9652
6.5180 8.0344 -2.9288 0.9579
5.7972 8.6178 -2.9403 0.9577
4.9550 9.0109 -2.9112 0.9582
4.2932 9.7879 -3.0257 0.9565
3.4673 10.3262 -3.0837 0.9557
2.5506 10.6747 -3.1070 0.9554
0.6482 11.6204 -3.2948 0.9528
-1.0006 8.0877 -2.3070 0.9667
-1.7906 8.2993 -2.4035 0.9653
-2.5421 8.1626 -2.4202 0.9651
-3.9494 7.5729 -2.4179 0.9651
-4.6068 7.1853 -2.4163 0.9651
-5.2260 6.7401 -2.4144 0.9652
-6.3301 5.6929 -2.4101 0.9652
-7.5387 4.6598 -2.5089 0.9638
-7.9155 3.9635 -2.5060 0.9639
-8.2278 3.2370 -2.5030 0.9639
-8.4733 2.4863 -2.4999 0.9640
-8.6504 1.7176 -2.4967 0.9640
-8.7947 0.1512 -2.4901 0.9641
-8.6584 -1.4117 -2.4835 0.9642
-8.4868 -2.1763 -2.4803 0.9642
-7.9059 -2.8005 -2.3744 0.9657
-7.2642 -4.1520 -2.3687 0.9658
-6.8568 -4.7786 -2.3660 0.9659
-5.8855 -5.9099 -2.3612 0.9659
-5.3295 -6.4061 -2.3591 0.9660
-4.7324 -6.8508 -2.3571 0.9660
-3.4339 -7.5733 -2.3540 0.9660
-2.0303 -8.0560 -2.3519 0.9661
-0.5648 -8.2850 -2.3509 0.9661
0.1771 -8.3019 -2.3507 0.9661
0.9178 -8.2534 -2.3509 0.9661
1.6513 -8.1400 -2.3513 0.9661
2.3722 -7.9624 -2.3520 0.9661
3.7541 -7.4204 -2.3542 0.9660
4.4044 -7.0600 -2.3557 0.9660
5.0209 -6.6433 -2.3574 0.9660
6.3985 -5.8989 -2.4637 0.9645
6.9065 -5.3093 -2.4661 0.9644
7.3608 -4.6764 -2.4688 0.9644
7.7577 -4.0050 -2.4715 0.9644
8.0939 -3.3002 -2.4745 0.9643
8.3666 -2.5675 -2.4775 0.9643
8.7123 -1.0412 -2.4839 0.9642
8.7820 -0.2594 -2.4872 0.9641
8.7817 0.5264 -2.4905 0.9641
8.7112 1.3102 -2.4938 0.9640
8.2156 1.9991 -2.3936 0.9655
7.0303 4.7718 -2.4054 0.9653
6.7690 7.9351 -2.9527 0.9576
3.9174 6.7254 -2.2034 0.9682
4.4561 9.5138 -2.9741 0.9573
-0.1093 12.1431 -3.4378 0.9508
-3.7620 7.6693 -2.4182 0.9651
-4.4289 7.2981 -2.4167 0.9651
-6.1894 5.8490 -2.4108 0.9652
-6.9689 5.4953 -2.5124 0.9638
-7.4237 4.8459 -2.5097 0.9638
-8.6084 1.9312 -2.4975 0.9640
-8.7915 0.3684 -2.4910 0.9641
-8.7776 -0.4175 -2.4877 0.9641
-8.5410 -1.9669 -2.4812 0.9642
-8.0019 -2.6140 -2.3831 0.9656
-7.7013 -3.3030 -2.3722 0.9658
-7.3668 -3.9727 -2.3694 0.9658
-6.9747 -4.6094 -2.3667 0.9658
-6.5283 -5.2081 -2.3642 0.9659
-6.0312 -5.7644 -2.3618 0.9659
-5.4873 -6.2741 -2.3596 0.9659
-4.9011 -6.7334 -2.3577 0.9660
-4.2771 -7.1388 -2.3559 0.9660
-3.6203 -7.4874 -2.3544 0.9660
-2.9358 -7.7766 -2.3531 0.9660
-2.2287 -8.0042 -2.3521 0.9660
-0.7691 -8.2688 -2.3509 0.9661
-0.0278 -8.3037 -2.3507 0.9661
0.7138 -8.2733 -2.3508 0.9661
1.4499 -8.1778 -2.3512 0.9661
2.8831 -7.7945 -2.3527 0.9660
3.5693 -7.5096 -2.3538 0.9660
4.8544 -6.7638 -2.3569 0.9660
6.2493 -6.0534 -2.4630 0.9645
7.2409 -4.8551 -2.4680 0.9644
8.2978 -2.7723 -2.4767 0.9643
8.6808 -1.2554 -2.4830 0.9642
7.5167 3.9346 -2.4018 0.9653
7.1437 4.5954 -2.4046 0.9653
6.2257 5.8051 -2.4098 0.9652
5.6036 6.2498 -2.3763 0.9657
4.1062 6.6656 -2.2163 0.9680
4.6112 9.2438 -2.9244 0.9580
3.9547 10.0970 -3.0698 0.9559
3.0613 10.4919 -3.0940 0.9556
1.4594 7.4090 -2.1377 0.9691
-0.9435 12.7746 -3.6262 0.9481
-2.1366 8.2797 -2.4207 0.9651
-2.8663 8.0529 -2.4198 0.9651
-3.5721 7.7610 -2.4186 0.9651
-5.4896 6.5231 -2.4135 0.9652
-6.7659 5.6115 -2.4884 0.9641
-7.7153 4.3521 -2.5077 0.9638
-8.5612 2.1439 -2.4984 0.9640
-8.7239 -0.9834 -2.4853 0.9642
-8.5900 -1.7562 -2.4821 0.9642
-8.0401 -2.4087 -2.3760 0.9657
-7.7831 -3.1130 -2.3730 0.9658
-7.4651 -3.7909 -2.3702 0.9658
-6.1732 -5.6153 -2.3624 0.9659
-5.0669 -6.6118 -2.3582 0.9660
-4.4529 -7.0324 -2.3564 0.9660
-3.1272 -7.7028 -2.3535 0.9660
-0.9730 -8.2476 -2.3510 0.9661
-0.2327 -8.3006 -2.3508 0.9661
0.5094 -8.2882 -2.3508 0.9661
1.9761 -8.0683 -2.3516 0.9661
2.6896 -7.8624 -2.3524 0.9660
3.3824 -7.5943 -2.3535 0.9660
4.6850 -6.8802 -2.3564 0.9660
5.2847 -6.4393 -2.3582 0.9660
6.6324 -5.6404 -2.4647 0.9645
7.1168 -5.0309 -2.4673 0.9644
7.9159 -3.6931 -2.4728 0.9643
8.4675 -2.2318 -2.4789 0.9643
8.6440 -1.4687 -2.4821 0.9642
8.2982 1.5901 -2.3919 0.9655
8.1337 2.3277 -2.3950 0.9654
7.9034 3.0486 -2.3981 0.9654
7.6090 3.7467 -2.4010 0.9654
6.8370 5.0519 -2.4066 0.9653
5.8413 6.1999 -2.4114 0.9652
5.0413 6.4130 -2.3093 0.9667
4.8095 9.0736 -2.9072 0.9582
2.3894 10.7267 -3.1111 0.9553
1.4676 11.2461 -3.2107 0.9539
0.4723 11.6957 -3.3137 0.9525
-0.3887 7.9188 -2.2445 0.9676
-1.9317 8.3306 -2.4209 0.9651
-2.6670 8.1221 -2.4201 0.9651
-3.3799 7.8479 -2.4190 0.9651
-4.0649 7.5105 -2.4176 0.9651
-4.7161 7.1128 -2.4160 0.9651
-5.8963 6.1505 -2.4120 0.9652
-7.6079 4.5426 -2.5085 0.9638
-8.2748 3.1096 -2.5025 0.9639
-8.5087 2.3553 -2.4993 0.9640
-8.6738 1.5842 -2.4961 0.9640
-8.7940 0.0161 -2.4895 0.9641
-8.6338 -1.5442 -2.4829 0.9642
-7.8603 -2.9210 -2.3739 0.9657
-7.5588 -3.6067 -2.3710 0.9658
-6.7813 -4.8825 -2.3656 0.9659
-6.3117 -5.4628 -2.3631 0.9659
-5.2297 -6.4862 -2.3587 0.9660
-4.6261 -6.9218 -2.3568 0.9660
-3.3169 -7.6244 -2.3538 0.9660
