ply
format ascii 1.0
element vertex 1549
property float32 x
property float32 y
property float32 z
property float32 I
end_header
-2.5054 -18.9628 -0.5386 0.9263
-0.6378 -15.1601 -0.4273 0.9411
0.5725 -12.1054 -0.3412 0.9527
2.8891 -12.5712 -0.3632 0.9497
6.0950 -14.2364 -0.4361 0.9399
9.8809 -14.9786 -0.5053 0.9307
5.3530 18.8601 -0.9943 0.9245
1.8887 -12.1362 -0.6229 0.9520
4.6788 -13.5268 -0.7259 0.9443
6.4855 -14.4326 -0.8024 0.9386
8.5116 -15.1584 -0.8816 0.9327
5.9651 18.7635 -0.9985 0.9242
-4.7537 5.9433 -0.3860 0.9700
-17.1554 -10.1175 -1.0101 0.9233
-2.6065 -17.8727 -0.9161 0.9302
1.4797 -11.9569 -0.6110 0.9529
2.7042 -12.5369 -0.6504 0.9499
9.5950 -14.9796 -0.9022 0.9312
14.3034 -2.8590 -0.7397 0.9433
6.4224 18.2101 -0.9793 0.9256
-16.1391 -10.8273 -0.9856 0.9251
-1.4161 -16.2822 -0.8289 0.9366
0.0328 -12.8413 -0.6512 0.9499
3.6011 -12.9866 -0.6835 0.9475
5.1839 -13.7801 -0.7467 0.9427
7.1062 -14.7438 -0.8300 0.9366
9.0071 -15.0795 -0.8908 0.9321
11.3681 -15.6655 -0.9816 0.9254
5.4506 18.8835 -0.9968 0.9243
-1.9392 -16.3567 -0.8353 0.9362
0.7315 -12.0529 -0.6124 0.9528
1.8306 -12.1177 -0.6215 0.9521
3.1073 -12.7390 -0.6650 0.9488
6.0699 18.8026 -1.0020 0.9239
-17.2354 -10.0616 -1.0121 0.9232
-2.6601 -17.6894 -0.9072 0.9309
-0.8915 -14.8521 -0.7546 0.9421
0.3618 -12.3172 -0.6249 0.9518
4.0474 -13.2103 -0.7007 0.9462
5.7192 -14.0485 -0.7692 0.9411
7.7717 -15.0775 -0.8602 0.9343
6.5113 18.2033 -0.9805 0.9255
4.8908 18.8236 -0.9863 0.9251
-0.0246 -13.0097 -0.6598 0.9492
1.0482 -11.9597 -0.6088 0.9531
3.5291 -12.9505 -0.6807 0.9477
8.9069 -15.0635 -0.8875 0.9323
11.2363 -15.6298 -0.9762 0.9258
5.5376 18.8694 -0.9973 0.9243
3.0391 -12.7048 -0.6625 0.9490
4.5172 -13.4458 -0.7193 0.9448
10.1815 -15.1392 -0.9252 0.9295
6.1938 18.8984 -1.0086 0.9234
-2.9732 -19.1895 -0.9848 0.9252
-0.9664 -14.9852 -0.7615 0.9416
0.3079 -12.3569 -0.6269 0.9517
1.3718 -11.9576 -0.6104 0.9529
2.5742 -12.4717 -0.6458 0.9503
7.6579 -15.0204 -0.8550 0.9347
4.9800 18.8224 -0.9874 0.9250
-16.2918 -10.7207 -0.9891 0.9249
-1.5515 -16.1710 -0.8239 0.9370
0.9951 -11.9654 -0.6089 0.9530
2.1316 -12.2498 -0.6306 0.9514
3.4577 -12.9146 -0.6780 0.9479
5.0130 -13.6944 -0.7396 0.9433
8.8252 -15.0782 -0.8860 0.9324
5.6248 18.8553 -0.9979 0.9242
-16.8367 -10.3401 -1.0020 0.9239
-2.2692 -17.7846 -0.9092 0.9307
-0.5630 -14.9688 -0.7597 0.9418
0.6257 -12.0881 -0.6139 0.9527
2.9714 -12.6709 -0.6600 0.9492
6.1913 -14.2851 -0.7896 0.9395
10.0553 -15.0962 -0.9199 0.9299
0.2537 -12.3968 -0.6288 0.9516
2.5098 -12.4394 -0.6436 0.9504
3.8967 -13.1347 -0.6948 0.9466
7.5454 -14.9640 -0.8499 0.9351
5.0694 18.8212 -0.9885 0.9249
-0.1421 -13.1653 -0.6677 0.9486
0.9428 -11.9827 -0.6096 0.9530
3.3868 -12.8791 -0.6754 0.9481
6.7918 -14.5862 -0.8160 0.9376
8.7438 -15.0927 -0.8846 0.9325
10.9242 -15.4846 -0.9610 0.9269
5.7090 18.8311 -0.9979 0.9242
-16.9154 -10.2850 -1.0040 0.9238
0.5726 -12.1057 -0.6146 0.9526
1.6579 -12.0628 -0.6175 0.9524
6.0953 -14.2370 -0.7854 0.9399
8.2008 -15.2341 -0.8774 0.9331
9.9314 -15.0552 -0.9147 0.9303
4.5335 18.8266 -0.9821 0.9254
14.4767 7.7296 -1.2033 0.9363
6.8262 17.8176 -1.3990 0.9263
5.3079 18.7012 -1.4254 0.9250
-16.6026 -10.5042 -1.4405 0.9242
-1.8330 -16.0729 -1.1861 0.9372
0.7843 -12.0358 -0.8844 0.9528
1.8887 -12.1365 -0.9006 0.9519
3.1761 -12.7739 -0.9651 0.9486
6.4857 -14.4332 -1.1602 0.9385
8.5119 -15.1589 -1.2747 0.9326
17.5041 3.3887 -1.3073 0.9310
12.4691 11.0940 -1.2238 0.9353
11.4828 12.2183 -1.2294 0.9350
8.0541 15.2304 -1.2633 0.9332
4.2750 19.2534 -1.4461 0.9239
-4.7531 5.9426 -0.5580 0.9699
-17.1558 -10.1177 -1.4604 0.9232
-2.5714 -17.6332 -1.3066 0.9310
0.4153 -12.2780 -0.9008 0.9519
5.8115 -14.0952 -1.1179 0.9407
9.5954 -14.9802 -1.3044 0.9311
18.2659 2.9472 -1.3566 0.9285
16.3508 4.1626 -1.2371 0.9346
15.7052 5.5307 -1.2209 0.9354
14.9250 6.8072 -1.2028 0.9363
13.5552 9.4043 -1.2097 0.9360
12.7603 10.6576 -1.2190 0.9355
11.8321 11.8266 -1.2266 0.9351
10.7584 12.8687 -1.2299 0.9349
9.5715 13.7824 -1.2304 0.9349
8.3529 14.6670 -1.2376 0.9345
7.3271 16.0451 -1.2933 0.9317
4.7469 18.6097 -1.4082 0.9259
-11.7114 13.0158 -1.2838 0.9322
-16.1396 -10.8276 -1.4250 0.9250
-1.2900 -14.8324 -1.0917 0.9420
0.0322 -12.5820 -0.9225 0.9508
1.1019 -11.9597 -0.8806 0.9530
7.1065 -14.7445 -1.2001 0.9365
19.0822 2.4699 -1.4108 0.9257
15.1935 6.3639 -1.2078 0.9361
14.5079 7.6634 -1.2030 0.9363
12.1871 11.4427 -1.2257 0.9352
10.0173 13.5033 -1.2328 0.9348
6.9254 17.8386 -1.4031 0.9261
5.4077 18.7349 -1.4298 0.9248
6.3866 -14.3836 -1.1539 0.9388
8.4277 -15.1666 -1.2722 0.9328
11.5334 12.1632 -1.2290 0.9350
4.3220 19.0635 -1.4333 0.9246
-15.6933 -11.1496 -1.4115 0.9257
-2.6460 -17.5956 -1.3047 0.9311
-0.8912 -14.8480 -1.0906 0.9421
0.3618 -12.3175 -0.9035 0.9518
2.6390 -12.5046 -0.9371 0.9500
4.0476 -13.2108 -1.0131 0.9461
5.7195 -14.0491 -1.1122 0.9410
7.7318 -15.0000 -1.2373 0.9346
9.5218 -15.0120 -1.3034 0.9312
14.3157 8.0599 -1.2046 0.9362
13.5944 9.3421 -1.2095 0.9360
12.8003 10.5947 -1.2183 0.9355
11.8835 11.7727 -1.2265 0.9351
10.8163 12.8215 -1.2300 0.9349
9.6354 13.7435 -1.2307 0.9349
8.3935 14.5871 -1.2340 0.9347
6.3209 17.6710 -1.3761 0.9275
4.8387 18.6230 -1.4108 0.9257
-11.5324 12.9322 -1.2705 0.9329
-19.9180 -1.0083 -1.4623 0.9231
-16.2158 -10.7744 -1.4275 0.9249
-1.4860 -16.2476 -1.1963 0.9367
-0.0239 -12.6604 -0.9283 0.9505
1.0483 -11.9600 -0.8803 0.9530
7.0005 -14.6913 -1.1932 0.9368
8.9071 -15.0639 -1.2832 0.9322
15.2309 6.3000 -1.2085 0.9360
14.5386 7.5971 -1.2028 0.9363
10.0803 13.4625 -1.2332 0.9348
7.8263 15.6354 -1.2820 0.9323
5.5081 18.7688 -1.4342 0.9245
-16.7586 -10.3952 -1.4460 0.9240
-0.4988 -15.0441 -1.1037 0.9414
3.0392 -12.7052 -0.9579 0.9490
4.5173 -13.4463 -1.0401 0.9447
8.3488 -15.1834 -1.2705 0.9329
17.7156 3.2663 -1.3209 0.9303
15.5095 5.8546 -1.2155 0.9357
14.1123 8.4512 -1.2061 0.9362
11.5836 12.1077 -1.2286 0.9350
5.8948 17.9859 -1.3878 0.9269
4.3345 18.7316 -1.4097 0.9258
-15.7607 -11.0922 -1.4131 0.9256
-0.9555 -14.8159 -1.0886 0.9422
1.3719 -11.9579 -0.8825 0.9529
3.9719 -13.1729 -1.0088 0.9463
5.6283 -14.0033 -1.1066 0.9413
7.6185 -14.9432 -1.2298 0.9349
16.4108 4.0227 -1.2389 0.9345
15.7782 5.3991 -1.2228 0.9353
15.0025 6.6819 -1.2042 0.9363
13.6332 9.2798 -1.2092 0.9360
11.9346 11.7186 -1.2264 0.9351
7.4551 15.9480 -1.2908 0.9318
6.4237 17.7094 -1.3813 0.9272
4.9308 18.6363 -1.4135 0.9256
-11.4570 12.9634 -1.2685 0.9330
-16.2922 -10.7210 -1.4300 0.9248
-1.4108 -14.7039 -1.0831 0.9425
-0.0808 -12.7397 -0.9341 0.9502
0.9951 -11.9657 -0.8804 0.9530
2.1317 -12.2502 -0.9117 0.9514
16.0278 4.9307 -1.2296 0.9350
15.2681 6.2360 -1.2093 0.9360
12.2854 11.3310 -1.2254 0.9352
11.2719 12.4325 -1.2305 0.9349
10.1322 13.4071 -1.2322 0.9348
7.8726 15.5547 -1.2783 0.9325
-16.8371 -10.3404 -1.4488 0.9238
-2.0562 -16.1151 -1.1912 0.9369
2.9715 -12.6712 -0.9543 0.9491
4.4376 -13.4064 -1.0354 0.9449
6.1916 -14.2857 -1.1416 0.9395
8.2748 -15.2090 -1.2695 0.9329
10.0557 -15.0968 -1.3300 0.9298
15.5495 5.7908 -1.2166 0.9356
10.5231 13.0553 -1.2295 0.9350
4.4010 18.6412 -1.4044 0.9261
-15.8357 -11.0399 -1.4154 0.9255
-1.0195 -14.7839 -1.0866 0.9423
2.5099 -12.4398 -0.9305 0.9504
7.5065 -14.8871 -1.2225 0.9353
9.3457 -15.0285 -1.2976 0.9315
18.6079 2.7479 -1.3792 0.9273
16.5076 3.9686 -1.2449 0.9342
15.8144 5.3329 -1.2237 0.9353
12.8792 10.4682 -1.2169 0.9356
10.9314 12.7263 -1.2301 0.9349
9.7628 13.6647 -1.2314 0.9349
-11.3998 13.0149 -1.2686 0.9330
-16.3689 -10.6674 -1.4326 0.9246
-0.1387 -12.8550 -0.9426 0.9497
0.9429 -11.9830 -0.8813 0.9529
2.0703 -12.2195 -0.9087 0.9515
6.7921 -14.5868 -1.1798 0.9375
8.7440 -15.0932 -1.2790 0.9324
10.9248 -15.4854 -1.3895 0.9268
17.1922 3.5688 -1.2874 0.9320
16.0593 4.8621 -1.2303 0.9349
15.3052 6.1719 -1.2100 0.9360
14.5993 7.4641 -1.2023 0.9364
13.1457 10.0192 -1.2119 0.9359
12.3342 11.2747 -1.2253 0.9352
11.3276 12.3828 -1.2305 0.9349
8.9225 14.1592 -1.2271 0.9351
5.6894 18.7664 -1.4378 0.9244
-16.9159 -10.2853 -1.4516 0.9237
-2.1499 -16.2719 -1.2035 0.9363
-0.6302 -14.9784 -1.0992 0.9416
1.6580 -12.0632 -0.8928 0.9523
2.9043 -12.6376 -0.9508 0.9493
6.0955 -14.2376 -1.1356 0.9398
8.2010 -15.2345 -1.2686 0.9330
9.9319 -15.0559 -1.3225 0.9302
17.9314 3.1413 -1.3348 0.9296
15.5895 5.7268 -1.2177 0.9356
14.8063 6.9952 -1.2007 0.9364
14.1811 8.3219 -1.2056 0.9362
12.6371 10.8467 -1.2211 0.9354
9.3777 13.8985 -1.2294 0.9350
11.6396 6.2147 -1.2668 0.9484
10.8159 7.0821 -1.2412 0.9494
10.0875 7.9762 -1.2346 0.9496
8.5553 9.6932 -1.2412 0.9494
7.3300 12.1045 -1.3586 0.9447
5.2326 18.4359 -1.8399 0.9259
-10.6748 12.5230 -1.5798 0.9360
-17.5340 -2.0705 -1.6950 0.9315
-15.3314 -3.2174 -1.5040 0.9390
-15.4921 -4.7273 -1.5550 0.9370
-16.6030 -10.5045 -1.8862 0.9241
-0.3664 -15.1106 -1.4511 0.9411
0.7878 -12.0895 -1.1631 0.9525
1.8888 -12.1369 -1.1792 0.9518
6.5542 -14.5857 -1.5352 0.9378
8.5121 -15.1593 -1.6691 0.9325
18.7547 1.9180 -1.8099 0.9270
16.6815 3.2294 -1.6313 0.9340
14.9929 4.3200 -1.4980 0.9392
12.0805 5.9727 -1.2938 0.9473
11.0562 6.7555 -1.2439 0.9493
10.3492 7.6700 -1.2367 0.9496
8.8026 9.3664 -1.2340 0.9497
8.0819 10.3052 -1.2573 0.9487
7.3435 11.3132 -1.2949 0.9472
7.4884 14.1605 -1.5379 0.9377
4.1977 18.9052 -1.8592 0.9251
-12.9916 13.5611 -1.8030 0.9273
-15.7586 -11.3018 -1.8618 0.9250
-2.3032 -15.7936 -1.5323 0.9379
-0.8267 -14.8807 -1.4308 0.9419
2.7044 -12.5377 -1.2314 0.9498
7.8876 -15.1366 -1.6387 0.9337
19.6028 1.3874 -1.8867 0.9241
17.3430 2.7983 -1.6866 0.9318
15.6052 3.9728 -1.5460 0.9373
13.9069 4.8975 -1.4155 0.9425
11.2887 6.4220 -1.2469 0.9491
9.8875 8.2582 -1.2368 0.9495
6.6731 14.6127 -1.5423 0.9375
4.6915 18.3925 -1.8223 0.9266
-11.6294 12.9246 -1.6692 0.9325
-3.0907 -17.3723 -1.6940 0.9316
-1.2747 -14.6568 -1.4124 0.9426
1.1067 -12.0118 -1.1581 0.9527
3.5827 -12.9202 -1.2872 0.9475
5.1844 -13.7812 -1.4136 0.9425
7.1816 -14.9003 -1.5880 0.9357
16.2450 3.5991 -1.5974 0.9353
11.7013 6.1809 -1.2705 0.9482
10.8505 7.0361 -1.2416 0.9494
10.1252 7.9330 -1.2349 0.9496
9.4139 8.8390 -1.2397 0.9494
8.5346 9.5834 -1.2320 0.9497
7.9029 10.6530 -1.2735 0.9481
7.2730 11.8906 -1.3382 0.9455
7.1131 14.3701 -1.5394 0.9376
6.8712 17.6990 -1.8228 0.9265
5.3333 18.4771 -1.8463 0.9256
-10.6196 12.5712 -1.5799 0.9360
-17.6701 -2.0069 -1.7073 0.9310
-15.4514 -4.6398 -1.5488 0.9372
-1.7249 -14.5490 -1.4066 0.9428
-0.4328 -15.0775 -1.4481 0.9412
0.7348 -12.1071 -1.1645 0.9524
1.8307 -12.1184 -1.1766 0.9519
3.0913 -12.6738 -1.2524 0.9489
4.5980 -13.4872 -1.3680 0.9443
10.3260 -15.2075 -1.7647 0.9288
18.8715 1.8451 -1.8204 0.9266
16.7472 3.1648 -1.6363 0.9338
12.1447 5.9374 -1.2978 0.9471
9.6881 8.5427 -1.2401 0.9494
8.8468 9.3299 -1.2344 0.9496
7.3915 11.2769 -1.2945 0.9473
5.9585 18.4575 -1.8621 0.9250
4.2370 18.6884 -1.8397 0.9259
-12.7844 13.4643 -1.7825 0.9281
-16.0953 -2.7819 -1.5681 0.9365
-15.6935 -11.1496 -1.8482 0.9256
-0.8912 -14.8485 -1.4281 0.9420
0.3618 -12.3178 -1.1831 0.9517
1.4321 -12.0097 -1.1612 0.9526
5.7197 -14.0496 -1.4563 0.9409
9.5221 -15.0125 -1.7068 0.9311
15.6940 3.9211 -1.5530 0.9371
13.9820 4.8540 -1.4209 0.9423
12.6065 5.6821 -1.3276 0.9459
10.6393 7.3114 -1.2394 0.9494
9.9199 8.2107 -1.2363 0.9496
7.7142 11.0032 -1.2901 0.9474
7.3578 12.7870 -1.4163 0.9424
6.7359 14.5783 -1.5418 0.9375
6.3327 17.7040 -1.8051 0.9272
4.7767 18.3846 -1.8236 0.9265
-11.4516 12.8416 -1.6519 0.9332
-19.8180 -1.0032 -1.9051 0.9234
-15.7015 -5.1775 -1.5873 0.9357
-16.2162 -10.7746 -1.8692 0.9247
-3.1638 -17.3354 -1.6918 0.9316
-1.3376 -14.6254 -1.4100 0.9427
-0.0240 -12.6607 -1.2155 0.9504
2.1935 -12.2816 -1.1977 0.9511
3.5111 -12.8843 -1.2821 0.9478
7.0744 -14.8465 -1.5789 0.9361
11.2375 -15.6315 -1.8482 0.9256
18.1896 2.2720 -1.7599 0.9290
14.5246 4.5391 -1.4610 0.9407
11.7634 6.1469 -1.2742 0.9481
10.8851 6.9898 -1.2419 0.9493
10.1627 7.8898 -1.2352 0.9496
8.5793 9.5477 -1.2323 0.9497
7.2177 11.6831 -1.3184 0.9463
5.4347 18.5186 -1.8529 0.9254
-10.5748 12.6319 -1.5816 0.9359
-17.8083 -1.9423 -1.7198 0.9305
-15.4465 -3.0982 -1.5125 0.9387
-15.4111 -4.5530 -1.5428 0.9375
-16.7590 -10.3955 -1.8933 0.9238
-1.9698 -16.0047 -1.5481 0.9373
0.6817 -12.1247 -1.1659 0.9524
1.7729 -12.1001 -1.1741 0.9520
3.0235 -12.6398 -1.2477 0.9491
10.1825 -15.1408 -1.7517 0.9293
18.9896 1.7713 -1.8310 0.9262
16.8431 3.1054 -1.6443 0.9335
15.1708 4.2254 -1.5119 0.9387
13.5376 5.1103 -1.3892 0.9435
12.2093 5.9017 -1.3019 0.9470
10.4224 7.5815 -1.2373 0.9495
9.7216 8.4957 -1.2395 0.9494
8.1392 10.1903 -1.2521 0.9489
7.6127 14.0905 -1.5376 0.9377
6.3866 14.8556 -1.5524 0.9371
-12.5817 13.3696 -1.7625 0.9289
-16.9809 -7.8833 -1.7974 0.9275
-15.7612 -11.0925 -1.8503 0.9255
-0.9555 -14.8164 -1.4254 0.9421
0.3079 -12.3575 -1.1867 0.9515
4.0138 -13.3119 -1.3348 0.9457
9.4338 -15.0208 -1.7029 0.9312
19.8570 1.2278 -1.9100 0.9232
15.7835 3.8688 -1.5602 0.9368
12.6739 5.6447 -1.3320 0.9458
11.3946 6.3485 -1.2523 0.9489
9.9522 8.1630 -1.2358 0.9496
8.4513 9.9280 -1.2517 0.9490
7.3634 12.6659 -1.4066 0.9428
6.4326 17.7340 -1.8111 0.9270
4.8657 18.3904 -1.8263 0.9264
-11.2874 12.7714 -1.6364 0.9338
-1.3963 -14.5531 -1.4036 0.9429
-0.0808 -12.7400 -1.2231 0.9501
0.9995 -12.0192 -1.1579 0.9527
2.1318 -12.2506 -1.1938 0.9513
3.4400 -12.8486 -1.2770 0.9480
5.0134 -13.6954 -1.4002 0.9431
14.6042 4.4927 -1.4669 0.9404
13.1535 5.3723 -1.3641 0.9445
11.8259 6.1127 -1.2780 0.9479
10.9195 6.9434 -1.2423 0.9493
7.2379 14.3006 -1.5388 0.9376
-13.8754 13.9741 -1.8906 0.9239
-17.9485 -1.8768 -1.7325 0.9300
-15.5542 -3.0479 -1.5217 0.9383
-15.3710 -4.4669 -1.5367 0.9377
-16.8375 -10.3407 -1.8970 0.9237
-2.0377 -15.9705 -1.5457 0.9374
-0.5646 -15.0116 -1.4422 0.9414
1.7153 -12.0818 -1.1715 0.9521
2.9562 -12.6060 -1.2431 0.9493
4.4378 -13.4068 -1.3558 0.9448
8.2750 -15.2094 -1.6623 0.9328
10.0562 -15.0975 -1.7416 0.9297
19.1090 1.6968 -1.8418 0.9258
16.9408 3.0455 -1.6525 0.9332
15.2558 4.1760 -1.5185 0.9384
13.6101 5.0686 -1.3943 0.9433
12.2743 5.8659 -1.3061 0.9468
11.1565 6.6139 -1.2452 0.9492
9.7550 8.4486 -1.2390 0.9495
8.9348 9.2563 -1.2351 0.9496
8.1675 10.1329 -1.2495 0.9490
7.4870 11.2037 -1.2937 0.9473
7.5933 13.9064 -1.5212 0.9383
6.4278 14.7698 -1.5464 0.9373
-18.9950 -1.3878 -1.8285 0.9263
-16.3093 -2.6696 -1.5866 0.9357
-2.7946 -17.5215 -1.7034 0.9312
0.2537 -12.3975 -1.1905 0.9514
1.3238 -12.0104 -1.1600 0.9526
3.9380 -13.2739 -1.3293 0.9459
7.5726 -15.0180 -1.6147 0.9346
9.3461 -15.0290 -1.6991 0.9314
15.8737 3.8162 -1.5674 0.9365
12.7417 5.6071 -1.3365 0.9456
7.7780 10.8866 -1.2845 0.9477
7.3917 12.5853 -1.4012 0.9430
-17.1341 -2.2574 -1.6592 0.9329
-15.4441 -3.4585 -1.5194 0.9384
-3.3095 -17.2621 -1.6874 0.9318
-1.4585 -14.5220 -1.4012 0.9430
-0.1387 -12.8554 -1.2342 0.9497
0.9471 -12.0366 -1.1591 0.9526
4.9291 -13.6532 -1.3936 0.9433
6.8638 -14.7409 -1.5611 0.9367
8.7443 -15.0936 -1.6747 0.9323
18.4100 2.1333 -1.7793 0.9282
14.6845 4.4459 -1.4730 0.9402
10.9537 6.8969 -1.2427 0.9493
10.2375 7.8027 -1.2358 0.9496
9.5420 8.7224 -1.2412 0.9494
7.9933 10.4795 -1.2654 0.9484
7.1978 11.4222 -1.2962 0.9472
-10.4848 12.7533 -1.5850 0.9358
-17.2553 -8.4845 -1.8460 0.9256
-16.9163 -10.2856 -1.9007 0.9235
-2.1055 -15.9363 -1.5433 0.9374
-0.6302 -14.9788 -1.4393 0.9415
0.5752 -12.1606 -1.1688 0.9523
1.6580 -12.0636 -1.1690 0.9522
2.8894 -12.5725 -1.2385 0.9495
4.3362 -13.2979 -1.3428 0.9453
9.9323 -15.0565 -1.7317 0.9301
19.2296 1.6213 -1.8527 0.9254
13.6831 5.0265 -1.3995 0.9431
12.3397 5.8298 -1.3102 0.9466
11.1896 6.5664 -1.2456 0.9492
10.4950 7.4924 -1.2380 0.9495
9.7882 8.4014 -1.2384 0.9495
8.2000 10.0809 -1.2476 0.9491
7.5346 11.1670 -1.2933 0.9473
7.5439 13.6709 -1.4991 0.9392
6.4827 14.7167 -1.5439 0.9374
11.3151 6.0414 -1.5237 0.9496
10.1874 6.6706 -1.4465 0.9521
9.1562 7.2398 -1.3866 0.9541
8.2048 7.7727 -1.3425 0.9555
6.6421 10.9686 -1.5232 0.9497
-10.6111 12.4484 -1.9430 0.9362
-17.5349 -2.0706 -2.0974 0.9313
-15.1583 -3.1810 -1.8398 0.9395
-0.3664 -15.1111 -1.7955 0.9409
0.7937 -12.1810 -1.4500 0.9520
3.2097 -12.9091 -1.5801 0.9478
4.6793 -13.5284 -1.7004 0.9440
6.5545 -14.5863 -1.8995 0.9376
10.4459 -15.2377 -2.1945 0.9283
13.0495 1.3346 -1.5582 0.9485
16.0703 3.1111 -1.9444 0.9362
14.3626 4.1385 -1.7755 0.9416
11.7366 5.8028 -1.5552 0.9486
10.5702 6.4586 -1.4714 0.9513
9.5046 7.0441 -1.4053 0.9535
8.5318 7.5910 -1.3565 0.9550
7.7503 9.8824 -1.4918 0.9507
5.8034 18.2546 -2.2753 0.9257
4.1286 18.5939 -2.2625 0.9261
-4.7518 5.9411 -0.9037 0.9698
-12.9906 13.5601 -2.2306 0.9271
-18.5350 -1.6033 -2.2099 0.9278
-15.9208 -2.8248 -1.9207 0.9369
-17.0731 -8.1116 -2.2453 0.9267
2.7044 -12.5381 -1.5236 0.9496
4.1391 -13.2978 -1.6543 0.9454
7.8880 -15.1373 -2.0276 0.9336
14.2314 -2.8446 -1.7239 0.9432
18.5447 1.3125 -2.2084 0.9278
15.0334 3.8272 -1.8427 0.9394
13.3631 4.7060 -1.6829 0.9445
12.1748 5.5529 -1.5895 0.9475
10.9654 6.2380 -1.4986 0.9505
9.8680 6.8462 -1.4267 0.9528
8.8650 7.4042 -1.3720 0.9545
8.0888 9.6754 -1.4980 0.9505
6.9224 12.1551 -1.6616 0.9452
6.2941 17.8462 -2.2479 0.9266
4.6647 18.2873 -2.2418 0.9268
-11.6286 12.9238 -2.0651 0.9324
-16.7542 -2.4353 -2.0111 0.9341
-14.6731 -3.4922 -1.7916 0.9411
5.1845 -13.7817 -1.7491 0.9424
7.1365 -14.8066 -1.9524 0.9359
9.0079 -15.0809 -2.0866 0.9317
15.6306 3.4630 -1.9017 0.9375
11.3742 6.0081 -1.5280 0.9495
10.2412 6.6409 -1.4499 0.9520
9.2050 7.2121 -1.3891 0.9540
8.2510 7.7471 -1.3444 0.9554
7.9539 8.9314 -1.4207 0.9530
6.6019 10.7934 -1.5029 0.9503
5.2476 18.1802 -2.2477 0.9266
-10.4537 12.3748 -1.9242 0.9368
-17.6710 -2.0070 -2.1126 0.9309
-16.3370 -6.5447 -2.0905 0.9316
-1.7118 -14.4389 -1.7271 0.9431
0.7398 -12.1899 -1.4507 0.9520
6.4543 -14.5360 -1.8892 0.9379
10.3265 -15.2083 -2.1836 0.9286
13.1537 1.2861 -1.5699 0.9482
9.5560 7.0164 -1.4082 0.9534
8.5789 7.5647 -1.3587 0.9550
4.2017 18.5326 -2.2573 0.9263
-9.4279 11.8955 -1.8030 0.9407
-12.7835 13.4634 -2.2053 0.9279
-18.6862 -1.5326 -2.2271 0.9273
1.4259 -11.9583 -1.4305 0.9526
4.0629 -13.2608 -1.6475 0.9457
7.7325 -15.0013 -2.0047 0.9343
14.2035 -2.9048 -1.7221 0.9433
18.6581 1.2371 -2.2212 0.9274
16.5988 2.6025 -1.9958 0.9346
13.4333 4.6636 -1.6891 0.9443
8.9130 7.3772 -1.3744 0.9545
7.9742 7.8999 -1.3334 0.9558
8.0902 9.5900 -1.4904 0.9507
6.4538 13.9679 -1.8277 0.9399
6.3692 17.8061 -2.2464 0.9267
-16.8794 -2.3769 -2.0248 0.9336
-14.6509 -3.4181 -1.7871 0.9412
-0.0246 -13.0107 -1.5455 0.9489
3.5619 -13.0706 -1.6092 0.9469
8.9077 -15.0648 -2.0789 0.9319
11.2381 -15.6323 -2.2870 0.9254
17.2772 2.1581 -2.0682 0.9323
15.7185 3.4092 -1.9106 0.9373
12.6978 5.2523 -1.6323 0.9462
7.5090 10.0285 -1.4882 0.9508
6.5719 10.6377 -1.4853 0.9509
5.8193 14.7939 -1.8884 0.9380
5.3364 18.1838 -2.2511 0.9265
-17.8092 -1.9424 -2.1280 0.9304
-15.3689 -3.0827 -1.8620 0.9388
-1.7733 -14.4082 -1.7244 0.9432
0.6812 -12.1158 -1.4415 0.9523
1.7729 -12.1004 -1.4527 0.9519
4.5177 -13.4473 -1.6851 0.9445
6.2564 -14.2612 -1.8499 0.9392
8.3492 -15.1842 -2.0584 0.9326
9.6073 6.9886 -1.4112 0.9533
7.7879 8.1403 -1.3382 0.9556
6.1128 14.2187 -1.8385 0.9396
4.2744 18.4717 -2.2522 0.9265
-9.2922 11.8321 -1.7871 0.9412
-16.1505 -2.7174 -1.9454 0.9362
-15.7955 -11.1166 -2.2944 0.9251
-0.9555 -14.8169 -1.7637 0.9419
0.3079 -12.3578 -1.4684 0.9514
2.5744 -12.4729 -1.5128 0.9500
3.9873 -13.2240 -1.6407 0.9459
5.6287 -14.0044 -1.7929 0.9410
9.4341 -15.0213 -2.1070 0.9310
14.3429 -3.0000 -1.7406 0.9427
18.7726 1.1608 -2.2342 0.9270
13.5038 4.6208 -1.6954 0.9441
11.0804 6.1735 -1.5067 0.9502
9.9731 6.7885 -1.4331 0.9526
8.9611 7.3501 -1.3767 0.9544
8.0668 9.4764 -1.4783 0.9511
6.8241 11.7382 -1.6129 0.9468
6.5140 13.9350 -1.8272 0.9399
4.8215 18.2231 -2.2392 0.9269
-8.4025 11.4164 -1.6838 0.9445
-0.0832 -13.1277 -1.5594 0.9485
6.9688 -14.7940 -1.9425 0.9362
8.8260 -15.0795 -2.0755 0.9320
11.0809 -15.5592 -2.2690 0.9259
17.3765 2.0920 -2.0790 0.9319
15.8072 3.3548 -1.9195 0.9370
14.0133 4.3110 -1.7416 0.9427
12.7536 5.2090 -1.6364 0.9460
9.3032 7.1563 -1.3942 0.9538
8.3438 7.6956 -1.3483 0.9553
7.9109 8.7255 -1.3991 0.9537
7.5570 9.9996 -1.4889 0.9508
6.7212 13.2797 -1.7680 0.9418
-13.8743 13.9730 -2.3390 0.9237
-15.4760 -3.0326 -1.8733 0.9385
-0.5647 -15.0121 -1.7845 0.9413
1.7154 -12.0821 -1.4496 0.9520
6.1898 -14.2818 -1.8490 0.9392
8.2753 -15.2098 -2.0568 0.9326
10.0567 -15.0982 -2.1549 0.9295
18.1021 1.6073 -2.1587 0.9294
11.9217 5.6974 -1.5696 0.9482
9.6588 6.9605 -1.4142 0.9532
8.6734 7.5118 -1.3630 0.9548
7.7683 8.0479 -1.3287 0.9559
6.8598 12.5630 -1.7003 0.9440
6.0899 18.3054 -2.2916 0.9252
-18.9960 -1.3879 -2.2625 0.9261
-15.9291 -5.6503 -2.0077 0.9342
-2.5094 -15.7331 -1.8925 0.9378
-1.0196 -14.7848 -1.7604 0.9421
0.2537 -12.3978 -1.4730 0.9513
2.5101 -12.4407 -1.5076 0.9502
3.9124 -13.1876 -1.6340 0.9461
5.5386 -13.9592 -1.7839 0.9413
18.8885 1.0835 -2.2474 0.9266
16.7881 2.4792 -2.0158 0.9339
13.5749 4.5778 -1.7017 0.9439
9.0095 7.3228 -1.3791 0.9543
8.0657 7.8495 -1.3369 0.9557
8.0437 9.3645 -1.4664 0.9515
7.2682 10.1732 -1.4852 0.9509
6.5613 17.8409 -2.2580 0.9263
-17.1349 -2.2574 -2.0530 0.9328
-14.8494 -3.3254 -1.8076 0.9405
-1.4627 -14.5634 -1.7386 0.9427
-0.1421 -13.1665 -1.5641 0.9483
0.9563 -12.1541 -1.4482 0.9521
2.0704 -12.2202 -1.4723 0.9513
3.4228 -13.0160 -1.5987 0.9472
4.9292 -13.6537 -1.7243 0.9432
10.9260 -15.4871 -2.2514 0.9265
19.7386 0.5143 -2.3455 0.9235
17.4769 2.0252 -2.0899 0.9316
14.0880 4.2653 -1.7485 0.9424
12.7996 5.1615 -1.6394 0.9459
9.3525 7.1282 -1.3968 0.9537
8.3904 7.6697 -1.3503 0.9552
7.8899 8.6249 -1.3885 0.9540
6.6533 10.5582 -1.4824 0.9510
6.6874 13.0682 -1.7438 0.9426
5.5240 18.2208 -2.2617 0.9262
-7.4025 10.8487 -1.5601 0.9485
-9.9989 12.1623 -1.8703 0.9385
-15.5845 -2.9819 -1.8848 0.9381
-1.8956 -14.3471 -1.7190 0.9434
1.6581 -12.0639 -1.4465 0.9521
2.8895 -12.5730 -1.5324 0.9494
6.0960 -14.2388 -1.8399 0.9395
9.9327 -15.0572 -2.1427 0.9299
16.3178 2.8587 -1.9679 0.9354
14.7651 3.9712 -1.8162 0.9403
13.1540 4.8321 -1.6646 0.9451
11.9841 5.6618 -1.5744 0.9480
7.7914 8.0001 -1.3265 0.9560
7.9430 9.7649 -1.4952 0.9506
6.9799 10.3448 -1.4824 0.9510
-12.1891 13.1856 -2.1330 0.9302
11.0065 5.8767 -1.7679 0.9508
9.9233 6.4976 -1.6806 0.9532
7.4672 8.4605 -1.5989 0.9554
7.1879 9.7798 -1.7197 0.9521
6.2957 10.3964 -1.7221 0.9521
6.2489 12.7668 -2.0140 0.9442
5.4877 14.3238 -2.1734 0.9399
-12.0929 11.8581 -2.3998 0.9339
-16.1014 7.1584 -2.4967 0.9313
-17.0911 4.1773 -2.4929 0.9314
-17.3819 2.6341 -2.4910 0.9314
-16.8064 1.0279 -2.3857 0.9342
-14.2939 -9.0435 -2.3966 0.9339
-13.4220 -10.2761 -2.3951 0.9340
-12.4448 -11.4257 -2.3938 0.9340
-8.9632 -14.2926 -2.3904 0.9341
-7.6500 -15.0299 -2.3896 0.9341
-6.2771 -15.6479 -2.3889 0.9342
-4.8553 -16.1419 -2.3884 0.9342
-0.3664 -15.1116 -2.1418 0.9408
0.7937 -12.1813 -1.7296 0.9519
1.8889 -12.1377 -1.7405 0.9516
4.6796 -13.5289 -2.0283 0.9438
6.4975 -14.4594 -2.2461 0.9380
8.2621 -14.7141 -2.3910 0.9341
9.4535 -13.7900 -2.3689 0.9347
10.6512 -12.8984 -2.3701 0.9347
11.7658 -11.9036 -2.3715 0.9346
14.3041 -10.0528 -2.4772 0.9318
15.1541 -8.7428 -2.4789 0.9318
15.8849 -7.3616 -2.4807 0.9317
16.4905 -5.9198 -2.4825 0.9317
16.5897 -2.7799 -2.3834 0.9343
10.2916 6.2883 -1.7089 0.9524
7.4369 7.9132 -1.5387 0.9571
7.5141 9.5812 -1.7252 0.9520
6.5829 10.1414 -1.7131 0.9523
6.4690 12.2329 -1.9607 0.9456
4.0905 18.4225 -2.6739 0.9266
-4.7513 5.9403 -1.0778 0.9697
-13.6888 9.9434 -2.3973 0.9339
-16.7534 -1.4492 -2.3826 0.9343
-15.8899 -5.8765 -2.4005 0.9338
-13.7395 -9.8537 -2.3956 0.9340
-12.7982 -11.0334 -2.3942 0.9340
-10.6233 -13.1183 -2.3918 0.9341
-9.4068 -14.0075 -2.3907 0.9341
-8.1169 -14.7852 -2.3898 0.9341
-6.7637 -15.4455 -2.3891 0.9341
0.4154 -12.2790 -1.7408 0.9516
2.7046 -12.5386 -1.8174 0.9495
4.1393 -13.2983 -1.9734 0.9453
5.8122 -14.0969 -2.1605 0.9403
10.2411 -13.2225 -2.3697 0.9347
11.3857 -12.2630 -2.3710 0.9346
12.9800 -11.6901 -2.4751 0.9319
14.8699 -9.2099 -2.4783 0.9318
15.6431 -7.8524 -2.4800 0.9317
16.2931 -6.4305 -2.4819 0.9317
16.8145 -4.9553 -2.4837 0.9316
14.2175 -2.8418 -2.0543 0.9431
16.7316 -1.8135 -2.3846 0.9343
16.8400 -0.3142 -2.3865 0.9342
17.5941 1.2453 -2.4991 0.9312
11.8314 1.9090 -1.6981 0.9527
12.8682 4.5317 -1.9331 0.9464
11.8289 5.3951 -1.8421 0.9488
10.6711 6.0706 -1.7395 0.9516
7.5727 9.0580 -1.6729 0.9534
6.9085 9.9479 -1.7161 0.9522
6.2764 11.0208 -1.7970 0.9501
-6.4417 10.4113 -1.7347 0.9517
-8.6447 11.5292 -2.0418 0.9434
-11.3332 12.5954 -2.4007 0.9338
-12.4042 11.5276 -2.3993 0.9339
-13.3745 10.3688 -2.3978 0.9339
-14.8516 9.5228 -2.4997 0.9312
-16.2838 6.7228 -2.4961 0.9313
-17.1929 3.7168 -2.4923 0.9314
-16.9986 2.1117 -2.4270 0.9331
-14.1924 0.4868 -2.0121 0.9442
-16.7951 -0.9252 -2.3833 0.9343
-16.6326 -2.4177 -2.3814 0.9344
-14.6729 -3.4922 -2.1371 0.9409
-16.0699 -5.3784 -2.4011 0.9338
-14.8377 -8.1367 -2.3977 0.9339
-14.0437 -9.4216 -2.3962 0.9340
-12.1321 -11.7532 -2.3934 0.9340
-11.0299 -12.7820 -2.3921 0.9341
-5.8551 -15.8094 -2.3887 0.9342
-2.8460 -15.9968 -2.3022 0.9365
-1.2748 -14.6575 -2.0846 0.9423
0.0329 -12.8428 -1.8197 0.9494
3.6395 -13.1251 -1.9298 0.9465
5.1847 -13.7822 -2.0864 0.9422
8.6546 -14.4893 -2.3913 0.9341
9.8211 -13.5337 -2.3693 0.9347
10.9949 -12.6103 -2.3705 0.9346
13.6420 -10.9217 -2.4761 0.9318
14.5713 -9.6677 -2.4777 0.9318
15.3862 -8.3353 -2.4794 0.9317
16.0800 -6.9347 -2.4812 0.9317
16.6621 -2.3348 -2.3839 0.9343
10.7829 2.3890 -1.5649 0.9564
13.3278 4.2302 -1.9813 0.9451
11.0631 5.8438 -1.7728 0.9507
9.9751 6.4683 -1.6845 0.9531
8.9727 7.0301 -1.6151 0.9550
7.4504 8.3660 -1.5873 0.9558
7.2342 9.7517 -1.7204 0.9521
6.3363 10.3592 -1.7206 0.9521
6.2811 12.6892 -2.0061 0.9444
5.2144 18.0652 -2.6642 0.9269
-7.8290 11.1510 -1.9305 0.9464
-10.4530 12.3740 -2.2951 0.9367
-12.0404 11.9121 -2.3998 0.9339
-15.3722 8.6410 -2.4986 0.9312
-16.6383 5.7638 -2.4949 0.9313
-17.3707 2.7116 -2.4911 0.9314
-16.8204 -0.4000 -2.3839 0.9343
-16.7046 -1.8972 -2.3821 0.9343
-15.2636 -3.1323 -2.2078 0.9390
-15.7233 -6.2989 -2.3999 0.9339
-15.0883 -7.6709 -2.3983 0.9339
-14.3345 -8.9801 -2.3967 0.9339
-11.4258 -12.4332 -2.3926 0.9341
-4.9272 -16.1203 -2.3884 0.9342
-1.7119 -14.4390 -2.0602 0.9430
3.1404 -12.8747 -1.8777 0.9479
4.5983 -13.4881 -2.0191 0.9441
6.4330 -14.4879 -2.2460 0.9380
9.3918 -13.8317 -2.3689 0.9347
11.7124 -11.9555 -2.3714 0.9346
13.2911 -11.3401 -2.4755 0.9318
16.4633 -5.9929 -2.4824 0.9317
16.5765 -2.8536 -2.3833 0.9343
16.7782 -1.3648 -2.3851 0.9343
17.0050 1.6626 -2.4209 0.9333
15.5568 2.9399 -2.2433 0.9380
13.8720 3.9303 -2.0429 0.9434
11.4688 5.6070 -1.8088 0.9497
10.3449 6.2578 -1.7131 0.9523
9.3141 6.8388 -1.6373 0.9544
8.3671 7.3779 -1.5806 0.9559
7.5606 9.5526 -1.7262 0.9520
4.1541 18.3228 -2.6620 0.9269
-11.6647 12.2851 -2.4003 0.9338
-12.7063 11.1889 -2.3989 0.9339
-16.4545 6.2826 -2.4956 0.9313
-16.9363 4.7862 -2.4937 0.9314
-17.2822 3.2539 -2.4917 0.9314
-16.7643 1.6277 -2.3865 0.9342
-16.0356 -2.7716 -2.3058 0.9364
-14.6114 -8.5297 -2.3972 0.9339
-13.7836 -9.7927 -2.3957 0.9340
-11.8109 -12.0722 -2.3930 0.9340
-9.4692 -13.9658 -2.3908 0.9341
-8.1827 -14.7492 -2.3899 0.9341
-5.4289 -15.9595 -2.3885 0.9342
-0.8912 -14.8493 -2.1078 0.9417
0.3618 -12.3185 -1.7461 0.9514
1.4259 -11.9586 -1.7064 0.9525
2.6393 -12.5059 -1.8110 0.9497
4.0630 -13.2612 -1.9652 0.9455
5.7201 -14.0507 -2.1495 0.9406
7.7303 -14.9972 -2.3906 0.9341
10.1819 -13.2676 -2.3696 0.9347
11.3308 -12.3132 -2.3709 0.9346
13.9325 -10.5542 -2.4765 0.9318
14.8283 -9.2756 -2.4782 0.9318
16.2638 -6.5027 -2.4818 0.9317
16.7227 -1.8879 -2.3845 0.9343
16.8378 -0.3891 -2.3864 0.9342
17.6826 1.1724 -2.5109 0.9309
15.9691 2.5037 -2.2903 0.9368
12.9234 4.4866 -1.9383 0.9462
10.7262 6.0389 -1.7441 0.9515
9.6662 6.6426 -1.6618 0.9537
7.7809 7.7083 -1.5519 0.9567
7.5546 8.9552 -1.6601 0.9538
6.9549 9.9201 -1.7166 0.9522
6.2481 10.8585 -1.7751 0.9506
6.0828 13.1648 -2.0548 0.9431
-8.5223 11.4720 -2.0249 0.9439
-11.2773 12.6461 -2.4008 0.9338
-14.8096 9.5891 -2.4998 0.9312
-16.2543 6.7955 -2.4962 0.9313
-16.7830 5.3146 -2.4943 0.9313
-17.1768 3.7935 -2.4924 0.9314
-16.8218 0.6519 -2.3853 0.9343
-14.6515 -3.4183 -2.1317 0.9410
-13.1870 -10.5719 -2.3948 0.9340
-11.0869 -12.7331 -2.3922 0.9341
-9.9025 -13.6650 -2.3911 0.9341
-8.6408 -14.4881 -2.3902 0.9341
-4.4932 -16.2456 -2.3883 0.9342
-3.0258 -16.5794 -2.3879 0.9342
-0.0246 -13.0110 -1.8435 0.9488
2.1936 -12.2824 -1.7678 0.9508
5.0988 -13.7392 -2.0764 0.9425
16.6218 -5.5507 -2.4830 0.9317
16.6509 -2.4089 -2.3838 0.9343
16.8127 -0.9148 -2.3857 0.9342
18.1870 0.6360 -2.5785 0.9291
16.4472 2.0544 -2.3485 0.9352
13.3964 4.1865 -1.9887 0.9449
12.3276 5.0991 -1.8902 0.9475
11.1200 5.8107 -1.7777 0.9506
9.0201 7.0027 -1.6180 0.9549
8.0943 7.5324 -1.5667 0.9563
7.2807 9.7236 -1.7211 0.9521
6.3768 10.3220 -1.7191 0.9522
5.5727 14.1668 -2.1570 0.9404
-7.7993 11.2145 -1.9355 0.9463
-11.9876 11.9660 -2.3999 0.9339
-13.9053 9.6334 -2.3969 0.9339
-15.3341 8.7097 -2.4987 0.9312
-16.0383 7.3020 -2.4969 0.9313
-16.6131 5.8380 -2.4950 0.9313
-17.0545 4.3296 -2.4931 0.9314
-16.7135 -1.8229 -2.3822 0.9343
-15.7518 -6.2290 -2.4000 0.9339
-15.1228 -7.6038 -2.3984 0.9339
-14.3747 -8.9165 -2.3968 0.9339
-13.5138 -10.1568 -2.3953 0.9340
-11.4813 -12.3826 -2.3926 0.9341
-10.3263 -13.3509 -2.3915 0.9341
-9.0905 -14.2128 -2.3905 0.9341
-6.4164 -15.5918 -2.3889 0.9342
-4.9989 -16.0983 -2.3884 0.9342
-3.5426 -16.4774 -2.3880 0.9342
0.6813 -12.1163 -1.7195 0.9522
3.0715 -12.8402 -1.8706 0.9481
4.5179 -13.4478 -2.0101 0.9443
6.2567 -14.2618 -2.2066 0.9390
8.1305 -14.7865 -2.3909 0.9341
9.3299 -13.8730 -2.3688 0.9347
10.5354 -12.9920 -2.3700 0.9347
13.2400 -11.3989 -2.4754 0.9319
14.2131 -10.1790 -2.4770 0.9318
15.0746 -8.8767 -2.4787 0.9318
15.8176 -7.5022 -2.4805 0.9317
16.4359 -6.0659 -2.4823 0.9317
16.5630 -2.9273 -2.3832 0.9343
18.7148 0.0692 -2.6517 0.9272
12.6423 4.7723 -1.9147 0.9469
11.5278 5.5724 -1.8142 0.9496
9.3638 6.8114 -1.6406 0.9543
8.4128 7.3519 -1.5830 0.9559
7.5125 7.8524 -1.5398 0.9570
6.6756 10.0865 -1.7138 0.9523
6.4749 11.9845 -1.9301 0.9465
5.9045 18.0154 -2.6862 0.9263
-6.9078 10.6262 -1.7958 0.9501
-15.0581 9.1869 -2.4993 0.9312
-15.8063 7.8016 -2.4975 0.9313
-16.4270 6.3560 -2.4957 0.9313
-16.9155 4.8617 -2.4938 0.9314
-16.7575 1.7024 -2.3866 0.9342
-16.1512 -2.7176 -2.3206 0.9360
-15.9428 -5.7352 -2.4006 0.9338
-15.3568 -7.1293 -2.3989 0.9339
-13.8275 -9.7316 -2.3958 0.9340
-11.8648 -12.0199 -2.3930 0.9340
-10.7401 -13.0238 -2.3919 0.9341
-6.9011 -15.3851 -2.3892 0.9341
-5.4999 -15.9354 -2.3886 0.9342
-4.0559 -16.3594 -2.3881 0.9342
-2.4429 -15.7672 -2.2607 0.9376
1.3736 -11.9731 -1.7076 0.9525
3.9875 -13.2246 -1.9571 0.9457
5.6289 -14.0050 -2.1386 0.9408
7.6592 -15.0231 -2.3893 0.9341
8.8904 -14.1555 -2.3684 0.9347
11.2755 -12.3631 -2.3709 0.9346
13.8849 -10.6157 -2.4765 0.9318
14.7863 -9.3412 -2.4781 0.9318
15.5715 -7.9907 -2.4799 0.9317
16.7685 -5.1045 -2.4836 0.9316
14.2815 -2.9871 -2.0673 0.9428
16.7135 -1.9622 -2.3844 0.9343
16.8352 -0.4640 -2.3863 0.9342
17.7521 1.0977 -2.5201 0.9307
14.6440 3.5896 -2.1363 0.9409
12.9895 4.4448 -1.9453 0.9460
8.7370 7.1662 -1.6011 0.9554
7.8253 7.6835 -1.5539 0.9567
7.0012 9.8923 -1.7172 0.9522
-12.3018 11.6383 -2.3995 0.9339
-14.7672 9.6553 -2.4999 0.9312
-15.5587 8.2938 -2.4982 0.9312
-16.2246 6.8680 -2.4963 0.9313
-16.6548 -2.2696 -2.3816 0.9343
-16.1183 -5.2355 -2.4012 0.9338
-15.5759 -6.6475 -2.3995 0.9339
-14.1279 -9.2968 -2.3963 0.9340
-13.2343 -10.5134 -2.3948 0.9340
-12.2369 -11.6454 -2.3935 0.9340
-7.3793 -15.1635 -2.3894 0.9341
-4.5654 -16.2256 -2.3883 0.9342
-3.0996 -16.5659 -2.3879 0.9342
2.1319 -12.2514 -1.7620 0.9510
3.4946 -13.0523 -1.9145 0.9469
9.6998 -13.6199 -2.3692 0.9347
10.8816 -12.7070 -2.3704 0.9346
14.4837 -9.7964 -2.4775 0.9318
15.3104 -8.4713 -2.4792 0.9318
16.0165 -7.0771 -2.4810 0.9317
16.3388 -3.9541 -2.3819 0.9343
18.2610 0.5571 -2.5886 0.9289
16.5381 1.9911 -2.3602 0.9349
13.4655 4.1424 -1.9962 0.9447
12.3754 5.0546 -1.8941 0.9474
10.0793 6.4092 -1.6924 0.9529
9.0676 6.9751 -1.6209 0.9548
8.1393 7.5070 -1.5689 0.9563
7.3271 9.6954 -1.7219 0.9521
6.4173 10.2847 -1.7177 0.9522
5.6146 14.0890 -2.1490 0.9406
5.3822 18.0420 -2.6677 0.9268
-10.1470 12.2311 -2.2517 0.9378
-12.9512 10.9005 -2.3985 0.9339
-13.8628 9.6955 -2.3969 0.9339
-15.2957 8.7781 -2.4988 0.9312
-16.0062 7.3736 -2.4970 0.9313
-16.7221 -1.7486 -2.3823 0.9343
-15.4767 -3.0327 -2.2346 0.9383
-15.7799 -6.1591 -2.4001 0.9339
-14.4148 -8.8527 -2.3968 0.9339
-13.5592 -10.0968 -2.3953 0.9340
-12.5973 -11.2595 -2.3939 0.9340
-10.3858 -13.3052 -2.3915 0.9341
-7.8504 -14.9271 -2.3897 0.9341
-6.4858 -15.5633 -2.3890 0.9342
-5.0706 -16.0761 -2.3884 0.9342
-0.5647 -15.0125 -2.1286 0.9411
0.6258 -12.0894 -1.7152 0.9523
9.2679 -13.9140 -2.3688 0.9347
11.6047 -12.0586 -2.3713 0.9346
14.1672 -10.2419 -2.4769 0.9318
16.4081 -6.1388 -2.4822 0.9317
16.3097 -4.4909 -2.3969 0.9339
16.5492 -3.0008 -2.3831 0.9343
16.7641 -1.5140 -2.3850 0.9343
18.7916 -0.0142 -2.6626 0.9269
17.1969 1.5270 -2.4462 0.9326
15.6729 2.8176 -2.2563 0.9377
12.6871 4.7248 -1.9182 0.9468
7.5571 7.8290 -1.5418 0.9570
6.4332 11.7818 -1.9020 0.9472
5.9015 13.5605 -2.0954 0.9420
4.3078 18.2460 -2.6564 0.9271
-11.5555 12.3891 -2.4005 0.9338
-15.0177 9.2541 -2.4994 0.9312
-15.9687 -5.6644 -2.4007 0.9338
-15.3888 -7.0611 -2.3990 0.9339
-14.6877 -8.3998 -2.3974 0.9339
-13.8711 -9.6702 -2.3959 0.9340
-10.7982 -12.9762 -2.3919 0.9341
-9.5936 -13.8815 -2.3909 0.9341
3.9125 -13.1881 -1.9491 0.9459
5.5388 -13.9598 -2.1279 0.9411
10.0628 -13.3571 -2.3695 0.9347
11.2201 -12.4129 -2.3708 0.9346
13.8371 -10.6771 -2.4764 0.9318
16.7040 -2.0366 -2.3843 0.9343
16.8323 -0.5390 -2.3862 0.9342
14.7342 3.5423 -2.1472 0.9406
10.8371 5.9749 -1.7534 0.9512
9.7680 6.5854 -1.6692 0.9535
7.8696 7.6587 -1.5559 0.9566
6.1981 10.5530 -1.7341 0.9518
4.8791 18.1144 -2.6581 0.9270
-6.1812 10.2952 -1.7014 0.9526
-10.5382 8.3976 -1.9092 0.9470
-14.7246 9.7213 -2.5000 0.9312
-15.5221 8.3634 -2.4982 0.9312
-16.1945 6.9404 -2.4964 0.9313
-16.7363 5.4642 -2.4945 0.9313
-17.4137 2.3999 -2.4907 0.9314
-16.8167 0.8016 -2.3854 0.9342
-16.6654 -2.1956 -2.3817 0.9343
-14.8501 -3.3255 -2.1562 0.9404
-16.1420 -5.1639 -2.4013 0.9338
-15.6059 -6.5783 -2.3996 0.9339
-14.1696 -9.2341 -2.3964 0.9340
-11.2004 -12.6345 -2.3923 0.9341
-6.0659 -15.7303 -2.3888 0.9342
-4.6377 -16.2053 -2.3883 0.9342
-3.1734 -16.5520 -2.3880 0.9342
-0.1421 -13.1669 -1.8657 0.9482
3.4229 -13.0164 -1.9070 0.9471
4.9294 -13.6542 -2.0569 0.9430
6.7578 -14.5131 -2.2683 0.9374
11.9258 -11.7453 -2.3717 0.9346
13.4937 -11.1018 -2.4758 0.9318
14.4395 -9.8604 -2.4774 0.9318
15.2720 -8.5391 -2.4792 0.9318
15.9843 -7.1480 -2.4809 0.9317
16.8026 -1.0644 -2.3855 0.9342
16.6295 1.9270 -2.3720 0.9346
12.4194 5.0082 -1.8974 0.9473
11.2347 5.7439 -1.7878 0.9503
9.1159 6.9479 -1.6240 0.9548
7.3736 9.6671 -1.7227 0.9521
5.4685 18.0377 -2.6706 0.9267
3.9299 18.8970 -2.7348 0.9250
-11.8814 12.0729 -2.4000 0.9339
-15.2570 8.8465 -2.4989 0.9312
-15.9738 7.4450 -2.4971 0.9313
-16.5618 5.9862 -2.4952 0.9313
-17.3350 2.9436 -2.4913 0.9314
-16.7880 1.3271 -2.3861 0.9342
-16.7304 -1.6741 -2.3824 0.9343
-15.5852 -2.9821 -2.2483 0.9379
-14.4545 -8.7887 -2.3969 0.9339
-13.6045 -10.0366 -2.3954 0.9340
-12.6476 -11.2036 -2.3940 0.9340
-10.4452 -13.2591 -2.3916 0.9341
-7.9169 -14.8923 -2.3897 0.9341
-6.5550 -15.5345 -2.3890 0.9342
-1.8956 -14.3477 -2.0506 0.9432
1.6581 -12.0643 -1.7255 0.9520
7.9982 -14.8577 -2.3908 0.9341
9.2056 -13.9549 -2.3687 0.9347
10.4189 -13.0846 -2.3699 0.9347
13.1372 -11.5155 -2.4753 0.9319
14.1210 -10.3045 -2.4769 0.9318
14.9940 -9.0100 -2.4785 0.9318
15.7491 -7.6420 -2.4803 0.9317
16.3800 -6.2114 -2.4821 0.9317
16.5350 -3.0743 -2.3830 0.9343
18.8689 -0.0983 -2.6736 0.9266
11.6468 5.5024 -1.8251 0.9493
9.4637 6.7561 -1.6476 0.9541
8.5045 7.2996 -1.5880 0.9557
7.6019 7.8055 -1.5438 0.9569
6.7684 10.0315 -1.7146 0.9523
5.9597 13.5293 -2.0947 0.9420
-5.0580 9.7580 -1.5573 0.9566
-11.5006 12.4408 -2.4005 0.9338
10.7125 5.7197 -2.0006 0.9520
9.6710 6.3324 -1.9043 0.9542
8.7048 6.8829 -1.8282 0.9560
6.9746 9.4897 -1.9402 0.9534
6.1140 10.0965 -1.9445 0.9533
5.9751 12.2074 -2.2390 0.9464
5.0934 17.9454 -3.0731 0.9272
-11.2539 9.2181 -2.3965 0.9427
-14.3269 4.8917 -2.4940 0.9405
-14.6964 3.5920 -2.4923 0.9405
-14.4547 0.8841 -2.3857 0.9430
-14.1445 -2.9683 -2.3809 0.9431
-13.9494 -4.2565 -2.4026 0.9426
-12.3027 -7.7837 -2.3983 0.9427
-11.5532 -8.8453 -2.3970 0.9427
-8.7874 -11.5728 -2.3938 0.9428
-7.7174 -12.3061 -2.3930 0.9428
-6.5870 -12.9415 -2.3922 0.9428
-4.1810 -13.8999 -2.3912 0.9429
-2.9241 -14.2156 -2.3909 0.9429
-1.6444 -14.4187 -2.3907 0.9429
-0.3518 -14.5078 -2.3907 0.9429
1.8889 -12.1380 -2.0237 0.9514
3.2099 -12.9100 -2.1915 0.9475
9.1692 -11.1037 -2.3723 0.9433
10.5663 -10.6900 -2.4761 0.9409
12.3108 -8.6519 -2.4788 0.9408
14.1882 -5.0933 -2.4834 0.9407
14.5955 -3.8100 -2.4850 0.9407
14.2705 -2.3913 -2.3837 0.9430
14.4367 -1.1097 -2.3853 0.9430
13.2398 3.8149 -2.2699 0.9457
12.1869 4.7248 -2.1533 0.9484
11.0994 5.4877 -2.0398 0.9510
10.0256 6.1258 -1.9355 0.9535
9.0349 6.6960 -1.8526 0.9554
8.1200 7.2245 -1.7905 0.9569
5.9440 11.2401 -2.0947 0.9498
5.4857 13.0797 -2.3366 0.9441
5.2903 16.6405 -2.8766 0.9317
4.0354 18.1741 -3.0669 0.9273
-4.7506 5.9396 -1.2530 0.9696
-10.9625 9.5671 -2.3970 0.9427
-13.0126 7.7808 -2.4977 0.9404
-13.6463 6.5851 -2.4961 0.9404
-14.5803 4.0504 -2.4929 0.9405
-14.4753 0.0438 -2.3847 0.9430
-14.4118 -1.2466 -2.3830 0.9430
-14.2336 -2.5254 -2.3815 0.9431
-14.0788 -3.8194 -2.4032 0.9426
-13.1598 -6.2524 -2.4002 0.9426
-11.8262 -8.4815 -2.3975 0.9427
-6.9889 -12.7306 -2.3925 0.9428
-3.3671 -14.1178 -2.3910 0.9429
2.7046 -12.5390 -2.1132 0.9493
4.1031 -13.1823 -2.2744 0.9456
5.5357 -13.4262 -2.3924 0.9428
7.7627 -12.1190 -2.3709 0.9433
8.8164 -11.3830 -2.3719 0.9433
9.8389 -10.5970 -2.3822 0.9431
11.1725 -10.0622 -2.4770 0.9409
12.0320 -9.0305 -2.4783 0.9408
12.7969 -7.9259 -2.4798 0.9408
13.4610 -6.7570 -2.4813 0.9408
14.1855 -2.8354 -2.3831 0.9430
13.8285 0.9787 -2.2838 0.9454
13.8576 3.5279 -2.3557 0.9437
9.0598 3.1905 -1.5824 0.9618
11.5000 5.2451 -2.0823 0.9501
10.3905 5.9110 -1.9693 0.9527
9.3743 6.5036 -1.8796 0.9548
8.4324 7.0429 -1.8100 0.9564
7.5521 7.5486 -1.7591 0.9576
7.0962 8.4882 -1.8226 0.9561
5.7776 12.6519 -2.2913 0.9452
5.0030 14.1854 -2.4780 0.9408
4.5988 18.0292 -3.0652 0.9273
-3.5827 9.0900 -1.6096 0.9612
-12.7658 8.1854 -2.4982 0.9404
-13.4369 7.0098 -2.4967 0.9404
-13.9997 5.7798 -2.4951 0.9404
-14.4500 4.5051 -2.4935 0.9405
-14.7844 3.1962 -2.4918 0.9405
-14.4471 -0.7958 -2.3836 0.9430
-14.3089 -2.0799 -2.3820 0.9431
-14.0571 -3.3456 -2.3804 0.9431
-13.3515 -5.8393 -2.4007 0.9426
-12.0877 -8.1093 -2.3979 0.9427
-11.3103 -9.1504 -2.3967 0.9427
-9.4958 -11.0043 -2.3945 0.9428
-8.4731 -11.8028 -2.3935 0.9428
-7.3841 -12.5073 -2.3927 0.9428
-2.5420 -14.2885 -2.3908 0.9429
-1.2574 -14.4575 -2.3907 0.9429
1.1174 -12.1282 -2.0065 0.9518
2.2559 -12.3139 -2.0623 0.9505
3.6396 -13.1255 -2.2439 0.9463
5.1129 -13.5913 -2.3922 0.9428
6.2457 -12.9584 -2.3698 0.9434
7.3792 -12.3540 -2.3706 0.9433
8.4551 -11.6512 -2.3716 0.9433
10.8506 -10.4046 -2.4765 0.9409
11.7416 -9.4003 -2.4778 0.9408
12.5404 -8.3203 -2.4792 0.9408
13.8361 -5.9670 -2.4823 0.9407
14.4642 -0.7225 -2.3858 0.9430
14.4808 0.5709 -2.3874 0.9429
15.6749 2.0288 -2.6038 0.9379
12.8270 4.0713 -2.2170 0.9469
9.7209 6.3035 -1.9086 0.9541
7.8561 7.3763 -1.7753 0.9573
7.1080 7.9816 -1.7607 0.9576
5.1744 17.9265 -3.0738 0.9272
-3.1856 8.8871 -1.5553 0.9625
-5.8408 10.1349 -1.9270 0.9537
-9.3975 11.1245 -2.3990 0.9427
-11.2131 9.2683 -2.3966 0.9427
-14.9384 2.3319 -2.4907 0.9405
-14.5239 0.9532 -2.3978 0.9427
-14.4683 -0.3441 -2.3842 0.9430
-14.1580 -2.9054 -2.3810 0.9431
-13.9687 -4.1945 -2.4027 0.9426
-12.9852 -6.6016 -2.3997 0.9427
-11.5928 -8.7940 -2.3971 0.9427
-10.7569 -9.7881 -2.3959 0.9427
-5.4651 -13.4501 -2.3917 0.9428
-4.2429 -13.8813 -2.3912 0.9429
-2.9874 -14.2025 -2.3909 0.9429
-0.4163 -14.5061 -2.3907 0.9429
0.7399 -12.1906 -2.0120 0.9517
3.1405 -12.8752 -2.1832 0.9477
4.5985 -13.4887 -2.3477 0.9439
5.8940 -13.2742 -2.3927 0.9428
6.9887 -12.5770 -2.3703 0.9433
10.4165 -10.6328 -2.4521 0.9414
11.4400 -9.7608 -2.4774 0.9409
12.2718 -8.7063 -2.4787 0.9408
13.0071 -7.5815 -2.4802 0.9408
14.2593 -2.4547 -2.3836 0.9430
14.4881 0.1180 -2.3868 0.9430
13.1665 1.2873 -2.1794 0.9478
11.1556 5.4538 -2.0456 0.9509
9.0828 6.6690 -1.8563 0.9553
8.1642 7.1989 -1.7932 0.9568
7.1803 9.0722 -1.9060 0.9542
6.4333 9.8150 -1.9333 0.9535
-4.7471 5.9895 -1.2590 0.9695
-10.0240 10.5571 -2.3983 0.9427
-11.7277 8.5989 -2.3957 0.9428
-13.6173 6.6460 -2.4962 0.9404
-14.1468 5.4015 -2.4946 0.9405
-14.5626 4.1154 -2.4930 0.9405
-14.8617 2.7982 -2.4913 0.9405
-14.4754 0.1082 -2.3847 0.9430
-14.4177 -1.1825 -2.3831 0.9430
-14.2452 -2.4621 -2.3815 0.9431
-13.6961 -4.9960 -2.4017 0.9426
-12.5755 -7.3412 -2.3989 0.9427
-11.8641 -8.4290 -2.3975 0.9427
-11.0594 -9.4488 -2.3963 0.9427
-10.1677 -10.3927 -2.3952 0.9428
-9.1963 -11.2534 -2.3942 0.9428
-5.8832 -13.2738 -2.3919 0.9428
-4.6749 -13.7427 -2.3914 0.9429
-3.4299 -14.1028 -2.3910 0.9429
5.4758 -13.4505 -2.3924 0.9428
6.5914 -12.7876 -2.3700 0.9433
7.7085 -12.1532 -2.3709 0.9433
8.7654 -11.4219 -2.3719 0.9433
9.7537 -10.5994 -2.3730 0.9433
11.9913 -9.0837 -2.4783 0.9408
12.7611 -7.9826 -2.4797 0.9408
14.4464 -4.3275 -2.4844 0.9407
14.3840 -1.6238 -2.3847 0.9430
13.9491 3.4851 -2.3686 0.9434
9.1155 3.1646 -1.5896 0.9616
11.5582 5.2097 -2.0886 0.9499
10.4434 5.8797 -1.9744 0.9526
7.5955 7.5247 -1.7614 0.9576
7.0828 8.3958 -1.8096 0.9564
6.7489 9.6263 -1.9367 0.9535
5.9137 10.2773 -1.9534 0.9531
5.0468 14.1091 -2.4686 0.9411
4.6839 18.0273 -3.0684 0.9273
-9.6908 10.8671 -2.3987 0.9427
-10.6162 9.9544 -2.3975 0.9427
-11.4555 8.9630 -2.3962 0.9427
-12.7296 8.2423 -2.4983 0.9404
-13.9743 5.8423 -2.4952 0.9404
-14.4303 4.5695 -2.4936 0.9405
-14.9924 1.9303 -2.4902 0.9406
-13.3778 -5.7800 -2.4008 0.9426
-12.8014 -6.9460 -2.3993 0.9427
-10.4892 -10.0715 -2.3956 0.9428
-8.5257 -11.7652 -2.3936 0.9428
-6.2957 -13.0846 -2.3921 0.9428
-5.1024 -13.5908 -2.3915 0.9428
-1.3217 -14.4518 -2.3907 0.9429
3.5669 -13.0890 -2.2349 0.9465
5.0523 -13.6137 -2.3922 0.9428
7.3240 -12.3865 -2.3706 0.9433
8.4029 -11.6885 -2.3715 0.9433
11.6994 -9.4522 -2.4778 0.9408
14.3008 -4.7757 -2.4838 0.9407
14.0714 -3.3391 -2.3825 0.9431
14.4603 -0.7868 -2.3857 0.9430
14.4827 0.5064 -2.3873 0.9429
10.8914 2.3622 -1.8360 0.9558
12.8913 4.0286 -2.2250 0.9467
7.8997 7.3513 -1.7777 0.9572
6.1932 10.0247 -1.9412 0.9534
6.0384 12.0636 -2.2224 0.9468
5.2848 13.4351 -2.3784 0.9432
5.2554 17.9077 -3.0745 0.9271
-3.1382 8.8790 -1.5514 0.9625
-7.7992 11.2143 -2.2503 0.9461
-12.4684 8.6379 -2.4988 0.9404
-13.1813 7.4869 -2.4973 0.9404
-13.7879 6.2774 -2.4958 0.9404
-14.2837 5.0194 -2.4941 0.9405
-14.6647 3.7229 -2.4925 0.9405
-14.9284 2.3984 -2.4908 0.9405
-14.4702 -0.2797 -2.3843 0.9430
-14.1713 -2.8424 -2.3811 0.9431
-13.5548 -5.3602 -2.4013 0.9426
-11.6321 -8.7426 -2.3972 0.9427
-9.8842 -10.6601 -2.3949 0.9428
-7.8269 -12.2373 -2.3930 0.9428
-6.7021 -12.8827 -2.3923 0.9428
-4.3046 -13.8624 -2.3912 0.9429
-3.0506 -14.1891 -2.3909 0.9429
-0.4809 -14.5040 -2.3907 0.9429
1.7730 -12.1012 -2.0148 0.9516
3.0716 -12.8406 -2.1750 0.9479
5.8348 -13.3002 -2.3926 0.9428
6.9325 -12.6077 -2.3703 0.9433
9.0696 -11.1844 -2.3722 0.9433
12.2326 -8.7606 -2.4787 0.9408
12.9728 -7.6390 -2.4801 0.9408
14.1414 -5.2191 -2.4832 0.9407
14.5601 -3.9395 -2.4849 0.9407
14.2477 -2.5181 -2.3835 0.9430
14.4880 0.0536 -2.3868 0.9430
15.9148 1.4845 -2.6332 0.9373
15.0726 2.7790 -2.5249 0.9398
13.4115 3.7354 -2.2935 0.9451
8.8026 3.3229 -1.5500 0.9626
10.1285 6.0655 -1.9449 0.9533
9.1308 6.6419 -1.8601 0.9553
8.2085 7.1733 -1.7959 0.9568
7.3335 7.6653 -1.7476 0.9579
5.8958 10.9128 -2.0434 0.9510
4.1739 18.0377 -3.0500 0.9277
-10.8774 9.6648 -2.3971 0.9427
-11.6897 8.6513 -2.3958 0.9427
-13.5880 6.7067 -2.4963 0.9404
-14.1231 5.4646 -2.4947 0.9405
-14.8496 2.8644 -2.4914 0.9405
-15.0358 1.5275 -2.4897 0.9406
-14.4232 -1.1184 -2.3832 0.9430
-14.2565 -2.3988 -2.3816 0.9431
-13.9765 -3.6585 -2.3801 0.9431
-13.7187 -4.9351 -2.4018 0.9426
-11.9018 -8.3763 -2.3976 0.9427
-11.1016 -9.3997 -2.3964 0.9427
-7.1022 -12.6682 -2.3926 0.9428
-3.4927 -14.0874 -2.3910 0.9429
0.3079 -12.3585 -2.0366 0.9511
1.3736 -11.9729 -1.9853 0.9523
2.5746 -12.4738 -2.0982 0.9497
3.9519 -13.1065 -2.2552 0.9460
5.4158 -13.4746 -2.3924 0.9428
7.6542 -12.1871 -2.3708 0.9433
8.7143 -11.4605 -2.3718 0.9433
11.0819 -10.1608 -2.4768 0.9409
11.9505 -9.1368 -2.4782 0.9408
12.7251 -8.0391 -2.4796 0.9408
13.3995 -6.8762 -2.4811 0.9408
13.9682 -5.6571 -2.4827 0.9407
14.4265 -4.3916 -2.4843 0.9407
14.1587 -2.9614 -2.3830 0.9430
14.4792 -0.3991 -2.3862 0.9430
14.0415 3.4419 -2.3817 0.9431
12.5745 4.3029 -2.1894 0.9475
11.6168 5.1739 -2.0950 0.9498
10.4965 5.8482 -1.9795 0.9525
9.4721 6.4474 -1.8876 0.9546
8.5224 6.9903 -1.8158 0.9563
7.6386 7.5003 -1.7636 0.9575
7.0813 8.3188 -1.7997 0.9567
6.7938 9.5992 -1.9374 0.9534
5.0903 14.0333 -2.4592 0.9413
4.7680 18.0208 -3.0709 0.9272
-3.4608 9.0150 -1.5908 0.9616
-10.5721 10.0018 -2.3975 0.9427
-13.9485 5.9046 -2.4953 0.9404
-14.4103 4.6338 -2.4937 0.9405
-14.7563 3.3279 -2.4920 0.9405
-14.9842 1.9971 -2.4903 0.9406
-14.4662 0.6251 -2.3854 0.9430
-14.3278 -1.9526 -2.3822 0.9431
-13.8692 -4.5050 -2.4023 0.9426
-13.4038 -5.7205 -2.4008 0.9426
-12.8325 -6.8892 -2.3994 0.9427
-11.3919 -9.0498 -2.3968 0.9427
-9.5938 -10.9197 -2.3946 0.9428
-8.5782 -11.7273 -2.3936 0.9428
-6.3540 -13.0566 -2.3921 0.9428
-5.1628 -13.5682 -2.3916 0.9428
-3.9314 -13.9721 -2.3911 0.9429
-1.3860 -14.4457 -2.3907 0.9429
-0.0833 -13.1284 -2.1628 0.9482
4.9916 -13.6360 -2.3921 0.9428
6.1299 -13.0130 -2.3697 0.9434
7.2686 -12.4187 -2.3705 0.9433
9.3674 -10.9388 -2.3725 0.9433
10.7570 -10.5002 -2.4764 0.9409
12.4651 -8.4311 -2.4791 0.9408
14.2789 -4.8391 -2.4837 0.9407
14.4843 0.4419 -2.3872 0.9429
12.6580 1.5239 -2.1003 0.9496
14.6771 3.1150 -2.4718 0.9410
12.9559 3.9857 -2.2331 0.9465
9.8213 6.2451 -1.9174 0.9539
8.8441 6.8031 -1.8382 0.9558
7.9434 7.3263 -1.7802 0.9571
7.1095 9.4073 -1.9426 0.9533
6.0697 11.9925 -2.2143 0.9470
5.2749 13.2365 -2.3474 0.9439
5.3365 17.8888 -3.0753 0.9271
-7.7694 11.2782 -2.2562 0.9460
-12.4301 8.6936 -2.4989 0.9404
-13.1482 7.5457 -2.4974 0.9404
-13.7603 6.3390 -2.4958 0.9404
-14.8294 1.1059 -2.4498 0.9415
-14.4718 -0.2153 -2.3843 0.9430
-14.1842 -2.7795 -2.3811 0.9431
-14.0063 -4.0703 -2.4028 0.9426
-13.5789 -5.3000 -2.4013 0.9426
-13.0442 -6.4861 -2.3999 0.9427
-10.8441 -9.6925 -2.3960 0.9427
-9.9318 -10.6162 -2.3949 0.9428
-8.9416 -11.4551 -2.3939 0.9428
-4.3663 -13.8432 -2.3913 0.9429
-3.1137 -14.1755 -2.3909 0.9429
-1.8346 -14.3789 -2.3880 0.9429
3.0031 -12.8063 -2.1669 0.9481
4.4383 -13.4083 -2.3267 0.9444
6.8761 -12.6382 -2.3702 0.9433
7.9790 -11.9790 -2.3711 0.9433
9.0195 -11.2244 -2.3721 0.9433
10.0957 -10.4904 -2.3985 0.9427
12.1931 -8.8147 -2.4786 0.9408
12.9383 -7.6965 -2.4801 0.9408
13.5816 -6.5158 -2.4816 0.9408
14.5419 -4.0042 -2.4848 0.9407
14.2359 -2.5814 -2.3834 0.9430
14.4191 -1.3022 -2.3851 0.9430
14.4876 -0.0109 -2.3867 0.9430
13.4986 3.6950 -2.3056 0.9448
9.1789 6.6147 -1.8639 0.9552
7.1518 8.8727 -1.8774 0.9549
5.8753 10.7601 -2.0196 0.9515
5.6397 12.9589 -2.3282 0.9443
4.8230 14.4972 -2.5170 0.9399
4.2583 18.0363 -3.0530 0.9276
-3.8121 9.1863 -1.6385 0.9605
-6.8233 10.5991 -2.0766 0.9502
-9.9301 10.6465 -2.3984 0.9427
-11.6832 8.7273 -2.4024 0.9426
-12.9087 7.9546 -2.4979 0.9404
-13.5585 6.7674 -2.4964 0.9404
-14.0991 5.5275 -2.4948 0.9405
-14.8372 2.9306 -2.4915 0.9405
-14.4749 0.2371 -2.3849 0.9430
-14.4286 -1.0542 -2.3833 0.9430
-14.2675 -2.3354 -2.3817 0.9431
-13.2433 -6.0766 -2.4004 0.9426
-12.6411 -7.2294 -2.3990 0.9427
-8.2599 -11.9517 -2.3934 0.9428
-4.7971 -13.7008 -2.3914 0.9428
-2.2858 -14.3315 -2.3908 0.9429
0.2537 -12.3985 -2.0429 0.9510
2.5102 -12.4415 -2.0909 0.9498
3.8805 -13.0801 -2.2476 0.9462
6.4770 -12.8454 -2.3699 0.9433
7.5997 -12.2208 -2.3708 0.9433
9.6586 -10.6854 -2.3728 0.9433
13.3684 -6.9356 -2.4810 0.9408
14.4063 -4.4556 -2.4842 0.9407
14.3680 -1.7518 -2.3845 0.9430
16.3862 0.9400 -2.7039 0.9356
7.0869 8.2505 -1.7918 0.9569
5.1334 13.9581 -2.4500 0.9415
4.8488 18.0021 -3.0714 0.9272
-3.4050 8.9891 -1.5835 0.9618
-9.5942 10.9534 -2.3988 0.9427
-12.6564 8.3559 -2.4984 0.9404
-13.3433 7.1894 -2.4969 0.9404
-13.9226 5.9667 -2.4954 0.9404
-14.3900 4.6981 -2.4937 0.9405
-14.4638 0.6895 -2.3855 0.9430
-14.3368 -1.8888 -2.3822 0.9431
