ply
format ascii 1.0
element vertex 1595
property float32 x
property float32 y
property float32 z
property float32 I
end_header
4.9923 -4.1080 -2.4776 0.9727
5.6482 -3.1587 -2.4800 0.9727
5.9106 -2.6437 -2.4813 0.9726
6.1262 -2.1072 -2.4827 0.9726
6.4770 -0.4108 -2.4871 0.9726
6.2395 0.7225 -2.4071 0.9735
5.9689 1.8067 -2.3899 0.9736
5.2866 3.3281 -2.3939 0.9736
4.9712 3.7883 -2.3952 0.9736
4.6158 4.2187 -2.3963 0.9736
4.2230 4.6157 -2.3974 0.9736
3.7961 4.9760 -2.3984 0.9735
3.3383 5.2967 -2.3993 0.9735
0.1661 6.2663 -2.4022 0.9735
-2.0352 5.9272 -2.4016 0.9735
-3.0546 5.4688 -2.4005 0.9735
-4.1469 5.0449 -2.5026 0.9724
-4.5785 4.6531 -2.5016 0.9724
-4.9731 4.2243 -2.5005 0.9724
-5.3276 3.7621 -2.4993 0.9724
-5.6391 3.2703 -2.4981 0.9725
-6.1237 2.2139 -2.4954 0.9725
-6.2932 1.6579 -2.4939 0.9725
-6.4799 0.5128 -2.4910 0.9725
-6.4958 -0.0672 -2.4894 0.9726
-6.3728 -1.2188 -2.4864 0.9726
-6.0476 -2.3289 -2.4835 0.9726
-5.3020 -3.2231 -2.3778 0.9738
-4.6402 -4.1097 -2.3754 0.9738
-4.2532 -4.5052 -2.3743 0.9738
-2.4058 -5.7001 -2.3710 0.9738
-1.3542 -6.0343 -2.3700 0.9739
-0.2604 -6.1776 -2.3695 0.9739
0.2916 -6.1761 -2.3694 0.9739
0.8413 -6.1256 -2.3695 0.9739
1.3845 -6.0267 -2.3697 0.9739
2.5394 -5.9328 -2.4731 0.9727
3.0592 -5.6840 -2.4737 0.9727
3.5550 -5.3900 -2.4744 0.9727
4.0229 -5.0531 -2.4752 0.9727
4.4593 -4.6759 -2.4761 0.9727
4.8607 -4.2613 -2.4772 0.9727
6.2405 -1.7488 -2.4836 0.9726
6.4925 -0.0343 -2.4881 0.9726
6.4736 0.5453 -2.4896 0.9726
5.6443 2.6661 -2.3922 0.9736
4.7446 4.0717 -2.3959 0.9736
4.3645 4.4808 -2.3971 0.9736
2.5257 5.7324 -2.4005 0.9735
2.0048 5.9363 -2.4011 0.9735
1.4676 6.0927 -2.4016 0.9735
0.9185 6.2002 -2.4020 0.9735
-0.1978 6.2655 -2.4022 0.9735
-0.7558 6.2228 -2.4022 0.9735
-1.3078 6.1301 -2.4020 0.9735
-1.8491 5.9882 -2.4017 0.9735
-3.8316 4.9702 -2.4050 0.9735
-5.2083 3.9274 -2.4998 0.9724
-5.8173 2.9366 -2.4972 0.9725
-6.3763 1.2895 -2.4930 0.9725
-6.4621 0.7152 -2.4915 0.9725
-6.4962 0.1359 -2.4900 0.9726
-6.4784 -0.4438 -2.4885 0.9726
-6.1187 -2.1392 -2.4840 0.9726
-5.9001 -2.6749 -2.4825 0.9726
-5.4625 -3.0912 -2.4053 0.9735
-5.1043 -3.5242 -2.3770 0.9738
-3.9836 -4.7431 -2.3737 0.9738
-3.5432 -5.0775 -2.3727 0.9738
-3.0752 -5.3714 -2.3719 0.9738
-2.0707 -5.8292 -2.3706 0.9738
1.1954 -6.0668 -2.3696 0.9739
3.3845 -5.4979 -2.4741 0.9727
3.8626 -5.1757 -2.4749 0.9727
4.7244 -4.4105 -2.4768 0.9727
5.4379 -3.5041 -2.4791 0.9727
5.7317 -3.0067 -2.4804 0.9727
5.9803 -2.4848 -2.4817 0.9726
6.1816 -1.9426 -2.4831 0.9726
6.3339 -1.3843 -2.4846 0.9726
6.4359 -0.8143 -2.4860 0.9726
6.4868 -0.2371 -2.4875 0.9726
6.4861 0.3426 -2.4891 0.9726
5.7237 2.4879 -2.3917 0.9736
4.8687 3.9208 -2.3955 0.9736
4.5017 4.3415 -2.3967 0.9736
3.1955 5.3848 -2.3996 0.9735
1.6572 6.0435 -2.4015 0.9735
-2.1932 5.8702 -2.4014 0.9735
-2.7074 5.6500 -2.4009 0.9735
-3.6861 5.1038 -2.4126 0.9734
-5.0838 4.0890 -2.5002 0.9724
-5.7238 3.1175 -2.4977 0.9725
-6.1798 2.0487 -2.4950 0.9725
-6.4379 0.9170 -2.4920 0.9725
-6.4901 0.3389 -2.4905 0.9725
-6.4391 -0.8186 -2.4875 0.9726
-6.1838 -1.9474 -2.4845 0.9726
-5.9820 -2.4897 -2.4830 0.9726
-4.5278 -4.2320 -2.3751 0.9738
-3.7007 -4.9649 -2.3730 0.9738
-2.7578 -5.5397 -2.3714 0.9738
-2.2521 -5.7621 -2.3708 0.9738
-1.7287 -5.9387 -2.3703 0.9739
-1.1920 -6.0681 -2.3699 0.9739
-0.0948 -6.1823 -2.3694 0.9739
0.4570 -6.1661 -2.3694 0.9739
1.0052 -6.1010 -2.3695 0.9739
1.5621 -6.0519 -2.3952 0.9736
2.1635 -6.0790 -2.4727 0.9727
3.2107 -5.6004 -2.4739 0.9727
4.9737 -4.1301 -2.4775 0.9727
5.8986 -2.6700 -2.4812 0.9726
6.4923 0.1397 -2.4885 0.9726
6.2847 0.6994 -2.4233 0.9733
6.1080 1.2391 -2.3884 0.9737
5.9767 1.7800 -2.3898 0.9736
4.9879 3.7660 -2.3951 0.9736
4.6344 4.1980 -2.3963 0.9736
4.2435 4.5967 -2.3974 0.9736
3.8181 4.9589 -2.3984 0.9735
2.8783 5.5623 -2.4001 0.9735
1.8451 5.9883 -2.4013 0.9735
1.3039 6.1301 -2.4017 0.9735
0.7520 6.2228 -2.4020 0.9735
-0.9223 6.2002 -2.4022 0.9735
-1.4715 6.0926 -2.4019 0.9735
-2.0088 5.9362 -2.4016 0.9735
-2.5297 5.7323 -2.4011 0.9735
-3.0302 5.4824 -2.4005 0.9735
-3.5061 5.1887 -2.3998 0.9735
-4.1244 5.0634 -2.5026 0.9724
-4.5578 4.6735 -2.5017 0.9724
-4.9544 4.2465 -2.5006 0.9724
-5.3109 3.7859 -2.4994 0.9724
-5.8930 2.7792 -2.4968 0.9725
-6.2859 1.6861 -2.4940 0.9725
-6.4962 -0.0382 -2.4895 0.9726
-6.4630 -0.6171 -2.4880 0.9726
-6.2430 -1.7535 -2.4850 0.9726
-5.8253 -2.8316 -2.4821 0.9726
-3.8546 -4.8475 -2.3734 0.9738
-2.4312 -5.6894 -2.3710 0.9738
-1.3811 -6.0282 -2.3700 0.9739
-0.8378 -6.1266 -2.3697 0.9739
0.2641 -6.1773 -2.3694 0.9739
0.8140 -6.1293 -2.3695 0.9739
1.9724 -6.1432 -2.4726 0.9727
3.0338 -5.6975 -2.4736 0.9727
4.0003 -5.0709 -2.4752 0.9727
4.4383 -4.6957 -2.4761 0.9727
5.2066 -3.8357 -2.4783 0.9727
6.0457 -2.3240 -2.4821 0.9726
6.4921 -0.0632 -2.4880 0.9726
6.4758 0.5164 -2.4895 0.9726
5.8656 2.1246 -2.3907 0.9736
5.6560 2.6408 -2.3921 0.9736
5.1023 3.6076 -2.3947 0.9736
4.7626 4.0504 -2.3959 0.9736
4.3843 4.4612 -2.3970 0.9736
3.9707 4.8365 -2.3980 0.9736
3.5248 5.1734 -2.3990 0.9735
3.0504 5.4690 -2.3998 0.9735
1.4947 6.0861 -2.4016 0.9735
0.9461 6.1960 -2.4019 0.9735
0.3897 6.2563 -2.4022 0.9735
-0.1699 6.2663 -2.4022 0.9735
-0.7281 6.2261 -2.4022 0.9735
-1.2805 6.1359 -2.4020 0.9735
-1.8224 5.9965 -2.4017 0.9735
-2.3495 5.8090 -2.4013 0.9735
-2.8577 5.5749 -2.4007 0.9735
-3.8004 4.9755 -2.3993 0.9735
-5.5198 3.4703 -2.4986 0.9725
-6.0421 2.4317 -2.4959 0.9725
-6.2314 1.8820 -2.4945 0.9725
-6.4805 -0.4149 -2.4885 0.9726
-6.4137 -0.9907 -2.4870 0.9726
-6.1284 -2.1120 -2.4840 0.9726
-2.6081 -5.6111 -2.3712 0.9738
0.0709 -6.1825 -2.3694 0.9739
1.1684 -6.0720 -2.3696 0.9739
1.7581 -6.1278 -2.4430 0.9731
3.3599 -5.5128 -2.4741 0.9727
3.8394 -5.1928 -2.4749 0.9727
4.2888 -4.8314 -2.4758 0.9727
4.7046 -4.4314 -2.4768 0.9727
5.0833 -3.9959 -2.4779 0.9727
5.4221 -3.5283 -2.4790 0.9727
6.3274 -1.4125 -2.4845 0.9726
6.4321 -0.8429 -2.4860 0.9726
6.4855 -0.2660 -2.4875 0.9726
6.0737 1.4025 -2.3888 0.9737
5.9279 1.9398 -2.3902 0.9736
4.8860 3.8989 -2.3955 0.9736
4.5209 4.3213 -2.3966 0.9736
4.1193 4.7094 -2.3977 0.9736
1.6841 6.0360 -2.4014 0.9735
-1.6342 6.0508 -2.4018 0.9735
-2.1671 5.8800 -2.4015 0.9735
-2.6822 5.6620 -2.4009 0.9735
-3.1757 5.3988 -2.4003 0.9735
-3.6435 5.0924 -2.3996 0.9735
-4.2581 4.9505 -2.5023 0.9724
-4.6808 4.5491 -2.5013 0.9724
-5.9644 2.6199 -2.4964 0.9725
-6.1708 2.0763 -2.4950 0.9725
-6.3277 1.5167 -2.4936 0.9725
-6.4340 0.9457 -2.4921 0.9725
-6.4887 0.3679 -2.4906 0.9725
-6.4917 -0.2122 -2.4891 0.9726
-6.3430 -1.3606 -2.4860 0.9726
-6.1926 -1.9198 -2.4846 0.9726
-5.2279 -3.3404 -2.3775 0.9738
-4.9066 -3.7914 -2.3763 0.9738
-4.5467 -4.2119 -2.3751 0.9738
-4.1511 -4.5986 -2.3741 0.9738
-2.7825 -5.5274 -2.3715 0.9738
-2.2778 -5.7520 -2.3708 0.9738
-1.7552 -5.9310 -2.3703 0.9739
0.4295 -6.1680 -2.3694 0.9739
0.9780 -6.1054 -2.3695 0.9739
2.6714 -5.8749 -2.4732 0.9727
3.6748 -5.3096 -2.4746 0.9727
4.1352 -4.9624 -2.4754 0.9727
5.6196 -3.2088 -2.4799 0.9727
6.1069 -2.1616 -2.4825 0.9726
6.2789 -1.6092 -2.4840 0.9726
6.4727 -0.4685 -2.4869 0.9726
6.1133 1.2118 -2.3883 0.9737
5.8076 2.2814 -2.3911 0.9736
5.5841 2.7919 -2.3925 0.9736
5.3158 3.2806 -2.3938 0.9736
4.6529 4.1772 -2.3962 0.9736
3.8401 4.9418 -2.3983 0.9735
2.9030 5.5494 -2.4000 0.9735
2.3971 5.7878 -2.4007 0.9735
1.3312 6.1242 -2.4017 0.9735
0.7798 6.2193 -2.4020 0.9735
-0.8947 6.2042 -2.4022 0.9735
-3.0058 5.4960 -2.4005 0.9735
-4.5370 4.6939 -2.5017 0.9724
-5.6100 3.3206 -2.4982 0.9725
-6.2785 1.7141 -2.4941 0.9725
-6.4026 1.1466 -2.4926 0.9725
-6.4754 0.5706 -2.4911 0.9725
-6.3838 -1.1620 -2.4866 0.9726
-6.2509 -1.7257 -2.4851 0.9726
-6.0685 -2.2750 -2.4836 0.9726
-3.8762 -4.8304 -2.3734 0.9738
-2.9542 -5.4384 -2.3717 0.9738
-1.4079 -6.0221 -2.3700 0.9739
-0.8651 -6.1228 -2.3697 0.9739
-0.3155 -6.1751 -2.3695 0.9739
0.2365 -6.1784 -2.3694 0.9739
0.7867 -6.1328 -2.3695 0.9739
1.3307 -6.0387 -2.3697 0.9739
1.9449 -6.1519 -2.4726 0.9727
3.0083 -5.7109 -2.4736 0.9727
3.5067 -5.4213 -2.4743 0.9727
3.9776 -5.0886 -2.4751 0.9727
4.4173 -4.7153 -2.4760 0.9727
5.1893 -3.8588 -2.4782 0.9727
5.5155 -3.3822 -2.4794 0.9727
6.0351 -2.3509 -2.4821 0.9726
6.3642 -1.2426 -2.4849 0.9726
6.4915 -0.0922 -2.4879 0.9726
6.4778 0.4875 -2.4894 0.9726
6.0350 1.5651 -2.3892 0.9736
5.1182 3.5848 -2.3946 0.9736
3.9921 4.8186 -2.3980 0.9736
3.0747 5.4553 -2.3998 0.9735
2.5766 5.7095 -2.4005 0.9735
2.0576 5.9181 -2.4011 0.9735
0.4176 6.2544 -2.4021 0.9735
-0.1420 6.2670 -2.4022 0.9735
-1.2531 6.1416 -2.4020 0.9735
-1.7956 6.0046 -2.4017 0.9735
-2.3237 5.8194 -2.4013 0.9735
-2.8328 5.5877 -2.4008 0.9735
-4.3887 4.8341 -2.5021 0.9724
-5.1733 3.9739 -2.4999 0.9724
-6.0314 2.4587 -2.4960 0.9725
-6.3650 1.3464 -2.4931 0.9725
-6.4951 0.1938 -2.4901 0.9725
-6.4183 -0.9621 -2.4871 0.9726
-6.3031 -1.5298 -2.4856 0.9726
-6.1379 -2.0847 -2.4841 0.9726
-5.9240 -2.6224 -2.4827 0.9726
-5.5239 -3.0612 -2.4202 0.9733
-5.1358 -3.4787 -2.3771 0.9738
-4.4317 -4.3316 -2.3748 0.9738
-3.5885 -5.0459 -2.3728 0.9738
-2.6331 -5.5995 -2.3713 0.9738
-1.0560 -6.0931 -2.3698 0.9739
-0.5083 -6.1623 -2.3695 0.9739
0.5946 -6.1543 -2.3694 0.9739
2.8281 -5.8016 -2.4734 0.9727
3.3352 -5.5277 -2.4740 0.9727
4.2672 -4.8504 -2.4757 0.9727
4.6847 -4.4522 -2.4767 0.9727
5.9576 -2.5379 -2.4816 0.9726
6.1636 -1.9975 -2.4830 0.9726
6.3209 -1.4406 -2.4844 0.9726
6.4280 -0.8716 -2.4859 0.9726
6.4885 0.2847 -2.4889 0.9726
5.9363 1.9133 -2.3902 0.9736
-0.1923 -5.7887 -2.3705 0.9753
0.3247 -5.7827 -2.3704 0.9753
0.8425 -5.7531 -2.3797 0.9752
1.4055 -5.8775 -2.4733 0.9742
1.9244 -5.7294 -2.4737 0.9742
2.4282 -5.5359 -2.4741 0.9742
3.3749 -5.0190 -2.4754 0.9742
3.8104 -4.6995 -2.4762 0.9742
5.2218 -3.0753 -2.4803 0.9741
5.4780 -2.5986 -2.4815 0.9741
5.8587 -1.5856 -2.4841 0.9741
5.9801 -1.0573 -2.4855 0.9741
6.0796 0.0221 -2.4883 0.9741
6.0569 0.5646 -2.4897 0.9741
4.7311 3.4410 -2.3943 0.9750
4.4073 3.8511 -2.3954 0.9750
3.6560 4.5766 -2.3974 0.9750
2.7865 5.1569 -2.3990 0.9750
0.8079 5.8104 -2.4009 0.9750
0.2864 5.8598 -2.4011 0.9750
-0.2374 5.8621 -2.4012 0.9750
-0.7593 5.8175 -2.4011 0.9750
-2.2715 5.4068 -2.4002 0.9750
-3.1945 4.9148 -2.3990 0.9750
-3.7753 4.8080 -2.5019 0.9739
-4.1877 4.4505 -2.5010 0.9739
-5.2097 3.1789 -2.4978 0.9740
-5.6860 2.2005 -2.4953 0.9740
-6.0556 0.6156 -2.4912 0.9740
-6.0829 0.0730 -2.4898 0.9741
-6.0617 -0.4696 -2.4883 0.9741
-5.5025 -2.5540 -2.4828 0.9741
-5.2501 -3.0331 -2.4815 0.9741
-4.7947 -3.3740 -2.3995 0.9750
-4.4314 -3.7515 -2.3763 0.9752
-4.0773 -4.1300 -2.3753 0.9752
-3.2762 -4.7851 -2.3735 0.9752
-2.8354 -5.0567 -2.3727 0.9753
-0.8873 -5.7242 -2.3707 0.9753
0.6597 -5.7542 -2.3705 0.9753
1.7443 -5.7865 -2.4735 0.9742
2.7457 -5.3865 -2.4745 0.9742
3.2161 -5.1215 -2.4751 0.9742
4.0775 -4.4715 -2.4767 0.9742
4.4618 -4.0915 -2.4777 0.9742
4.8110 -3.6788 -2.4787 0.9742
5.6214 -2.2771 -2.4823 0.9741
5.8052 -1.7676 -2.4836 0.9741
5.9429 -1.2434 -2.4850 0.9741
6.0335 -0.7088 -2.4864 0.9741
6.0762 -0.1679 -2.4878 0.9741
6.0704 0.3750 -2.4892 0.9741
5.8396 0.8886 -2.4175 0.9748
5.6689 1.3892 -2.3888 0.9751
4.1777 4.1015 -2.3961 0.9750
3.3851 4.7822 -2.3980 0.9750
2.9460 5.0668 -2.3988 0.9750
2.0000 5.5125 -2.4000 0.9750
0.4694 5.8479 -2.4011 0.9750
-0.0541 5.8667 -2.4012 0.9750
-0.5771 5.8384 -2.4012 0.9750
-1.0955 5.7634 -2.4010 0.9750
-1.6051 5.6421 -2.4008 0.9750
-2.5811 5.2652 -2.3999 0.9750
-3.0396 5.0127 -2.3993 0.9750
-4.0470 4.5798 -2.5013 0.9739
-4.7925 3.7848 -2.4993 0.9740
-5.1087 3.3407 -2.4982 0.9740
-5.3837 2.8704 -2.4970 0.9740
-5.9421 1.3405 -2.4931 0.9740
-6.0346 0.8047 -2.4917 0.9740
-6.0789 0.2631 -2.4903 0.9740
-6.0746 -0.2800 -2.4888 0.9741
-5.9215 -1.3533 -2.4860 0.9741
-5.7740 -1.8750 -2.4846 0.9741
-5.5807 -2.3813 -2.4833 0.9741
-4.9909 -3.2837 -2.4451 0.9745
-3.4245 -4.6810 -2.3738 0.9752
-2.0612 -5.4158 -2.3717 0.9753
-0.5537 -5.7656 -2.3706 0.9753
1.5625 -5.8379 -2.4734 0.9742
2.0773 -5.6761 -2.4738 0.9742
3.5085 -4.9272 -2.4756 0.9742
5.5465 -2.4512 -2.4819 0.9741
5.7460 -1.9478 -2.4831 0.9741
6.0667 -0.3576 -2.4873 0.9741
6.0406 0.7268 -2.4901 0.9740
5.5808 1.7164 -2.3897 0.9751
5.4084 2.2086 -2.3910 0.9751
3.1026 4.9717 -2.3985 0.9750
2.6476 5.2302 -2.3992 0.9750
1.6770 5.6200 -2.4003 0.9750
-0.3944 5.8537 -2.4012 0.9750
-1.9296 5.5389 -2.4005 0.9750
-2.4154 5.3437 -2.4001 0.9750
-3.3247 4.8270 -2.3988 0.9750
-4.3049 4.3362 -2.5007 0.9739
-5.2923 3.0377 -2.4974 0.9740
-5.7420 2.0470 -2.4949 0.9740
-5.8984 1.5259 -2.4935 0.9740
-6.0077 0.9931 -2.4922 0.9740
-6.0689 0.4530 -2.4908 0.9740
-6.0817 -0.0900 -2.4893 0.9741
-6.0459 -0.6317 -2.4879 0.9741
-5.8309 -1.6940 -2.4851 0.9741
-5.6535 -2.2061 -2.4837 0.9741
-5.4313 -2.7002 -2.4824 0.9741
-5.1661 -3.1722 -2.4812 0.9741
-4.3287 -3.8684 -2.3760 0.9752
-3.9647 -4.2373 -2.3750 0.9752
-3.5696 -4.5723 -2.3741 0.9752
-2.2297 -5.3492 -2.3719 0.9753
-1.7433 -5.5255 -2.3714 0.9753
-1.2433 -5.6580 -2.3709 0.9753
-0.7336 -5.7457 -2.3707 0.9753
-0.2182 -5.7878 -2.3705 0.9753
0.2990 -5.7841 -2.3704 0.9753
0.8149 -5.7430 -2.3740 0.9752
1.8988 -5.7379 -2.4736 0.9742
2.8893 -5.3114 -2.4746 0.9742
3.3525 -5.0339 -2.4753 0.9742
3.7893 -4.7163 -2.4761 0.9742
4.5704 -3.9709 -2.4780 0.9742
5.2079 -3.0985 -2.4802 0.9741
5.6813 -2.1260 -2.4827 0.9741
5.8514 -1.6117 -2.4840 0.9741
5.9751 -1.0839 -2.4854 0.9741
6.0514 -0.5470 -2.4868 0.9741
5.7424 1.0319 -2.3879 0.9751
5.2730 2.5195 -2.3918 0.9751
5.0299 2.9813 -2.3931 0.9750
4.7462 3.4198 -2.3942 0.9750
4.4244 3.8313 -2.3954 0.9750
4.0668 4.2125 -2.3964 0.9750
3.6762 4.5603 -2.3973 0.9750
1.8516 5.5645 -2.4002 0.9750
1.3482 5.7085 -2.4006 0.9750
0.8338 5.8067 -2.4009 0.9750
0.3125 5.8585 -2.4011 0.9750
-0.2113 5.8631 -2.4012 0.9750
-0.7334 5.8208 -2.4011 0.9750
-1.2495 5.7318 -2.4010 0.9750
-1.7556 5.5968 -2.4007 0.9750
-2.7210 5.1938 -2.3997 0.9750
-3.7539 4.8248 -2.5020 0.9739
-4.1678 4.4692 -2.5011 0.9739
-4.8916 3.6545 -2.4990 0.9740
-5.1956 3.2022 -2.4979 0.9740
-5.6762 2.2258 -2.4954 0.9740
-5.8490 1.7098 -2.4940 0.9740
-6.0827 0.1001 -2.4898 0.9740
-5.9969 -0.9811 -2.4870 0.9741
-5.5140 -2.5296 -2.4829 0.9741
-4.0958 -4.1119 -2.3753 0.9752
-3.7112 -4.4590 -2.3744 0.9752
-2.8579 -5.0440 -2.3727 0.9753
-2.3960 -5.2774 -2.3721 0.9753
-1.4196 -5.6167 -2.3711 0.9753
-0.9128 -5.7202 -2.3708 0.9753
-0.3989 -5.7783 -2.3705 0.9753
1.7185 -5.7942 -2.4735 0.9742
2.7217 -5.3986 -2.4744 0.9742
3.6396 -4.8318 -2.4758 0.9742
4.4434 -4.1112 -2.4776 0.9742
4.7944 -3.7001 -2.4787 0.9742
5.1077 -3.2592 -2.4798 0.9742
5.3806 -2.7920 -2.4810 0.9741
5.7971 -1.7934 -2.4835 0.9741
6.0752 -0.1950 -2.4877 0.9741
6.0718 0.3479 -2.4891 0.9741
5.8797 0.8678 -2.4325 0.9746
5.5337 1.8656 -2.3901 0.9751
4.1958 4.0827 -2.3960 0.9750
3.8165 4.4425 -2.3970 0.9750
3.4063 4.7670 -2.3979 0.9750
2.9685 5.0535 -2.3987 0.9750
2.5067 5.2997 -2.3994 0.9750
2.0245 5.5035 -2.4000 0.9750
1.5258 5.6632 -2.4005 0.9750
1.0148 5.7776 -2.4008 0.9750
0.4954 5.8457 -2.4011 0.9750
-0.0279 5.8669 -2.4012 0.9750
-0.5511 5.8410 -2.4012 0.9750
-1.5799 5.6492 -2.4008 0.9750
-2.5576 5.2767 -2.3999 0.9750
-4.7757 3.8062 -2.4994 0.9740
-5.0939 3.3636 -2.4983 0.9740
-5.3710 2.8944 -2.4971 0.9740
-5.7938 1.8921 -2.4945 0.9740
-5.9362 1.3670 -2.4931 0.9740
-6.0778 0.2902 -2.4903 0.9740
-4.2229 -3.9825 -2.3757 0.9752
-3.0145 -4.9528 -2.3730 0.9753
-2.0854 -5.4066 -2.3717 0.9753
-1.5945 -5.5699 -2.3712 0.9753
-1.0912 -5.6891 -2.3709 0.9753
-0.5793 -5.7631 -2.3706 0.9753
2.5514 -5.4806 -2.4742 0.9742
3.0308 -5.2325 -2.4748 0.9742
3.4864 -4.9427 -2.4755 0.9742
4.3122 -4.2475 -2.4773 0.9742
5.2898 -2.9583 -2.4806 0.9741
5.8934 -1.4545 -2.4844 0.9741
6.0785 0.1579 -2.4886 0.9741
5.7137 1.1856 -2.3883 0.9751
5.4181 2.1844 -2.3909 0.9751
4.9489 3.1155 -2.3934 0.9750
4.6535 3.5463 -2.3946 0.9750
3.5532 4.6576 -2.3976 0.9750
2.6708 5.2182 -2.3992 0.9750
1.7020 5.6124 -2.4003 0.9750
0.6779 5.8272 -2.4010 0.9750
-0.3683 5.8554 -2.4012 0.9750
-1.9048 5.5475 -2.4006 0.9750
-2.3916 5.3545 -2.4001 0.9750
-2.8589 5.1186 -2.3995 0.9750
-3.3032 4.8419 -2.3989 0.9750
-3.8815 4.7220 -2.5017 0.9739
-4.6551 3.9542 -2.4998 0.9739
-4.9871 3.5217 -2.4987 0.9740
-5.2788 3.0614 -2.4975 0.9740
-5.5281 2.5771 -2.4963 0.9740
-5.7329 2.0726 -2.4950 0.9740
-6.0670 0.4801 -2.4908 0.9740
-6.0488 -0.6048 -2.4880 0.9741
-5.9674 -1.1413 -2.4866 0.9741
-5.6634 -2.1810 -2.4838 0.9741
-5.4434 -2.6760 -2.4825 0.9741
-4.6741 -3.4478 -2.3771 0.9752
-4.3460 -3.8491 -2.3760 0.9752
-3.9836 -4.2197 -2.3750 0.9752
-3.5900 -4.5563 -2.3741 0.9752
-2.7215 -5.1184 -2.3725 0.9753
-1.7679 -5.5178 -2.3714 0.9753
-0.7592 -5.7424 -2.3707 0.9753
-0.2439 -5.7868 -2.3705 0.9753
0.2732 -5.7853 -2.3704 0.9753
1.3530 -5.8897 -2.4733 0.9742
1.8732 -5.7463 -2.4736 0.9742
2.3787 -5.5573 -2.4741 0.9742
3.3299 -5.0487 -2.4753 0.9742
3.7681 -4.7331 -2.4761 0.9742
4.1768 -4.3796 -2.4769 0.9742
5.1939 -3.1216 -2.4801 0.9741
6.0487 -0.5739 -2.4867 0.9741
6.0793 -0.0321 -2.4881 0.9741
5.7468 1.0063 -2.3878 0.9751
5.6373 1.5157 -2.3891 0.9751
5.2840 2.4959 -2.3918 0.9751
5.0430 2.9588 -2.3930 0.9750
4.4413 3.8115 -2.3953 0.9750
4.0854 4.1942 -2.3963 0.9750
3.6965 4.5437 -2.3973 0.9750
2.8323 5.1317 -2.3989 0.9750
1.8764 5.5561 -2.4002 0.9750
1.3736 5.7024 -2.4006 0.9750
0.8596 5.8030 -2.4009 0.9750
0.3386 5.8570 -2.4011 0.9750
-0.1851 5.8640 -2.4012 0.9750
-0.7074 5.8240 -2.4011 0.9750
-1.2240 5.7373 -2.4010 0.9750
-1.7306 5.6046 -2.4007 0.9750
-2.2233 5.4270 -2.4003 0.9750
-3.7325 4.8416 -2.5020 0.9739
-4.1479 4.4878 -2.5011 0.9739
-4.5299 4.0983 -2.5001 0.9739
-4.8753 3.6764 -2.4991 0.9740
-5.1814 3.2254 -2.4979 0.9740
-5.4458 2.7490 -2.4967 0.9740
-5.6664 2.2512 -2.4954 0.9740
-5.8415 1.7359 -2.4941 0.9740
-6.0502 0.6696 -2.4913 0.9740
-6.0660 -0.4155 -2.4885 0.9741
-5.8890 -1.4850 -2.4857 0.9741
-5.7299 -2.0033 -2.4843 0.9741
-5.5254 -2.5050 -2.4829 0.9741
-4.8489 -3.3478 -2.4116 0.9749
-4.1142 -4.0937 -2.3754 0.9752
-3.3188 -4.7559 -2.3735 0.9752
-1.9397 -5.4602 -2.3715 0.9753
-0.9383 -5.7161 -2.3708 0.9753
-0.4247 -5.7765 -2.3705 0.9753
0.0922 -5.7911 -2.3705 0.9753
0.6084 -5.7598 -2.3705 0.9753
1.6926 -5.8017 -2.4735 0.9742
2.6975 -5.4107 -2.4744 0.9742
3.1702 -5.1498 -2.4750 0.9742
4.0374 -4.5075 -2.4766 0.9742
4.4250 -4.1310 -2.4776 0.9742
4.7778 -3.7214 -2.4786 0.9742
5.0930 -3.2819 -2.4797 0.9742
5.3680 -2.8159 -2.4809 0.9741
5.7889 -1.8192 -2.4835 0.9741
5.9313 -1.2963 -2.4848 0.9741
6.0266 -0.7625 -2.4862 0.9741
5.6808 1.3385 -2.3887 0.9751
5.5418 1.8409 -2.3900 0.9751
5.1321 2.7993 -2.3926 0.9751
4.2139 4.0639 -2.3960 0.9750
3.4275 4.7517 -2.3979 0.9750
2.5303 5.2884 -2.3994 0.9750
2.0490 5.4944 -2.4000 0.9750
1.5510 5.6563 -2.4005 0.9750
1.0405 5.7730 -2.4008 0.9750
-0.0018 5.8669 -2.4012 0.9750
-1.5547 5.6562 -2.4008 0.9750
-2.0527 5.4942 -2.4004 0.9750
-2.9949 5.0398 -2.3993 0.9750
-4.4003 4.2385 -2.5005 0.9739
-5.0789 3.3863 -2.4983 0.9740
-5.9302 1.3935 -2.4932 0.9740
-6.0276 0.8586 -2.4918 0.9740
-6.0773 -0.2258 -2.4890 0.9741
-6.0295 -0.7665 -2.4876 0.9741
-5.7908 -1.8236 -2.4848 0.9741
-5.3689 -2.8204 -2.4821 0.9741
-5.0503 -3.2587 -2.4599 0.9744
-4.5794 -3.5712 -2.3768 0.9752
-4.2407 -3.9637 -2.3757 0.9752
-3.4663 -4.6504 -2.3738 0.9752
-3.0366 -4.9394 -2.3730 0.9753
-2.1095 -5.3974 -2.3717 0.9753
-1.6193 -5.5629 -2.3712 0.9753
-1.1165 -5.6842 -2.3709 0.9753
-0.0888 -5.7912 -2.3705 0.9753
0.4296 -5.7971 -2.3791 0.9752
0.9546 -5.7938 -2.4032 0.9749
2.5269 -5.4919 -2.4742 0.9742
3.0074 -5.2459 -2.4748 0.9742
3.4643 -4.9581 -2.4755 0.9742
3.8940 -4.6308 -2.4763 0.9742
4.2931 -4.2666 -2.4772 0.9742
4.6585 -3.8683 -2.4782 0.9742
5.2764 -2.9817 -2.4805 0.9741
5.5241 -2.5005 -2.4817 0.9741
5.7281 -1.9988 -2.4830 0.9741
5.8867 -1.4807 -2.4844 0.9741
5.9987 -0.9503 -2.4857 0.9741
6.0465 0.6729 -2.4900 0.9740
5.5956 1.6665 -2.3895 0.9751
5.4276 2.1601 -2.3909 0.9751
4.9626 3.0933 -2.3934 0.9750
3.9721 4.3027 -2.3966 0.9750
3.5738 4.6416 -2.3976 0.9750
3.1467 4.9436 -2.3984 0.9750
1.2204 5.7374 -2.4007 0.9750
-0.3422 5.8570 -2.4012 0.9750
-1.3772 5.7023 -2.4009 0.9750
-1.8801 5.5560 -2.4006 0.9750
-2.3677 5.3651 -2.4001 0.9750
-2.8362 5.1314 -2.3996 0.9750
-3.8604 4.7394 -2.5017 0.9739
-4.2662 4.3746 -2.5008 0.9739
-4.9714 3.5440 -2.4987 0.9740
-5.2653 3.0850 -2.4976 0.9740
-5.7238 2.0982 -2.4950 0.9740
-5.8850 1.5785 -2.4937 0.9740
-5.9989 1.0467 -2.4923 0.9740
-6.0826 -0.0358 -2.4895 0.9741
-5.9726 -1.1147 -2.4866 0.9741
-5.6732 -2.1557 -2.4839 0.9741
-5.1945 -3.1262 -2.4813 0.9741
-4.6896 -3.4270 -2.3772 0.9752
-3.6104 -4.5404 -2.3741 0.9752
-3.1899 -4.8426 -2.3733 0.9752
-2.7443 -5.1062 -2.3726 0.9753
-1.7925 -5.5099 -2.3714 0.9753
-0.2697 -5.7857 -2.3705 0.9753
1.3267 -5.8956 -2.4733 0.9742
1.8476 -5.7546 -2.4736 0.9742
2.3539 -5.5678 -2.4740 0.9742
2.8418 -5.3368 -2.4746 0.9742
5.4423 -2.6714 -2.4813 0.9741
5.6618 -2.1765 -2.4826 0.9741
5.8365 -1.6637 -2.4839 0.9741
5.9649 -1.1371 -2.4852 0.9741
6.0460 -0.6009 -2.4866 0.9741
6.0789 -0.0592 -2.4881 0.9741
6.0634 0.4835 -2.4895 0.9741
5.6438 1.4905 -2.3891 0.9751
5.4914 1.9891 -2.3904 0.9751
5.0560 2.9362 -2.3929 0.9750
4.7763 3.3772 -2.3941 0.9750
4.4581 3.7915 -2.3952 0.9750
3.7167 4.5271 -2.3973 0.9750
3.2993 4.8423 -2.3981 0.9750
2.8551 5.1189 -2.3989 0.9750
2.3878 5.3547 -2.3996 0.9750
1.9012 5.5476 -2.4001 0.9750
1.3990 5.6962 -2.4006 0.9750
0.3647 5.8554 -2.4011 0.9750
-0.1590 5.8648 -2.4012 0.9750
-1.1984 5.7427 -2.4010 0.9750
-1.7056 5.6123 -2.4007 0.9750
-2.1991 5.4369 -2.4003 0.9750
-3.7109 4.8583 -2.5020 0.9739
-4.5117 4.1186 -2.5002 0.9739
-5.6565 2.2765 -2.4955 0.9740
-5.8338 1.7620 -2.4942 0.9740
-6.0819 0.1543 -2.4900 0.9740
-6.0680 -0.3885 -2.4886 0.9741
-6.0057 -0.9277 -2.4871 0.9741
-5.8957 -1.4588 -2.4857 0.9741
-4.4815 -3.6922 -2.3765 0.9752
-3.7510 -4.4260 -2.3745 0.9752
-2.9029 -5.0185 -2.3728 0.9753
-2.4430 -5.2559 -2.3721 0.9753
-1.4696 -5.6040 -2.3711 0.9753
-0.9638 -5.7119 -2.3708 0.9753
-0.4504 -5.7746 -2.3706 0.9753
0.0664 -5.7914 -2.3705 0.9753
0.5827 -5.7625 -2.3705 0.9753
3.1471 -5.1638 -2.4750 0.9742
4.0171 -4.5254 -2.4766 0.9742
4.4064 -4.1506 -2.4775 0.9742
5.0782 -3.3045 -2.4797 0.9742
5.5900 -2.3519 -2.4821 0.9741
5.7805 -1.8449 -2.4834 0.9741
5.9253 -1.3227 -2.4848 0.9741
6.0743 0.2937 -2.4890 0.9741
5.9728 0.8272 -2.4679 0.9743
5.6866 1.3131 -2.3886 0.9751
5.5498 1.8161 -2.3899 0.9751
5.3687 2.3052 -2.3912 0.9751
4.8787 3.2257 -2.3937 0.9750
4.5737 3.6498 -2.3949 0.9750
4.2318 4.0450 -2.3959 0.9750
3.8558 4.4081 -2.3969 0.9750
3.0134 5.0267 -2.3986 0.9750
2.5538 5.2770 -2.3994 0.9750
2.0734 5.4851 -2.3999 0.9750
0.5475 5.8410 -2.4011 0.9750
-0.4990 5.8456 -2.4012 0.9750
-2.0282 5.5033 -2.4005 0.9750
-2.5105 5.2994 -2.4000 0.9750
-2.9724 5.0531 -2.3994 0.9750
-3.4343 4.8000 -2.4155 0.9748
-3.9856 4.6337 -2.5015 0.9739
-4.3814 4.2581 -2.5005 0.9739
-4.7418 3.8488 -2.4995 0.9739
-5.0639 3.4090 -2.4984 0.9740
-5.5836 2.4526 -2.4959 0.9740
-5.7770 1.9438 -2.4946 0.9740
-5.9242 1.4200 -2.4933 0.9740
-6.0330 -0.7397 -2.4876 0.9741
-5.9396 -1.2741 -2.4862 0.9741
-5.3815 -2.7965 -2.4822 0.9741
-5.0804 -3.2460 -2.4674 0.9743
-4.5954 -3.5509 -2.3768 0.9752
-3.4870 -4.6350 -2.3739 0.9752
-2.6063 -5.1775 -2.3724 0.9753
-1.6441 -5.5556 -2.3713 0.9753
-1.1419 -5.6792 -2.3709 0.9753
-0.1146 -5.7907 -2.3705 0.9753
0.4030 -5.7872 -2.3743 0.9752
0.9265 -5.7836 -2.3973 0.9750
2.0012 -5.7032 -2.4737 0.9742
2.9840 -5.2592 -2.4748 0.9742
3.4421 -4.9734 -2.4755 0.9742
3.8733 -4.6481 -2.4763 0.9742
4.2740 -4.2857 -2.4772 0.9742
4.6411 -3.8890 -2.4782 0.9742
5.2630 -3.0052 -2.4804 0.9741
5.7190 -2.0243 -2.4830 0.9741
5.8799 -1.5069 -2.4843 0.9741
5.7336 1.1365 -2.3923 0.9751
5.6028 1.6415 -2.3895 0.9751
5.4371 2.1358 -2.3908 0.9751
5.2277 2.6137 -2.3921 0.9751
4.6848 3.5044 -2.3945 0.9750
3.9911 4.2849 -2.3966 0.9750
1.7519 5.5969 -2.4003 0.9750
1.2459 5.7319 -2.4007 0.9750
0.7298 5.8209 -2.4010 0.9750
0.2077 5.8632 -2.4011 0.9750
-0.3161 5.8584 -2.4012 0.9750
-0.8373 5.8067 -2.4011 0.9750
-1.8553 5.5643 -2.4006 0.9750
-2.8133 5.1440 -2.3996 0.9750
-4.2468 4.3936 -2.5009 0.9739
-4.6199 3.9957 -2.4999 0.9739
-4.9557 3.5662 -2.4988 0.9740
-5.2516 3.1084 -2.4976 0.9740
-5.8780 1.6047 -2.4938 0.9740
-5.9944 1.0735 -2.4924 0.9740
-6.0628 0.5342 -2.4910 0.9740
-5.2085 -3.1031 -2.4813 0.9741
-4.3803 -3.8104 -2.3761 0.9752
-4.0213 -4.1841 -2.3751 0.9752
-3.6306 -4.5243 -2.3742 0.9752
-3.2115 -4.8284 -2.3733 0.9752
-2.7671 -5.0940 -2.3726 0.9753
-2.3011 -5.3191 -2.3720 0.9753
0.7370 -5.7448 -2.3705 0.9753
1.3004 -5.9014 -2.4733 0.9742
2.8179 -5.3494 -2.4746 0.9742
3.2847 -5.0780 -2.4752 0.9742
3.7256 -4.7663 -2.4760 0.9742
4.1374 -4.4166 -2.4769 0.9742
4.8603 -3.6141 -2.4789 0.9742
5.1656 -3.1677 -2.4800 0.9742
5.6519 -2.2016 -2.4825 0.9741
5.9596 -1.1637 -2.4852 0.9741
6.0430 -0.6278 -2.4866 0.9741
6.0653 0.4565 -2.4894 0.9741
5.7552 0.9549 -2.3877 0.9751
5.6502 1.4653 -2.3890 0.9751
5.0689 2.9136 -2.3929 0.9750
4.7912 3.3558 -2.3941 0.9750
4.4749 3.7715 -2.3952 0.9750
4.1225 4.1574 -2.3962 0.9750
3.3207 4.8275 -2.3981 0.9750
1.9258 5.5390 -2.4001 0.9750
-0.1329 5.8654 -2.4012 0.9750
-1.1728 5.7481 -2.4010 0.9750
-2.6514 5.2299 -2.3998 0.9750
-3.6892 4.8748 -2.5021 0.9739
-4.1079 4.5248 -2.5012 0.9739
-4.4934 4.1388 -2.5002 0.9739
-5.6464 2.3018 -2.4956 0.9740
-5.8261 1.7880 -2.4942 0.9740
-6.0444 0.7236 -2.4915 0.9740
-6.0814 0.1815 -2.4900 0.9740
-4.9036 -3.3214 -2.4239 0.9747
-4.4980 -3.6722 -2.3765 0.9752
-3.3612 -4.7263 -2.3736 0.9752
-2.4664 -5.2451 -2.3722 0.9753
-1.4946 -5.5974 -2.3711 0.9753
-0.9892 -5.7076 -2.3708 0.9753
-0.4762 -5.7725 -2.3706 0.9753
0.0406 -5.7917 -2.3705 0.9753
1.0986 -5.8498 -2.4360 0.9746
1.6408 -5.8165 -2.4735 0.9742
2.1534 -5.6478 -2.4738 0.9742
2.6491 -5.4343 -2.4744 0.9742
3.9969 -4.5431 -2.4765 0.9742
4.3878 -4.1701 -2.4775 0.9742
5.3424 -2.8635 -2.4808 0.9741
5.5793 -2.3768 -2.4820 0.9741
5.7721 -1.8706 -2.4833 0.9741
6.0754 0.2666 -2.4889 0.9741
5.6922 1.2877 -2.3885 0.9751
5.5577 1.7913 -2.3899 0.9751
0.3100 -5.5206 -2.4098 0.9762
0.8226 -5.6169 -2.4741 0.9755
1.3204 -5.5216 -2.4743 0.9755
2.2811 -5.2007 -2.4750 0.9755
3.1704 -4.7149 -2.4762 0.9755
3.5794 -4.4146 -2.4769 0.9755
4.3099 -3.7110 -2.4787 0.9755
4.6256 -3.3132 -2.4797 0.9755
4.9048 -2.8886 -2.4808 0.9755
5.3451 -1.9731 -2.4831 0.9754
5.5025 -1.4892 -2.4844 0.9754
5.6163 -0.9930 -2.4857 0.9754
5.7095 0.0207 -2.4883 0.9754
5.5212 1.0176 -2.4468 0.9758
5.2809 1.4705 -2.3891 0.9764
5.1313 1.9367 -2.3903 0.9764
4.7103 2.8204 -2.3927 0.9763
4.1379 3.6156 -2.3948 0.9763
3.8004 3.9719 -2.3958 0.9763
2.6159 4.8412 -2.3982 0.9763
1.7149 5.2314 -2.3993 0.9763
1.2417 5.3645 -2.3997 0.9763
0.7584 5.4545 -2.4000 0.9763
-0.2229 5.5030 -2.4003 0.9763
-0.7128 5.4611 -2.4002 0.9763
-1.6714 5.2465 -2.3997 0.9763
-2.1324 5.0757 -2.3993 0.9763
-2.5761 4.8642 -2.3988 0.9763
-3.9314 4.1782 -2.5003 0.9753
-4.6077 3.4105 -2.4983 0.9753
-4.8914 2.9847 -2.4973 0.9753
-5.3388 2.0661 -2.4949 0.9753
-5.4991 1.5809 -2.4936 0.9753
-5.6865 0.5781 -2.4910 0.9754
-5.7123 0.0685 -2.4897 0.9754
-5.5178 -1.4439 -2.4857 0.9754
-5.3642 -1.9293 -2.4844 0.9754
-4.9312 -2.8489 -2.4820 0.9755
-4.2485 -3.5967 -2.4260 0.9760
-3.0776 -4.4951 -2.3742 0.9765
-2.2287 -4.9676 -2.3729 0.9765
-1.7763 -5.1455 -2.3724 0.9765
-0.8336 -5.3776 -2.3716 0.9765
-0.3506 -5.4301 -2.3714 0.9765
1.6387 -5.4361 -2.4745 0.9755
2.1174 -5.2691 -2.4748 0.9755
2.5794 -5.0603 -2.4753 0.9755
3.0212 -4.8112 -2.4759 0.9755
3.4393 -4.5238 -2.4767 0.9755
3.8304 -4.2004 -2.4775 0.9755
4.1912 -3.8434 -2.4784 0.9755
4.5191 -3.4556 -2.4793 0.9755
5.0656 -2.5999 -2.4815 0.9755
5.4523 -1.6602 -2.4839 0.9754
5.5815 -1.1678 -2.4852 0.9754
5.7063 -0.1577 -2.4878 0.9754
5.7006 0.3521 -2.4892 0.9754
5.6496 0.8596 -2.4905 0.9754
5.3311 1.3064 -2.3921 0.9763
5.1884 1.7750 -2.3899 0.9764
4.7953 2.6713 -2.3923 0.9763
3.9222 3.8507 -2.3955 0.9763
2.7657 4.7566 -2.3980 0.9763
2.3310 4.9857 -2.3986 0.9763
1.4087 5.3227 -2.3996 0.9763
0.9284 5.4279 -2.3999 0.9763
-0.0508 5.5072 -2.4002 0.9763
-0.5418 5.4807 -2.4002 0.9763
-1.0284 5.4103 -2.4001 0.9763
-1.5067 5.2964 -2.3999 0.9763
-2.8535 4.7058 -2.3985 0.9763
-4.1662 3.9421 -2.4997 0.9753
-5.4479 1.7523 -2.4941 0.9753
-5.5797 1.2588 -2.4928 0.9754
-5.7047 -0.2629 -2.4888 0.9754
-5.6555 -0.7703 -2.4875 0.9754
-5.4229 -1.7610 -2.4849 0.9754
-5.2415 -2.2366 -2.4836 0.9754
-4.4312 -3.5196 -2.4662 0.9756
-3.6023 -4.0995 -2.3784 0.9765
-2.3830 -4.8959 -2.3731 0.9765
-1.9364 -5.0878 -2.3725 0.9765
-1.4746 -5.2393 -2.3721 0.9765
-0.5201 -5.4166 -2.3715 0.9765
-0.0349 -5.4411 -2.3714 0.9765
1.4679 -5.4844 -2.4744 0.9755
2.4198 -5.1380 -2.4752 0.9755
2.8691 -4.9028 -2.4757 0.9755
3.2959 -4.6286 -2.4764 0.9755
3.6968 -4.3176 -2.4772 0.9755
4.0685 -3.9720 -2.4780 0.9755
4.4083 -3.5947 -2.4790 0.9755
4.7133 -3.1884 -2.4800 0.9755
5.2096 -2.3024 -2.4823 0.9755
5.3968 -1.8294 -2.4835 0.9754
5.6418 -0.8422 -2.4861 0.9754
5.6975 -0.3359 -2.4874 0.9754
5.7078 0.1737 -2.4887 0.9754
5.3604 1.1373 -2.3882 0.9764
5.0784 2.0738 -2.3907 0.9763
4.8756 2.5197 -2.3919 0.9763
4.0400 3.7257 -2.3951 0.9763
3.6931 4.0728 -2.3961 0.9763
3.3163 4.3876 -2.3969 0.9763
2.9127 4.6674 -2.3977 0.9763
2.0381 5.1133 -2.3990 0.9763
0.6120 5.4730 -2.4001 0.9763
0.1213 5.5061 -2.4002 0.9763
-0.3703 5.4950 -2.4002 0.9763
-0.8588 5.4399 -2.4002 0.9763
-1.3405 5.3411 -2.4000 0.9763
-3.6636 4.4167 -2.5009 0.9753
-4.6968 3.2854 -2.4980 0.9753
-5.2011 2.3965 -2.4958 0.9753
-5.3915 1.9221 -2.4945 0.9753
-5.6779 -0.5933 -2.4880 0.9754
-5.4763 -1.5910 -2.4853 0.9754
-5.3098 -2.0720 -2.4841 0.9754
-3.7243 -3.9803 -2.3756 0.9765
-2.0946 -5.0252 -2.3727 0.9765
-1.1680 -5.3154 -2.3718 0.9765
-0.6892 -5.3979 -2.3716 0.9765
-0.2049 -5.4374 -2.3714 0.9765
0.7975 -5.6205 -2.4741 0.9755
1.2958 -5.5274 -2.4743 0.9755
1.7838 -5.3905 -2.4746 0.9755
3.9419 -4.0967 -2.4777 0.9755
4.6107 -3.3337 -2.4796 0.9755
5.3361 -1.9969 -2.4831 0.9754
5.7094 -0.0047 -2.4882 0.9754
5.5635 0.9998 -2.4635 0.9756
5.2872 1.4469 -2.3890 0.9764
5.1398 1.9137 -2.3902 0.9764
4.7227 2.7993 -2.3926 0.9763
4.1539 3.5971 -2.3948 0.9763
3.4513 4.2813 -2.3966 0.9763
3.0568 4.5736 -2.3975 0.9763
2.6374 4.8295 -2.3982 0.9763
2.1967 5.0468 -2.3988 0.9763
1.7382 5.2237 -2.3993 0.9763
1.2656 5.3588 -2.3997 0.9763
0.7827 5.4510 -2.4000 0.9763
-0.6884 5.4642 -2.4002 0.9763
-1.1730 5.3806 -2.4000 0.9763
-1.6480 5.2539 -2.3998 0.9763
-2.5544 4.8757 -2.3989 0.9763
-2.9784 4.6273 -2.3983 0.9763
-4.2699 3.8286 -2.4994 0.9753
-5.1245 2.5582 -2.4962 0.9753
-5.3297 2.0900 -2.4950 0.9753
-5.4921 1.6054 -2.4937 0.9753
-5.6840 0.6034 -2.4911 0.9754
-5.6947 -0.4156 -2.4884 0.9754
-5.6319 -0.9214 -2.4871 0.9754
-5.3729 -1.9054 -2.4845 0.9754
-5.1789 -2.3758 -2.4832 0.9754
-4.9440 -2.8270 -2.4820 0.9755
-3.8473 -3.8625 -2.3759 0.9765
-3.4862 -4.1887 -2.3751 0.9765
-3.0977 -4.4814 -2.3742 0.9765
-1.7993 -5.1376 -2.3724 0.9765
-1.3336 -5.2766 -2.3720 0.9765
0.6214 -5.6426 -2.4740 0.9755
1.1224 -5.5651 -2.4742 0.9755
2.5568 -5.0717 -2.4753 0.9755
2.9997 -4.8246 -2.4759 0.9755
3.4190 -4.5390 -2.4766 0.9755
3.8115 -4.2174 -2.4774 0.9755
4.1739 -3.8619 -2.4783 0.9755
4.5036 -3.4756 -2.4793 0.9755
5.7053 -0.1831 -2.4878 0.9754
5.7020 0.3267 -2.4891 0.9754
5.6532 0.8344 -2.4905 0.9754
5.0217 2.2094 -2.3910 0.9763
4.8071 2.6498 -2.3922 0.9763
2.3532 4.9752 -2.3986 0.9763
1.9005 5.1665 -2.3991 0.9763
-0.0262 5.5074 -2.4002 0.9763
-0.5173 5.4831 -2.4002 0.9763
-1.0043 5.4148 -2.4001 0.9763
-1.9499 5.1489 -2.3995 0.9763
-2.4009 4.9536 -2.3991 0.9763
-3.3813 4.6380 -2.5014 0.9753
-3.7802 4.3165 -2.5006 0.9753
-4.1487 3.9607 -2.4997 0.9753
-5.4402 1.7766 -2.4942 0.9753
-5.5741 1.2837 -2.4929 0.9754
-5.6590 -0.7451 -2.4876 0.9754
-5.0308 -2.6715 -2.4825 0.9755
-4.7702 -3.1081 -2.4813 0.9755
-4.4577 -3.5084 -2.4723 0.9756
-3.6254 -4.0889 -2.3816 0.9764
-2.8318 -4.6526 -2.3738 0.9765
-2.4049 -4.8853 -2.3731 0.9765
-1.0251 -5.3446 -2.3717 0.9765
-0.5443 -5.4142 -2.3715 0.9765
0.4379 -5.5714 -2.4356 0.9759
0.9479 -5.5972 -2.4741 0.9755
1.4435 -5.4909 -2.4743 0.9755
1.9277 -5.3410 -2.4747 0.9755
2.8472 -4.9155 -2.4757 0.9755
3.2752 -4.6432 -2.4764 0.9755
4.0507 -3.9900 -2.4780 0.9755
5.6379 -0.8674 -2.4860 0.9754
5.6958 -0.3613 -2.4873 0.9754
5.7084 0.1483 -2.4886 0.9754
5.2474 1.5883 -2.3894 0.9764
4.6466 2.9252 -2.3930 0.9763
4.0565 3.7076 -2.3951 0.9763
3.3358 4.3726 -2.3969 0.9763
2.9334 4.6543 -2.3977 0.9763
1.5977 5.2687 -2.3994 0.9763
1.1216 5.3910 -2.3998 0.9763
0.6363 5.4702 -2.4001 0.9763
-0.8346 5.4437 -2.4002 0.9763
-2.2451 5.0266 -2.3992 0.9763
-2.6839 4.8052 -2.3987 0.9763
-4.3704 3.7124 -2.4991 0.9753
-5.1905 2.4197 -2.4958 0.9753
-5.6373 0.9577 -2.4920 0.9754
-5.6972 0.4509 -2.4907 0.9754
-5.7117 -0.0591 -2.4894 0.9754
-5.6806 -0.5680 -2.4880 0.9754
-5.6043 -1.0718 -2.4867 0.9754
-5.4835 -1.5666 -2.4854 0.9754
-5.1127 -2.5134 -2.4829 0.9754
-4.5804 -3.3787 -2.4805 0.9755
-3.3724 -4.2801 -2.3748 0.9765
-2.5566 -4.8082 -2.3733 0.9765
-2.1171 -5.0158 -2.3727 0.9765
-1.6609 -5.1836 -2.3722 0.9765
-1.1917 -5.3102 -2.3719 0.9765
-0.2292 -5.4365 -2.3714 0.9765
0.2598 -5.5020 -2.4005 0.9763
0.7725 -5.6240 -2.4741 0.9755
1.2711 -5.5331 -2.4742 0.9755
1.7598 -5.3983 -2.4745 0.9755
2.2346 -5.2207 -2.4750 0.9755
2.6920 -5.0016 -2.4755 0.9755
3.1281 -4.7428 -2.4761 0.9755
3.5398 -4.4462 -2.4768 0.9755
4.2765 -3.7492 -2.4786 0.9755
4.5957 -3.3542 -2.4796 0.9755
4.8787 -2.9321 -2.4807 0.9755
5.3270 -2.0205 -2.4830 0.9754
5.4887 -1.5381 -2.4843 0.9754
5.7091 -0.0302 -2.4882 0.9754
5.6063 0.9817 -2.4805 0.9755
5.2935 1.4233 -2.3889 0.9764
4.9615 2.3436 -2.3914 0.9763
4.1698 3.5785 -2.3947 0.9763
3.0771 4.5598 -2.3974 0.9763
2.6589 4.8176 -2.3981 0.9763
2.2192 5.0368 -2.3988 0.9763
1.7615 5.2158 -2.3993 0.9763
-0.1738 5.5047 -2.4003 0.9763
-1.1490 5.3858 -2.4000 0.9763
-1.6246 5.2613 -2.3998 0.9763
-2.0871 5.0946 -2.3994 0.9763
-2.9577 4.6406 -2.3983 0.9763
-3.5040 4.5453 -2.5012 0.9753
-5.4851 1.6300 -2.4938 0.9753
-5.6056 1.1337 -2.4925 0.9754
-5.6814 0.6288 -2.4912 0.9754
-5.7118 0.1195 -2.4898 0.9754
-5.6967 -0.3902 -2.4885 0.9754
-5.5308 -1.3947 -2.4859 0.9754
-5.1896 -2.3528 -2.4833 0.9754
-4.6845 -3.2344 -2.4809 0.9755
-4.2999 -3.5748 -2.4370 0.9759
-3.5049 -4.1732 -2.3751 0.9765
-2.7059 -4.7265 -2.3736 0.9765
-1.8222 -5.1295 -2.3724 0.9765
-1.3571 -5.2707 -2.3720 0.9765
-0.8815 -5.3700 -2.3717 0.9765
1.0976 -5.5700 -2.4742 0.9755
1.5901 -5.4505 -2.4744 0.9755
2.5342 -5.0829 -2.4753 0.9755
2.9781 -4.8378 -2.4759 0.9755
4.1567 -3.8804 -2.4783 0.9755
4.7839 -3.0827 -2.4803 0.9755
5.4370 -1.7086 -2.4838 0.9754
5.7043 -0.2086 -2.4877 0.9754
5.6567 0.8092 -2.4904 0.9754
5.3345 1.2569 -2.3885 0.9764
4.2790 3.4459 -2.3944 0.9763
3.9562 3.8154 -2.3954 0.9763
3.6015 4.1547 -2.3963 0.9763
3.2177 4.4609 -2.3971 0.9763
0.9767 5.4194 -2.3999 0.9763
0.4895 5.4854 -2.4001 0.9763
-0.0017 5.5075 -2.4002 0.9763
-0.4929 5.4854 -2.4002 0.9763
-0.9802 5.4193 -2.4001 0.9763
-1.9270 5.1576 -2.3995 0.9763
-2.8165 4.7396 -2.4028 0.9762
-4.4678 3.5935 -2.4988 0.9753
-5.0308 2.7401 -2.4966 0.9753
-5.4324 1.8009 -2.4942 0.9753
-5.5685 1.3085 -2.4929 0.9753
-5.7064 0.2980 -2.4903 0.9754
-5.6624 -0.7199 -2.4876 0.9754
-5.5727 -1.2214 -2.4863 0.9754
-5.4387 -1.7127 -2.4850 0.9754
-5.2615 -2.1898 -2.4837 0.9754
-4.4844 -3.4972 -2.4784 0.9755
-3.6485 -4.0783 -2.3848 0.9764
-3.2561 -4.3685 -2.3746 0.9765
-1.0489 -5.3401 -2.3718 0.9765
-0.5684 -5.4118 -2.3715 0.9765
-0.0834 -5.4406 -2.3714 0.9765
0.4121 -5.5605 -2.4300 0.9760
1.4190 -5.4972 -2.4743 0.9755
3.6580 -4.3502 -2.4771 0.9755
4.3759 -3.6337 -2.4789 0.9755
4.9561 -2.8007 -2.4810 0.9755
5.1886 -2.3486 -2.4822 0.9755
5.6338 -0.8925 -2.4859 0.9754
5.6940 -0.3866 -2.4872 0.9754
5.7088 0.1229 -2.4886 0.9754
5.0964 2.0283 -2.3906 0.9764
4.3839 3.3100 -2.3940 0.9763
4.0729 3.6894 -2.3950 0.9763
2.9541 4.6411 -2.3976 0.9763
2.0836 5.0948 -2.3989 0.9763
1.6212 5.2615 -2.3994 0.9763
1.1456 5.3860 -2.3998 0.9763
0.6607 5.4673 -2.4001 0.9763
-0.8103 5.4474 -2.4002 0.9763
-1.7649 5.2156 -2.3997 0.9763
-4.0052 4.1069 -2.5001 0.9753
-4.9435 2.8964 -2.4970 0.9753
-5.1798 2.4429 -2.4959 0.9753
-5.7120 -0.0336 -2.4894 0.9754
-5.6832 -0.5427 -2.4881 0.9754
-5.6092 -1.0469 -2.4868 0.9754
-5.3284 -2.0247 -2.4842 0.9754
-4.8790 -2.9363 -2.4817 0.9755
-4.5956 -3.3583 -2.4806 0.9755
-3.3915 -4.2651 -2.3748 0.9765
-2.5780 -4.7969 -2.3734 0.9765
-1.6840 -5.1762 -2.3723 0.9765
-0.7372 -5.3915 -2.3716 0.9765
-0.2534 -5.4354 -2.3714 0.9765
1.2464 -5.5387 -2.4742 0.9755
1.7357 -5.4061 -2.4745 0.9755
2.2113 -5.2306 -2.4749 0.9755
3.1069 -4.7566 -2.4761 0.9755
3.5198 -4.4619 -2.4768 0.9755
5.1118 -2.5092 -2.4817 0.9755
5.6021 -1.0679 -2.4855 0.9754
5.6339 0.9606 -2.4908 0.9754
5.1564 1.8677 -2.3901 0.9764
4.9718 2.3214 -2.3913 0.9763
4.1856 3.5598 -2.3947 0.9763
3.8530 3.9205 -2.3956 0.9763
3.4893 4.2502 -2.3966 0.9763
3.0974 4.5460 -2.3974 0.9763
0.8312 5.4438 -2.4000 0.9763
0.3424 5.4966 -2.4002 0.9763
-0.6397 5.4701 -2.4002 0.9763
-1.1250 5.3909 -2.4001 0.9763
-2.0644 5.1039 -2.3994 0.9763
-2.5109 4.8984 -2.3989 0.9763
-2.9371 4.6538 -2.3983 0.9763
-4.8514 3.0500 -2.4974 0.9753
-5.1017 2.6040 -2.4963 0.9753
-5.6007 1.1587 -2.4926 0.9754
-5.6985 -0.3648 -2.4886 0.9754
-5.6402 -0.8712 -2.4872 0.9754
-5.3900 -1.8575 -2.4846 0.9754
-5.2002 -2.3297 -2.4834 0.9754
-4.9692 -2.7829 -2.4822 0.9755
-4.6990 -3.2135 -2.4810 0.9755
-3.1376 -4.4538 -2.3743 0.9765
-2.2950 -4.9375 -2.3730 0.9765
-1.8450 -5.1214 -2.3724 0.9765
-1.3806 -5.2646 -2.3720 0.9765
-0.9054 -5.3661 -2.3717 0.9765
1.0727 -5.5748 -2.4742 0.9755
1.5658 -5.4574 -2.4744 0.9755
2.0466 -5.2968 -2.4748 0.9755
3.7736 -4.2510 -2.4773 0.9755
4.4722 -3.5155 -2.4792 0.9755
4.7700 -3.1039 -2.4802 0.9755
5.7032 -0.2340 -2.4876 0.9754
5.2113 1.7054 -2.3897 0.9764
5.0410 2.1645 -2.3909 0.9763
4.8303 2.6068 -2.3921 0.9763
4.2942 3.4267 -2.3943 0.9763
2.3974 4.9539 -2.3985 0.9763
1.4797 5.3033 -2.3995 0.9763
1.0009 5.4149 -2.3999 0.9763
0.0229 5.5074 -2.4002 0.9763
-0.9560 5.4236 -2.4001 0.9763
-1.4358 5.3162 -2.3999 0.9763
-3.3399 4.6681 -2.5015 0.9753
-4.1134 3.9977 -2.4998 0.9753
-4.4518 3.6135 -2.4989 0.9753
-5.4245 1.8252 -2.4943 0.9753
-5.5628 1.3333 -2.4930 0.9753
-5.7051 0.3234 -2.4904 0.9754
-5.7082 -0.1866 -2.4890 0.9754
-5.4464 -1.6885 -2.4851 0.9754
-5.0546 -2.6266 -2.4826 0.9755
-4.5034 -3.4797 -2.4803 0.9755
-4.0063 -3.7113 -2.3801 0.9765
-2.4484 -4.8638 -2.3732 0.9765
-1.5446 -5.2192 -2.3721 0.9765
-0.1077 -5.4402 -2.3714 0.9765
0.8979 -5.6054 -2.4741 0.9755
1.3945 -5.5035 -2.4743 0.9755
1.8800 -5.3579 -2.4746 0.9755
2.8032 -4.9406 -2.4756 0.9755
4.0148 -4.0258 -2.4779 0.9755
4.3596 -3.6531 -2.4788 0.9755
4.9435 -2.8228 -2.4809 0.9755
5.1779 -2.3717 -2.4821 0.9755
5.3715 -1.9013 -2.4833 0.9754
5.7092 0.0974 -2.4885 0.9754
5.4111 1.0726 -2.4042 0.9762
5.1053 2.0055 -2.3905 0.9764
4.0892 3.6711 -2.3950 0.9763
3.7470 4.0228 -2.3959 0.9763
3.3745 4.3426 -2.3968 0.9763
2.1063 5.0855 -2.3989 0.9763
1.6446 5.2541 -2.3994 0.9763
1.1696 5.3807 -2.3998 0.9763
0.6851 5.4642 -2.4000 0.9763
-0.2967 5.4995 -2.4003 0.9763
-1.2690 5.3587 -2.4000 0.9763
-1.7417 5.2235 -2.3997 0.9763
-2.2003 5.0465 -2.3993 0.9763
-2.6410 4.8291 -2.3988 0.9763
-3.9870 4.1248 -2.5001 0.9753
-4.6528 3.3482 -2.4982 0.9753
-4.9307 2.9185 -2.4971 0.9753
-5.3657 1.9941 -2.4947 0.9753
-5.5194 1.5068 -2.4935 0.9753
-5.6288 1.0080 -2.4922 0.9754
-5.4975 -1.5177 -2.4855 0.9754
-4.8921 -2.9146 -2.4818 0.9755
-4.6106 -3.3378 -2.4807 0.9755
-3.7774 -3.9304 -2.3758 0.9765
-2.5995 -4.7854 -2.3734 0.9765
-2.1617 -4.9969 -2.3728 0.9765
-0.7613 -5.3882 -2.3716 0.9765
-0.2776 -5.4343 -2.3714 0.9765
1.2217 -5.5442 -2.4742 0.9755
2.1879 -5.2404 -2.4749 0.9755
3.8866 -4.1488 -2.4776 0.9755
4.2427 -3.7870 -2.4785 0.9755
4.8521 -2.9754 -2.4806 0.9755
5.1005 -2.5319 -2.4817 0.9755
5.5971 -1.0929 -2.4854 0.9754
5.6753 -0.5896 -2.4867 0.9754
5.6958 0.4287 -2.4894 0.9754
5.6379 0.9355 -2.4907 0.9754
5.3057 1.3759 -2.3888 0.9764
5.1646 1.8446 -2.3901 0.9764
4.7593 2.7357 -2.3924 0.9763
4.4985 3.1507 -2.3936 0.9763
4.2014 3.5410 -2.3946 0.9763
3.8704 3.9032 -2.3956 0.9763
3.1175 4.5321 -2.3973 0.9763
2.2640 5.0167 -2.3987 0.9763
1.8079 5.1998 -2.3992 0.9763
0.8555 5.4399 -2.4000 0.9763
0.3669 5.4951 -2.4002 0.9763
-0.6153 5.4729 -2.4002 0.9763
-2.0416 5.1131 -2.3994 0.9763
-3.4635 4.5765 -2.5013 0.9753
-4.5465 3.4924 -2.4986 0.9753
-5.0902 2.6268 -2.4963 0.9753
-5.4705 1.6789 -2.4939 0.9753
-5.5956 1.1837 -2.4926 0.9754
-5.7108 0.1704 -2.4900 0.9754
-5.6442 -0.8461 -2.4873 0.9754
-5.5433 -1.3454 -2.4860 0.9754
-5.3984 -1.8335 -2.4847 0.9754
-5.2106 -2.3066 -2.4834 0.9754
-4.9817 -2.7608 -2.4822 0.9755
-3.8989 -3.8109 -2.3761 0.9765
-3.5421 -4.1419 -2.3752 0.9765
-3.1574 -4.4398 -2.3744 0.9765
-2.3170 -4.9273 -2.3730 0.9765
-1.8679 -5.1132 -2.3724 0.9765
-1.4041 -5.2584 -2.3720 0.9765
-0.9293 -5.3620 -2.3717 0.9765
0.0381 -5.4411 -2.3714 0.9765
0.5426 -5.6156 -2.4588 0.9757
1.0478 -5.5795 -2.4742 0.9755
1.5414 -5.4643 -2.4744 0.9755
2.0230 -5.3058 -2.4748 0.9755
2.9348 -4.8640 -2.4758 0.9755
4.1218 -3.9172 -2.4782 0.9755
5.7054 0.2504 -2.4889 0.9754
5.6634 0.7586 -2.4903 0.9754
5.3451 1.2092 -2.3884 0.9764
5.2187 1.6821 -2.3896 0.9764
-0.1765 -5.3125 -2.4605 0.9768
0.2998 -5.3382 -2.4749 0.9767
1.2436 -5.2005 -2.4751 0.9767
2.1484 -4.8982 -2.4758 0.9767
2.5773 -4.6880 -2.4763 0.9767
2.9859 -4.4405 -2.4769 0.9767
3.7296 -3.8416 -2.4784 0.9767
4.0588 -3.4948 -2.4793 0.9767
4.3560 -3.1201 -2.4802 0.9767
4.6189 -2.7203 -2.4812 0.9766
5.0332 -1.8579 -2.4835 0.9766
5.1813 -1.4022 -2.4846 0.9766
5.3757 0.0195 -2.4883 0.9766
4.9717 1.3844 -2.3889 0.9775
4.8307 1.8232 -2.3900 0.9775
4.6511 2.2479 -2.3912 0.9775
3.5773 3.7387 -2.3952 0.9775
3.2307 4.0443 -2.3960 0.9774
2.8580 4.3177 -2.3968 0.9774
2.0464 4.7593 -2.3980 0.9774
1.6141 4.9239 -2.3985 0.9774
1.1687 5.0490 -2.3989 0.9774
0.7138 5.1337 -2.3992 0.9774
-0.2098 5.1794 -2.3994 0.9774
-1.1266 5.0592 -2.3992 0.9774
-1.5732 4.9380 -2.3989 0.9774
-3.7005 3.9328 -2.4996 0.9765
-4.0352 3.5858 -2.4987 0.9765
-4.3373 3.2104 -2.4978 0.9765
-5.0259 1.9450 -2.4946 0.9765
-5.1769 1.4883 -2.4934 0.9765
-5.3537 0.5443 -2.4909 0.9766
-4.8666 -2.2589 -2.4835 0.9766
-4.6436 -2.6827 -2.4824 0.9766
-4.3839 -3.0849 -2.4813 0.9766
-4.0896 -3.4622 -2.4803 0.9767
-3.7557 -3.8042 -2.4745 0.9767
-3.3011 -4.0023 -2.4015 0.9774
-2.5086 -4.4738 -2.3742 0.9776
-1.2339 -4.9752 -2.3727 0.9777
-0.7857 -5.0689 -2.3744 0.9776
-0.3386 -5.2442 -2.4325 0.9771
0.1328 -5.3449 -2.4749 0.9767
1.0804 -5.2367 -2.4750 0.9767
2.4294 -4.7659 -2.4761 0.9767
2.8454 -4.5312 -2.4767 0.9767
3.2391 -4.2605 -2.4774 0.9767
3.6073 -3.9558 -2.4781 0.9767
3.9471 -3.6195 -2.4790 0.9767
4.2558 -3.2543 -2.4799 0.9767
4.7703 -2.4484 -2.4819 0.9766
5.1341 -1.5633 -2.4842 0.9766
5.3354 -0.6268 -2.4867 0.9766
5.3727 -0.1485 -2.4879 0.9766
5.3190 0.8093 -2.4904 0.9766
5.0331 1.2334 -2.3987 0.9774
4.8846 1.6711 -2.3896 0.9775
4.7183 2.1011 -2.3908 0.9775
2.9913 4.2259 -2.3965 0.9774
2.6032 4.4771 -2.3972 0.9774
1.3258 5.0098 -2.3988 0.9774
0.8738 5.1087 -2.3991 0.9774
0.4147 5.1668 -2.3993 0.9774
-0.9679 5.0921 -2.3993 0.9774
-1.4181 4.9850 -2.3990 0.9774
-1.8569 4.8380 -2.3987 0.9774
-2.7268 4.4969 -2.4343 0.9771
-3.2020 4.3512 -2.5007 0.9765
-3.5763 4.0470 -2.4999 0.9765
-5.2529 1.1850 -2.4926 0.9765
-5.3350 0.7114 -2.4914 0.9766
-5.3745 0.2326 -2.4901 0.9766
-5.3712 -0.2475 -2.4888 0.9766
-5.3249 -0.7253 -2.4876 0.9766
-5.2364 -1.1967 -2.4863 0.9766
-5.1063 -1.6582 -2.4851 0.9766
-4.9356 -2.1060 -2.4839 0.9766
-4.7259 -2.5367 -2.4828 0.9766
-4.4788 -2.9468 -2.4817 0.9766
-3.4548 -3.9318 -2.4227 0.9772
-3.0296 -4.1412 -2.3751 0.9776
-2.6474 -4.3936 -2.3744 0.9776
-1.3888 -4.9345 -2.3729 0.9777
-0.9431 -5.0380 -2.3725 0.9777
-0.4975 -5.1807 -2.4091 0.9773
0.4427 -5.3283 -2.4749 0.9767
0.9162 -5.2677 -2.4750 0.9767
2.2790 -4.8391 -2.4760 0.9767
2.7022 -4.6175 -2.4765 0.9767
3.1041 -4.3592 -2.4771 0.9767
3.4815 -4.0662 -2.4778 0.9767
4.4386 -3.0026 -2.4805 0.9767
4.9057 -2.1680 -2.4827 0.9766
5.0819 -1.7226 -2.4838 0.9766
5.2178 -1.2631 -2.4850 0.9766
5.3123 -0.7930 -2.4862 0.9766
5.3407 0.6426 -2.4900 0.9766
5.2648 1.1170 -2.4912 0.9766
4.5898 2.3720 -2.3915 0.9775
4.3619 2.7732 -2.3926 0.9775
3.4762 3.8337 -2.3955 0.9774
2.7416 4.3932 -2.3970 0.9774
1.0330 5.0787 -2.3990 0.9774
-0.8084 5.1200 -2.3993 0.9774
-1.7048 4.8939 -2.3988 0.9774
-2.1342 4.7215 -2.3984 0.9774
-4.1294 3.4760 -2.4985 0.9765
-4.4212 3.0926 -2.4975 0.9765
-4.6775 2.6849 -2.4965 0.9765
-5.0755 1.8094 -2.4942 0.9765
-5.2142 1.3488 -2.4930 0.9765
-5.3772 -0.0796 -2.4893 0.9766
-5.3460 -0.5586 -2.4880 0.9766
-5.2722 -1.0327 -2.4868 0.9766
-5.1565 -1.4980 -2.4855 0.9766
-4.8037 -2.3881 -2.4832 0.9766
-4.5695 -2.8058 -2.4820 0.9766
-2.3876 -4.5391 -2.3740 0.9776
-1.5424 -4.8890 -2.3730 0.9777
-0.6537 -5.1204 -2.3894 0.9775
0.2760 -5.3395 -2.4749 0.9767
0.7512 -5.2937 -2.4749 0.9767
1.2204 -5.2060 -2.4751 0.9767
2.5563 -4.6994 -2.4763 0.9767
2.9661 -4.4537 -2.4769 0.9767
3.3524 -4.1725 -2.4776 0.9767
3.7124 -3.8581 -2.4784 0.9767
5.0247 -1.8803 -2.4834 0.9766
5.2839 -0.9585 -2.4858 0.9766
5.3511 -0.4837 -2.4870 0.9766
5.3756 -0.0044 -2.4883 0.9766
5.3573 0.4753 -2.4895 0.9766
5.2962 0.9517 -2.4908 0.9766
4.8387 1.8016 -2.3900 0.9775
4.4458 2.6351 -2.3922 0.9775
3.9102 3.3860 -2.3942 0.9775
3.5939 3.7227 -2.3952 0.9775
3.2487 4.0298 -2.3960 0.9774
2.4825 4.5457 -2.3974 0.9774
2.0676 4.7501 -2.3980 0.9774
1.1912 5.0437 -2.3989 0.9774
0.7367 5.1305 -2.3992 0.9774
0.2761 5.1761 -2.3993 0.9774
-0.1867 5.1802 -2.3994 0.9774
-0.6480 5.1428 -2.3994 0.9774
-1.5512 4.9450 -2.3989 0.9774
-2.4043 4.5892 -2.3981 0.9774
-2.9245 4.5436 -2.5011 0.9765
-3.3172 4.2635 -2.5004 0.9765
-3.6830 3.9493 -2.4997 0.9765
-4.0192 3.6038 -2.4988 0.9765
-5.1704 1.5114 -2.4934 0.9765
-5.3514 0.5681 -2.4910 0.9766
-5.3780 0.0885 -2.4897 0.9766
-5.3617 -0.3913 -2.4885 0.9766
-5.3028 -0.8676 -2.4872 0.9766
-5.2017 -1.3364 -2.4860 0.9766
-5.0593 -1.7942 -2.4848 0.9766
-4.6556 -2.6621 -2.4824 0.9766
-4.1051 -3.4440 -2.4803 0.9767
-3.7794 -3.7943 -2.4789 0.9767
-3.3228 -3.9924 -2.4043 0.9774
-2.9173 -4.2205 -2.3749 0.9776
-2.5285 -4.4626 -2.3742 0.9776
-2.1198 -4.6692 -2.3736 0.9777
-1.6946 -4.8387 -2.3731 0.9777
-1.2561 -4.9697 -2.3728 0.9777
-0.3614 -5.2345 -2.4288 0.9771
1.0571 -5.2414 -2.4750 0.9767
1.5205 -5.1267 -2.4753 0.9767
2.4081 -4.7766 -2.4761 0.9767
3.9309 -3.6370 -2.4789 0.9767
4.2412 -3.2732 -2.4798 0.9767
5.1270 -1.5861 -2.4842 0.9766
5.2505 -1.1230 -2.4854 0.9766
5.3719 -0.1724 -2.4878 0.9766
5.3686 0.3076 -2.4891 0.9766
4.5253 2.4945 -2.3918 0.9775
3.0100 4.2124 -2.3965 0.9774
2.6231 4.4654 -2.3972 0.9774
2.2149 4.6828 -2.3978 0.9774
1.3481 5.0038 -2.3988 0.9774
0.8966 5.1048 -2.3991 0.9774
0.4377 5.1648 -2.3993 0.9774
-0.0247 5.1835 -2.3994 0.9774
-0.4869 5.1606 -2.3994 0.9774
-1.3959 4.9913 -2.3990 0.9774
-3.1826 4.3655 -2.5007 0.9765
-3.5582 4.0630 -2.4999 0.9765
-4.5020 2.9727 -2.4972 0.9765
-4.7471 2.5582 -2.4961 0.9765
-4.9542 2.1237 -2.4950 0.9765
-5.3319 0.7352 -2.4914 0.9766
-5.3282 -0.7015 -2.4876 0.9766
-5.2418 -1.1734 -2.4864 0.9766
-3.8973 -3.6754 -2.4797 0.9767
-3.4770 -3.9216 -2.4260 0.9772
-3.0481 -4.1277 -2.3752 0.9776
-1.4109 -4.9283 -2.3729 0.9777
-0.5199 -5.1721 -2.4062 0.9773
0.4190 -5.3302 -2.4749 0.9767
1.3595 -5.1715 -2.4752 0.9767
1.8156 -5.0303 -2.4755 0.9767
2.2575 -4.8492 -2.4759 0.9767
3.0846 -4.3730 -2.4771 0.9767
5.0740 -1.7453 -2.4838 0.9766
5.3085 -0.8167 -2.4862 0.9766
5.3629 -0.3401 -2.4874 0.9766
5.3746 0.1396 -2.4887 0.9766
5.3434 0.6188 -2.4899 0.9766
4.9401 1.4953 -2.3892 0.9775
4.7894 1.9309 -2.3903 0.9775
4.6002 2.3515 -2.3915 0.9775
3.8184 3.4900 -2.3945 0.9775
3.4933 3.8181 -2.3954 0.9774
3.1398 4.1158 -2.3962 0.9774
2.7611 4.3809 -2.3970 0.9774
2.3600 4.6109 -2.3976 0.9774
1.9397 4.8041 -2.3982 0.9774
1.5038 4.9589 -2.3986 0.9774
1.0556 5.0740 -2.3990 0.9774
0.5989 5.1485 -2.3992 0.9774
-0.3254 5.1734 -2.3994 0.9774
-1.2393 5.0327 -2.3991 0.9774
-2.5262 4.5228 -2.3979 0.9774
-4.6656 2.7057 -2.4965 0.9765
-4.8862 2.2778 -2.4954 0.9765
-5.2082 1.3721 -2.4931 0.9765
-5.3073 0.9017 -2.4918 0.9766
-5.3485 -0.5348 -2.4881 0.9766
-5.2768 -1.0092 -2.4868 0.9766
-4.8144 -2.3668 -2.4832 0.9766
-4.5820 -2.7855 -2.4821 0.9766
-4.3134 -3.1817 -2.4810 0.9767
-3.6382 -3.8537 -2.4532 0.9769
-3.1925 -4.0519 -2.3878 0.9775
-2.8029 -4.2968 -2.3747 0.9776
-1.9939 -4.7240 -2.3735 0.9777
-1.5643 -4.8821 -2.3730 0.9777
-1.1224 -5.0014 -2.3727 0.9777
-0.6758 -5.1118 -2.3868 0.9775
-0.2231 -5.2929 -2.4522 0.9769
0.7275 -5.2970 -2.4749 0.9767
1.1972 -5.2113 -2.4751 0.9767
1.6574 -5.0844 -2.4754 0.9767
