ply
format ascii 1.0
element vertex 1592
property float32 x
property float32 y
property float32 z
property float32 I
end_header
-4.2553 9.3775 -2.4202 0.9586
-7.2857 10.5425 -3.0118 0.9487
-8.3200 9.9974 -3.0569 0.9480
-9.1128 9.1486 -3.0348 0.9483
-10.0345 8.4177 -3.0783 0.9476
-11.7348 6.7076 -3.1767 0.9460
-13.0632 5.9898 -3.3775 0.9427
-6.5038 -4.8668 -1.9091 0.9672
-6.6332 -5.9574 -2.0954 0.9640
-6.7462 -7.2464 -2.3269 0.9601
-6.0702 -7.8165 -2.3260 0.9602
-5.3474 -8.3254 -2.3255 0.9602
-3.0160 -9.6521 -2.3766 0.9593
-0.3599 -10.3469 -2.4332 0.9584
5.5890 -8.3338 -2.3583 0.9596
6.3235 -7.8179 -2.3632 0.9595
8.2225 -5.9024 -2.3788 0.9593
8.7362 -5.1568 -2.3842 0.9592
9.8566 -2.6766 -2.4004 0.9589
10.3191 -0.8942 -2.4343 0.9583
10.3788 0.0304 -2.4393 0.9582
10.2545 0.9490 -2.4203 0.9586
10.1473 1.8637 -2.4247 0.9585
9.9572 2.7666 -2.4288 0.9584
9.6855 3.6497 -2.4326 0.9584
9.3340 4.5057 -2.4359 0.9583
7.8312 6.8382 -2.4434 0.9582
7.1943 7.5146 -2.4450 0.9582
5.1647 9.5549 -2.5527 0.9564
4.2906 9.9758 -2.5522 0.9564
3.3819 10.3149 -2.5512 0.9564
2.4464 10.5693 -2.5497 0.9564
1.4923 10.7370 -2.5477 0.9564
0.5276 10.8167 -2.5452 0.9565
-0.4393 10.8080 -2.5422 0.9565
-1.3422 10.2674 -2.4336 0.9583
-3.1361 9.8343 -2.4260 0.9585
-4.8167 9.0865 -2.4170 0.9586
-2.0638 3.1722 -0.8894 0.9846
-8.8833 9.4308 -3.0449 0.9482
-9.7362 8.6420 -3.0596 0.9479
-5.3747 3.9730 -1.5708 0.9729
-11.4448 6.9729 -3.1497 0.9464
-12.6064 6.2120 -3.3030 0.9439
-6.5901 -5.5942 -2.0316 0.9651
-6.2867 -7.6447 -2.3262 0.9601
-5.5780 -8.1732 -2.3256 0.9602
-4.0365 -9.0354 -2.3258 0.9602
-3.2152 -9.3628 -2.3266 0.9601
-2.4704 -10.0332 -2.4285 0.9584
-1.5663 -10.2211 -2.4302 0.9584
-0.6485 -10.3295 -2.4324 0.9584
2.1187 -10.1705 -2.4416 0.9582
3.9058 -9.6634 -2.4496 0.9581
4.7613 -9.2934 -2.4541 0.9580
5.3508 -8.4813 -2.3568 0.9596
6.0987 -7.9862 -2.3617 0.9596
7.4534 -6.8041 -2.3718 0.9594
8.0488 -6.1254 -2.3772 0.9593
9.0505 -4.6179 -2.3880 0.9591
9.4479 -3.8004 -2.3934 0.9590
9.7712 -2.9487 -2.3988 0.9589
10.1153 -2.0897 -2.4275 0.9584
10.3692 -0.2593 -2.4378 0.9583
10.2709 0.6620 -2.4189 0.9586
10.1897 1.5789 -2.4234 0.9585
10.0255 2.4862 -2.4276 0.9584
9.4523 4.2416 -2.4349 0.9583
9.0475 5.0746 -2.4380 0.9583
8.0171 6.6153 -2.4428 0.9582
7.0126 8.2888 -2.5517 0.9564
6.2468 8.8842 -2.5525 0.9564
5.4295 9.4071 -2.5527 0.9564
4.5678 9.8529 -2.5524 0.9564
1.7919 10.6940 -2.5484 0.9564
-0.1374 10.8202 -2.5432 0.9565
-2.8618 9.9233 -2.4273 0.9585
-4.5638 9.2231 -2.4185 0.9586
-6.6639 10.8970 -3.0020 0.9489
-8.6468 9.7093 -3.0556 0.9480
-13.6406 5.7095 -3.4753 0.9410
-6.4628 -2.1308 -1.5993 0.9724
-6.2467 -2.6990 -1.5993 0.9724
-6.5495 -5.2524 -1.9731 0.9661
-1.8506 -10.1708 -2.4296 0.9584
0.9124 -10.3296 -2.4372 0.9583
1.8331 -10.2210 -2.4405 0.9582
2.7421 -10.0319 -2.4442 0.9582
4.4973 -9.4172 -2.4527 0.9580
5.1908 -8.7605 -2.3932 0.9590
7.2555 -7.0047 -2.3702 0.9594
9.3315 -4.0599 -2.3917 0.9590
9.6783 -3.2181 -2.3971 0.9590
9.9489 -2.3468 -2.4024 0.9589
10.2397 -1.4669 -2.4311 0.9584
10.3513 -0.5484 -2.4362 0.9583
10.2792 0.3746 -2.4174 0.9586
9.5629 3.9743 -2.4339 0.9583
9.1822 4.8182 -2.4371 0.9583
8.7255 5.6249 -2.4399 0.9582
8.1966 6.3872 -2.4422 0.9582
7.5997 7.0987 -2.4441 0.9582
7.1319 7.9675 -2.5132 0.9570
5.6900 9.2517 -2.5527 0.9564
4.8414 9.7221 -2.5526 0.9564
3.9535 10.1127 -2.5519 0.9564
3.0338 10.4204 -2.5507 0.9564
2.0904 10.6424 -2.5490 0.9564
1.1313 10.7772 -2.5468 0.9565
0.1648 10.8238 -2.5441 0.9565
-1.6845 10.2112 -2.4323 0.9584
-2.5850 10.0045 -2.4285 0.9584
-8.3767 9.9521 -3.0572 0.9480
-9.1579 9.0918 -3.0329 0.9484
-11.8114 6.6643 -3.1873 0.9458
-16.5852 5.7731 -4.1273 0.9304
-6.3136 -2.5211 -1.5978 0.9725
-6.5112 -4.9293 -1.9193 0.9670
-6.6421 -6.0328 -2.1088 0.9638
-6.0264 -7.8502 -2.3259 0.9602
-4.5341 -8.7950 -2.3255 0.9602
-3.7319 -9.1665 -2.3260 0.9601
1.5463 -10.2636 -2.4394 0.9582
2.4597 -10.0996 -2.4430 0.9582
3.3566 -9.8557 -2.4470 0.9581
4.2302 -9.5336 -2.4513 0.9580
5.0736 -9.1351 -2.4559 0.9580
5.6362 -8.3035 -2.3586 0.9596
6.3679 -7.7835 -2.3635 0.9595
7.6835 -6.5560 -2.3738 0.9593
8.7661 -5.1086 -2.3846 0.9592
9.5780 -3.4846 -2.3954 0.9590
10.3798 0.0883 -2.4396 0.9582
10.1378 1.9206 -2.4250 0.9585
9.9426 2.8224 -2.4291 0.9584
9.3095 4.5581 -2.4361 0.9583
8.3694 6.1541 -2.4415 0.9582
7.7933 6.8821 -2.4435 0.9582
7.1525 7.5549 -2.4451 0.9582
6.7319 8.5202 -2.5521 0.9564
5.9460 9.0890 -2.5526 0.9564
1.4322 10.7445 -2.5475 0.9564
0.4672 10.8187 -2.5450 0.9565
-0.4996 10.8045 -2.5420 0.9565
-2.3058 10.0778 -2.4297 0.9584
-4.0466 9.4747 -2.4214 0.9586
-4.8667 9.0584 -2.4167 0.9586
-2.0803 3.1590 -0.8890 0.9846
-8.9297 9.3747 -3.0428 0.9482
-12.6968 6.1687 -3.3176 0.9436
-14.8790 5.6498 -3.7405 0.9367
-6.3844 -2.3449 -1.5985 0.9724
-6.2783 -2.9661 -1.6319 0.9719
-6.7489 -6.9322 -2.2738 0.9610
-5.5322 -8.2041 -2.3256 0.9602
-4.7778 -8.6647 -2.3255 0.9602
-1.5093 -10.2302 -2.4304 0.9584
-0.5909 -10.3336 -2.4326 0.9584
2.1757 -10.1595 -2.4418 0.9582
5.3987 -8.4523 -2.3571 0.9596
6.8439 -7.3887 -2.3670 0.9595
7.4923 -6.7633 -2.3722 0.9594
8.0840 -6.0813 -2.3775 0.9593
8.6139 -5.3476 -2.3829 0.9592
9.0774 -4.5679 -2.3883 0.9591
9.7889 -2.8945 -2.3991 0.9589
10.3718 -0.2014 -2.4381 0.9583
10.2683 0.7194 -2.4192 0.9586
10.1819 1.6359 -2.4237 0.9585
10.0125 2.5424 -2.4278 0.9584
9.7610 3.4312 -2.4317 0.9584
9.4293 4.2946 -2.4351 0.9583
9.0197 5.1254 -2.4382 0.9583
8.5354 5.9163 -2.4408 0.9582
7.9805 6.6603 -2.4430 0.9582
6.1971 8.9190 -2.5525 0.9564
2.6824 10.5138 -2.5501 0.9564
1.7321 10.7033 -2.5482 0.9564
0.7694 10.8050 -2.5459 0.9565
-1.1129 10.2985 -2.4345 0.9583
-2.0245 10.1432 -2.4309 0.9584
-3.7827 9.5895 -2.4227 0.9585
-13.7390 5.6607 -3.4923 0.9408
-6.4503 -2.1667 -1.5992 0.9724
-6.2519 -2.7428 -1.6045 0.9723
-6.3401 -3.4866 -1.7005 0.9707
-6.6984 -6.5065 -2.1947 0.9624
-6.4565 -7.5031 -2.3264 0.9601
-4.2371 -8.9425 -2.3257 0.9602
-3.4232 -9.2877 -2.3264 0.9601
-2.6935 -9.9741 -2.4281 0.9584
-1.7939 -10.1815 -2.4297 0.9584
-0.8789 -10.3099 -2.4318 0.9584
0.9701 -10.3252 -2.4373 0.9583
2.7983 -10.0174 -2.4445 0.9582
3.6873 -9.7440 -2.4486 0.9581
4.5504 -9.3930 -2.4530 0.9580
5.2050 -8.6739 -2.3774 0.9593
5.9158 -8.1163 -2.3604 0.9596
6.6304 -7.5718 -2.3654 0.9595
6.0872 -4.0187 -1.7143 0.9705
10.2491 -1.4099 -2.4315 0.9584
10.3555 -0.4906 -2.4365 0.9583
10.2782 0.4322 -2.4177 0.9586
9.8483 3.1558 -2.4305 0.9584
7.5602 7.1413 -2.4442 0.9582
7.1439 8.0711 -2.5332 0.9567
5.6383 9.2834 -2.5527 0.9564
4.7870 9.7489 -2.5525 0.9564
2.0308 10.6534 -2.5489 0.9564
1.0710 10.7827 -2.5467 0.9565
0.1044 10.8237 -2.5439 0.9565
-4.3587 9.3272 -2.4197 0.9586
-7.4318 10.5011 -3.0235 0.9485
-8.4333 9.9065 -3.0576 0.9479
-5.2453 5.1496 -1.7276 0.9702
-11.8885 6.6204 -3.1981 0.9456
-13.2525 5.8984 -3.4092 0.9421
-17.2433 5.8945 -4.2828 0.9279
-6.5113 -1.9866 -1.5999 0.9724
-6.2989 -2.5561 -1.5976 0.9725
-6.3114 -3.2446 -1.6679 0.9713
-6.5187 -4.9924 -1.9297 0.9668
-5.2540 -8.3846 -2.3255 0.9602
-2.9704 -9.8932 -2.4277 0.9584
-2.0771 -10.1251 -2.4292 0.9584
-1.1661 -10.2783 -2.4311 0.9584
-0.2444 -10.3516 -2.4335 0.9583
1.6038 -10.2557 -2.4396 0.9582
3.4120 -9.8379 -2.4472 0.9581
4.2839 -9.5109 -2.4516 0.9580
5.1252 -9.1078 -2.4562 0.9580
7.7211 -6.5138 -2.3742 0.9593
8.2902 -5.8119 -2.3795 0.9593
8.7958 -5.0603 -2.3849 0.9592
9.5987 -3.4316 -2.3957 0.9590
9.8886 -2.5671 -2.4011 0.9589
10.1989 -1.6944 -2.4298 0.9584
10.3312 -0.7791 -2.4350 0.9583
10.3804 0.1463 -2.4399 0.9582
10.2456 1.0637 -2.4209 0.9586
9.6459 3.7584 -2.4330 0.9584
9.2846 4.6104 -2.4363 0.9583
8.8466 5.4271 -2.4392 0.9583
8.3354 6.2011 -2.4417 0.9582
7.7550 6.9259 -2.4437 0.9582
6.6844 8.5579 -2.5521 0.9564
0.4067 10.8204 -2.5448 0.9565
-0.5599 10.8007 -2.5418 0.9565
-1.4565 10.2500 -2.4332 0.9584
-2.3618 10.0638 -2.4295 0.9584
-2.1017 3.1529 -0.8905 0.9846
-5.0998 6.3411 -1.9125 0.9671
-8.9759 9.3184 -3.0408 0.9482
-11.5487 6.8605 -3.1570 0.9463
-12.7876 6.1248 -3.3323 0.9434
-6.3706 -2.3803 -1.5983 0.9724
-6.3760 -3.7900 -1.7433 0.9700
-6.4820 -4.6832 -1.8794 0.9677
-6.6070 -5.7368 -2.0565 0.9647
-6.2007 -7.7142 -2.3261 0.9601
-4.7293 -8.6913 -2.3255 0.9602
-3.9355 -9.0802 -2.3259 0.9602
-3.1106 -9.3986 -2.3267 0.9601
-1.4523 -10.2390 -2.4305 0.9584
-0.5332 -10.3374 -2.4327 0.9584
1.3162 -10.2920 -2.4386 0.9583
4.0143 -9.6214 -2.4502 0.9581
4.8660 -9.2418 -2.4547 0.9580
5.4466 -8.4231 -2.3574 0.9596
6.1892 -7.9197 -2.3623 0.9595
7.5310 -6.7222 -2.3725 0.9594
8.1190 -6.0368 -2.3778 0.9593
8.6449 -5.3002 -2.3832 0.9592
9.4924 -3.6957 -2.3941 0.9590
9.8063 -2.8401 -2.3994 0.9589
10.2987 -1.0665 -2.4334 0.9583
10.3740 -0.1435 -2.4384 0.9583
10.2653 0.7768 -2.4195 0.9586
10.1737 1.6929 -2.4239 0.9585
9.9992 2.5985 -2.4281 0.9584
9.4059 4.3477 -2.4353 0.9583
8.5028 5.9642 -2.4410 0.9582
7.9435 6.7051 -2.4431 0.9582
7.3184 7.3923 -2.4448 0.9582
6.1473 8.9536 -2.5525 0.9564
5.3241 9.4671 -2.5527 0.9564
4.4573 9.9030 -2.5523 0.9564
2.6235 10.5281 -2.5500 0.9564
0.7089 10.8085 -2.5457 0.9565
-4.6654 9.1693 -2.4179 0.9586
-4.9243 7.8538 -2.1787 0.9626
-7.8524 10.3424 -3.0519 0.9480
-8.7422 9.5983 -3.0513 0.9481
-9.5607 8.7770 -3.0502 0.9481
-12.3556 6.3479 -3.2647 0.9445
-13.8716 5.6250 -3.5180 0.9403
-6.2571 -2.7868 -1.6098 0.9722
-6.3459 -3.5361 -1.7074 0.9706
-6.5655 -5.3867 -1.9959 0.9657
-6.4144 -7.5388 -2.3264 0.9601
-5.7143 -8.0788 -2.3257 0.9602
-4.1872 -8.9661 -2.3257 0.9602
-3.3713 -9.3068 -2.3264 0.9601
-2.6379 -9.9893 -2.4282 0.9584
0.1026 -10.3583 -2.4346 0.9583
1.0279 -10.3205 -2.4375 0.9583
5.2192 -8.5882 -2.3619 0.9595
6.6735 -7.5357 -2.3657 0.9595
7.9417 -6.2568 -2.3761 0.9593
8.9680 -4.7669 -2.3869 0.9591
9.9773 -2.2361 -2.4031 0.9589
10.3594 -0.4329 -2.4368 0.9583
10.2768 0.4896 -2.4180 0.9586
10.2113 1.4074 -2.4226 0.9585
9.8315 3.2110 -2.4307 0.9584
8.1256 6.4790 -2.4425 0.9582
7.5206 7.1837 -2.4443 0.9582
7.1499 8.1695 -2.5515 0.9564
6.3945 8.7779 -2.5524 0.9564
5.5864 9.3148 -2.5527 0.9564
2.9171 10.4528 -2.5505 0.9564
1.9712 10.6640 -2.5488 0.9564
1.0107 10.7879 -2.5465 0.9565
0.0398 9.8042 -2.5385 0.9603
-0.8060 9.4252 -2.4492 0.9617
-3.2349 8.7696 -2.4202 0.9621
-3.9979 8.4318 -2.4161 0.9622
-4.7260 8.0271 -2.4118 0.9622
-6.9054 9.6427 -3.0708 0.9522
-10.2237 6.8732 -3.1897 0.9504
-5.5537 2.4347 -1.5701 0.9753
-5.9224 -0.7322 -1.5451 0.9756
-5.9876 -1.2911 -1.5859 0.9750
-6.3175 -3.2926 -1.8445 0.9710
-6.4144 -4.1097 -1.9724 0.9690
-6.6021 -6.1324 -2.3331 0.9635
-6.0255 -6.6938 -2.3319 0.9635
-5.4024 -7.2025 -2.3311 0.9635
-4.7374 -7.6548 -2.3308 0.9635
-4.0355 -8.0473 -2.3309 0.9635
-3.3020 -8.3772 -2.3314 0.9635
-2.6521 -9.0155 -2.4332 0.9619
-1.0085 -9.3557 -2.4364 0.9619
-0.1697 -9.4169 -2.4386 0.9618
2.3392 -9.1588 -2.4475 0.9617
3.1520 -8.9268 -2.4512 0.9616
3.9424 -8.6238 -2.4551 0.9616
5.3170 -7.6480 -2.4117 0.9622
6.4796 -6.4689 -2.3706 0.9629
8.0105 -4.5492 -2.3852 0.9627
8.7274 -3.0653 -2.3950 0.9625
8.9842 -2.2788 -2.3998 0.9624
9.2821 -0.6479 -2.4092 0.9623
9.3199 0.1834 -2.4136 0.9622
9.2825 1.0162 -2.4178 0.9622
8.7208 3.4542 -2.4286 0.9620
8.3880 4.2238 -2.4316 0.9619
7.9861 4.9608 -2.4342 0.9619
6.9884 6.3118 -2.4382 0.9618
5.2921 8.2902 -2.5465 0.9602
3.7332 9.0969 -2.5460 0.9602
1.1882 9.7442 -2.5416 0.9603
-2.1909 9.1063 -2.4251 0.9620
-3.7629 8.5448 -2.4174 0.9622
-2.1289 3.1554 -0.9855 0.9844
-9.1890 7.8849 -3.1350 0.9512
-10.0041 7.1392 -3.1822 0.9505
-11.9115 5.6235 -3.4105 0.9470
-5.8708 -0.0336 -1.5201 0.9760
-6.3827 -3.8423 -1.9289 0.9697
-6.4897 -4.7441 -2.0814 0.9673
-6.6162 -5.8099 -2.2798 0.9643
-6.2109 -6.5238 -2.3322 0.9635
-4.2585 -7.9313 -2.3308 0.9635
-3.5343 -8.2810 -2.3312 0.9635
-2.9024 -8.9366 -2.4328 0.9619
1.2492 -9.3532 -2.4432 0.9618
2.0817 -9.2165 -2.4464 0.9617
3.6981 -8.7260 -2.4538 0.9616
4.4696 -8.3753 -2.4580 0.9615
5.2085 -7.9571 -2.4624 0.9615
5.6636 -7.1643 -2.3646 0.9630
7.8752 -4.7680 -2.3836 0.9627
8.2864 -4.0545 -2.3886 0.9626
8.6329 -3.3057 -2.3935 0.9625
9.3023 0.7562 -2.4165 0.9622
9.2130 1.5860 -2.4205 0.9621
9.0486 2.4055 -2.4242 0.9621
7.6714 5.4452 -2.4358 0.9619
7.1604 6.1129 -2.4377 0.9618
6.8757 7.0231 -2.5448 0.9602
6.2241 7.6119 -2.5458 0.9602
4.7732 8.5995 -2.5466 0.9602
2.3225 9.5473 -2.5441 0.9602
1.4602 9.7097 -2.5423 0.9602
0.5874 9.7928 -2.5401 0.9603
-1.1122 9.3168 -2.4294 0.9620
-1.9366 9.1680 -2.4261 0.9620
-2.7430 8.9454 -2.4226 0.9621
-3.5247 8.6510 -2.4187 0.9621
-4.2753 8.2877 -2.4145 0.9622
-2.0562 3.2391 -0.9934 0.9843
-8.0645 8.7555 -3.0820 0.9520
-10.5047 6.5621 -3.2069 0.9501
-5.5781 2.2257 -1.5550 0.9755
-5.6629 1.6917 -1.5303 0.9759
-6.1089 -1.5331 -1.6307 0.9743
-6.1824 -2.1539 -1.6951 0.9733
-6.2628 -2.8314 -1.7796 0.9720
-6.3523 -3.5863 -1.8887 0.9703
-5.7971 -6.8909 -2.3316 0.9635
-5.1576 -7.3789 -2.3310 0.9635
-3.7639 -8.1785 -2.3311 0.9635
-3.0198 -8.4842 -2.3317 0.9635
-0.6947 -9.3872 -2.4372 0.9619
0.1460 -9.4209 -2.4395 0.9618
0.9872 -9.3808 -2.4423 0.9618
1.8228 -9.2671 -2.4454 0.9617
2.6462 -9.0802 -2.4488 0.9617
4.9815 -8.0949 -2.4610 0.9615
5.4581 -7.3153 -2.3632 0.9630
6.1013 -3.9309 -1.8792 0.9705
8.1647 -4.2815 -2.3870 0.9626
9.0623 -1.9779 -2.4016 0.9624
9.2206 -1.1636 -2.4063 0.9623
9.1080 2.1510 -2.4231 0.9621
8.8926 2.9595 -2.4266 0.9620
8.2453 4.5044 -2.4326 0.9619
7.8182 5.2275 -2.4351 0.9619
7.3266 5.9092 -2.4371 0.9619
6.9907 6.7526 -2.5165 0.9606
6.4335 7.4343 -2.5455 0.9602
5.7461 7.9811 -2.5463 0.9602
4.2358 8.8756 -2.5464 0.9602
2.5887 9.4804 -2.5445 0.9602
1.7312 9.6674 -2.5429 0.9602
0.8608 9.7754 -2.5408 0.9603
-1.6806 9.2225 -2.4272 0.9620
-4.0445 8.4085 -2.4159 0.9622
-4.7702 7.9997 -2.4116 0.9622
-8.6437 8.2984 -3.1024 0.9517
-5.3577 4.2943 -1.7778 0.9720
-10.2670 6.8194 -3.1913 0.9503
-11.2069 6.0779 -3.3009 0.9487
-5.6215 1.8518 -1.5325 0.9758
-5.9264 -0.7663 -1.5472 0.9756
-6.4209 -4.1646 -1.9816 0.9689
-6.5675 -6.1689 -2.3330 0.9635
-5.9879 -6.7271 -2.3318 0.9635
-5.3620 -7.2324 -2.3311 0.9635
-4.6945 -7.6811 -2.3308 0.9635
-3.9905 -8.0698 -2.3309 0.9635
-3.2552 -8.3957 -2.3315 0.9635
-0.9563 -9.3617 -2.4365 0.9619
-0.1171 -9.4183 -2.4388 0.9618
0.7246 -9.4013 -2.4414 0.9618
3.9909 -8.6025 -2.4554 0.9616
4.7509 -8.2262 -2.4596 0.9615
5.3290 -7.5747 -2.3980 0.9625
5.9047 -6.9755 -2.3663 0.9629
6.5164 -6.4334 -2.3709 0.9629
7.0788 -5.8379 -2.3757 0.9628
7.5870 -5.1935 -2.3806 0.9627
8.4241 -3.7776 -2.3904 0.9626
9.1790 -1.4197 -2.4049 0.9623
9.2867 -0.5960 -2.4094 0.9623
9.1601 1.8949 -2.4219 0.9621
8.9678 2.7088 -2.4255 0.9620
8.7021 3.5031 -2.4288 0.9620
8.3649 4.2709 -2.4318 0.9619
7.9588 5.0056 -2.4344 0.9619
7.4870 5.7010 -2.4365 0.9619
6.9572 6.3545 -2.4396 0.9618
6.6377 7.2508 -2.5452 0.9602
5.9662 7.8170 -2.5461 0.9602
5.2457 8.3196 -2.5465 0.9602
4.4822 8.7544 -2.5465 0.9602
0.2588 9.8033 -2.5391 0.9603
-1.4230 9.2698 -2.4282 0.9620
-3.0394 8.8433 -2.4211 0.9621
-4.5476 8.1344 -2.4129 0.9622
-8.3604 8.4876 -3.0847 0.9520
-10.8747 6.2969 -3.2536 0.9494
-5.8699 -0.0664 -1.5199 0.9760
-6.2117 -2.4003 -1.7242 0.9729
-6.6249 -5.8834 -2.2941 0.9641
-6.1742 -6.5582 -2.3321 0.9635
-5.5623 -7.0804 -2.3313 0.9635
-4.9073 -7.5472 -2.3309 0.9635
-2.0432 -9.1766 -2.4342 0.9619
-1.2170 -9.3289 -2.4359 0.9619
-0.3799 -9.4085 -2.4380 0.9618
1.3016 -9.3468 -2.4434 0.9618
2.9506 -8.9915 -2.4502 0.9617
3.7472 -8.7061 -2.4541 0.9616
4.5168 -8.3511 -2.4582 0.9615
5.2535 -7.9288 -2.4627 0.9615
5.7042 -7.1334 -2.3649 0.9630
6.9087 -6.0295 -2.3742 0.9628
7.4343 -5.3998 -2.3790 0.9627
7.9028 -4.7245 -2.3839 0.9627
8.9266 -2.4777 -2.3986 0.9624
9.1302 -1.6745 -2.4034 0.9624
9.2989 0.8082 -2.4167 0.9622
9.2049 1.6376 -2.4207 0.9621
9.0359 2.4563 -2.4244 0.9620
8.4778 4.0342 -2.4309 0.9619
7.1363 6.1615 -2.4411 0.9618
6.8366 7.0616 -2.5448 0.9602
6.1816 7.6466 -2.5459 0.9602
3.9358 9.0119 -2.5462 0.9602
3.1148 9.3240 -2.5453 0.9602
1.4059 9.7173 -2.5422 0.9602
0.5326 9.7953 -2.5399 0.9603
-0.3433 9.7935 -2.5373 0.9603
-1.1641 9.3097 -2.4292 0.9620
-10.5653 6.5182 -3.2143 0.9500
-11.6274 5.8105 -3.3655 0.9477
-5.5821 2.1912 -1.5527 0.9755
-5.8871 -0.4290 -1.5283 0.9759
-6.1133 -1.5705 -1.6342 0.9743
-6.1872 -2.1944 -1.6998 0.9732
-6.2681 -2.8760 -1.7856 0.9719
-6.3583 -3.6366 -1.8965 0.9702
-6.5823 -5.5247 -2.2250 0.9651
-5.7583 -6.9231 -2.3315 0.9635
-5.1163 -7.4076 -2.3310 0.9635
-3.7182 -8.1995 -2.3311 0.9635
-2.9725 -8.5012 -2.3318 0.9635
-1.4766 -9.2891 -2.4353 0.9619
-0.6423 -9.3915 -2.4373 0.9619
0.1986 -9.4205 -2.4397 0.9618
1.8746 -9.2575 -2.4456 0.9617
2.6971 -9.0662 -2.4491 0.9617
3.5009 -8.8029 -2.4528 0.9616
5.0272 -8.0679 -2.4613 0.9615
6.1396 -6.7787 -2.3680 0.9629
6.7334 -6.2161 -2.3727 0.9628
7.2760 -5.6017 -2.3775 0.9628
8.1895 -4.2364 -2.3873 0.9626
8.5525 -3.4959 -2.3922 0.9625
9.0743 -1.9275 -2.4019 0.9624
9.2280 -1.1122 -2.4066 0.9623
9.2423 1.3792 -2.4195 0.9621
8.8767 3.0094 -2.4268 0.9620
7.7894 5.2713 -2.4352 0.9619
7.2939 5.9503 -2.4372 0.9619
6.3920 7.4703 -2.5456 0.9602
5.7015 8.0132 -2.5463 0.9602
4.1861 8.8991 -2.5463 0.9602
3.3743 9.2345 -2.5456 0.9602
2.5356 9.4944 -2.5444 0.9602
1.6771 9.6765 -2.5428 0.9602
-0.9041 9.3422 -2.4302 0.9620
-1.7319 9.2122 -2.4270 0.9620
-4.0909 8.3848 -2.4156 0.9622
-7.8627 8.9288 -3.0804 0.9520
-8.6962 8.2560 -3.1047 0.9517
-5.4299 3.5630 -1.6816 0.9735
-11.2765 6.0344 -3.3114 0.9485
-5.5619 2.3646 -1.5648 0.9753
-5.6267 1.8187 -1.5311 0.9759
-5.8677 -0.2631 -1.5208 0.9760
-6.0913 -1.3848 -1.6174 0.9745
-6.1635 -1.9940 -1.6773 0.9736
-6.2419 -2.6557 -1.7563 0.9724
-6.3289 -3.3889 -1.8588 0.9708
-5.9501 -6.7603 -2.3318 0.9635
-3.2083 -8.4139 -2.3315 0.9635
-2.5514 -9.0451 -2.4333 0.9619
-1.7351 -9.2422 -2.4348 0.9619
-0.9040 -9.3673 -2.4366 0.9619
-0.0645 -9.4194 -2.4389 0.9618
2.4418 -9.1337 -2.4479 0.9617
3.2521 -8.8928 -2.4516 0.9616
4.7973 -8.2004 -2.4599 0.9615
5.9443 -6.9433 -2.3666 0.9629
6.5531 -6.3977 -2.3712 0.9629
7.1122 -5.7990 -2.3760 0.9628
7.6169 -5.1517 -2.3809 0.9627
8.0629 -4.4605 -2.3858 0.9626
9.0114 -2.1788 -2.4004 0.9624
9.3194 0.2876 -2.4141 0.9622
9.2725 1.1200 -2.4183 0.9621
8.3415 4.3178 -2.4320 0.9619
7.9312 5.0503 -2.4345 0.9619
6.9624 6.4309 -2.4540 0.9616
6.5973 7.2879 -2.5453 0.9602
5.9226 7.8503 -2.5462 0.9602
5.1992 8.3488 -2.5465 0.9602
4.4332 8.7792 -2.5465 0.9602
1.9470 9.6280 -2.5433 0.9602
-0.6709 9.7723 -2.5362 0.9603
-1.4747 9.2609 -2.4280 0.9620
-2.2920 9.0796 -2.4246 0.9620
-3.8573 8.5004 -2.4169 0.9622
-4.5924 8.1079 -2.4127 0.9622
-7.6058 9.1392 -3.0785 0.9521
-8.4089 8.4420 -3.0851 0.9520
-9.2983 7.8001 -3.1424 0.9511
-5.4799 3.1323 -1.6343 0.9743
-5.6059 1.9865 -1.5399 0.9757
-6.1404 -1.7988 -1.6567 0.9739
-6.3006 -3.1507 -1.8239 0.9713
-6.5043 -4.8672 -2.1034 0.9670
-6.1373 -6.5924 -2.3321 0.9635
-5.5225 -7.1113 -2.3313 0.9635
-4.8650 -7.5745 -2.3308 0.9635
-3.4417 -8.3203 -2.3313 0.9635
-2.8026 -8.9690 -2.4330 0.9619
-1.9920 -9.1883 -2.4343 0.9619
1.3539 -9.3401 -2.4436 0.9618
2.1849 -9.1943 -2.4469 0.9617
3.7961 -8.6859 -2.4543 0.9616
5.7447 -7.1023 -2.3652 0.9630
6.3679 -6.5741 -2.3698 0.9629
7.4653 -5.3589 -2.3793 0.9627
7.9301 -4.6809 -2.3843 0.9627
8.6715 -3.2098 -2.3941 0.9625
9.1405 -1.6236 -2.4037 0.9624
9.2667 -0.8029 -2.4083 0.9623
9.2952 0.8603 -2.4170 0.9622
8.0666 4.8254 -2.4338 0.9619
7.6109 5.5312 -2.4360 0.9619
6.1390 7.6812 -2.5459 0.9602
5.4301 8.2002 -2.5465 0.9602
4.6768 8.6522 -2.5465 0.9602
3.8853 9.0336 -2.5461 0.9602
3.0626 9.3410 -2.5452 0.9602
2.2156 9.5719 -2.5439 0.9602
0.4779 9.7976 -2.5398 0.9603
-0.3979 9.7908 -2.5371 0.9603
-2.8422 8.9125 -2.4221 0.9621
-4.3667 8.2377 -2.4140 0.9622
-7.3412 9.3399 -3.0759 0.9521
-9.8700 7.2961 -3.1779 0.9505
-6.1178 -1.6081 -1.6378 0.9742
-6.1921 -2.2351 -1.7045 0.9732
-6.2734 -2.9210 -1.7917 0.9718
-6.5906 -5.5947 -2.2384 0.9649
-6.3199 -6.4194 -2.3324 0.9635
-4.3907 -7.8587 -2.3308 0.9635
-2.9250 -8.5178 -2.3318 0.9635
-2.2474 -9.1273 -2.4338 0.9619
-0.5899 -9.3954 -2.4374 0.9618
1.0921 -9.3706 -2.4426 0.9618
4.3273 -8.4462 -2.4572 0.9615
7.7912 -4.8974 -2.3827 0.9627
9.0861 -1.8771 -2.4022 0.9624
9.2352 -1.0608 -2.4069 0.9623
9.3104 -0.2328 -2.4114 0.9622
9.3106 0.6000 -2.4157 0.9622
9.2354 1.4310 -2.4198 0.9621
8.5632 3.8427 -2.4302 0.9620
8.1955 4.5968 -2.4330 0.9619
7.7602 5.3150 -2.4354 0.9619
7.2609 5.9913 -2.4373 0.9619
6.9917 6.9062 -2.5445 0.9602
6.3504 7.5060 -2.5457 0.9602
4.9166 8.5184 -2.5466 0.9602
4.1364 8.9222 -2.5463 0.9602
3.3226 9.2530 -2.5455 0.9602
2.4824 9.5081 -2.5443 0.9602
1.6229 9.6853 -2.5427 0.9602
0.7515 9.7833 -2.5405 0.9603
-0.9561 9.3363 -2.4300 0.9620
-3.3803 8.7116 -2.4194 0.9621
-7.9135 8.8858 -3.0808 0.9520
-5.4346 3.5228 -1.6769 0.9736
-11.3463 5.9905 -3.3221 0.9484
-5.5660 2.3297 -1.5623 0.9754
-5.6360 1.7870 -1.5309 0.9759
-5.8716 -0.2962 -1.5222 0.9760
-5.9344 -0.8348 -1.5516 0.9755
-6.0957 -1.4216 -1.6206 0.9745
-6.1682 -2.0337 -1.6816 0.9735
-6.2471 -2.6991 -1.7620 0.9723
-6.4341 -4.2760 -2.0003 0.9686
-6.5501 -5.2528 -2.1739 0.9659
-6.4978 -6.2414 -2.3328 0.9635
-5.9121 -6.7933 -2.3317 0.9635
-5.2807 -7.2917 -2.3311 0.9635
-4.6084 -7.7331 -2.3308 0.9635
-3.1614 -8.4319 -2.3316 0.9635
-1.6835 -9.2521 -2.4349 0.9619
-0.8517 -9.3727 -2.4368 0.9619
0.8297 -9.3939 -2.4417 0.9618
1.6668 -9.2940 -2.4448 0.9617
2.4930 -9.1208 -2.4482 0.9617
3.3020 -8.8753 -2.4519 0.9616
4.8435 -8.1745 -2.4601 0.9615
7.6465 -5.1097 -2.3812 0.9627
8.7809 -2.9197 -2.3959 0.9625
9.0245 -2.1287 -2.4007 0.9624
9.1965 -1.3175 -2.4054 0.9623
9.2949 -0.4924 -2.4100 0.9623
9.2670 1.1720 -2.4185 0.9621
9.1401 1.9975 -2.4224 0.9621
8.9386 2.8093 -2.4260 0.9620
8.6638 3.6006 -2.4292 0.9620
7.4236 5.7848 -2.4368 0.9619
5.8787 7.8834 -2.5462 0.9602
5.1525 8.3777 -2.5466 0.9602
3.5801 9.1577 -2.5458 0.9602
1.8932 9.6384 -2.5432 0.9602
-3.9043 8.4778 -2.4166 0.9622
-4.6371 8.0813 -2.4124 0.9622
-6.7946 9.7155 -3.0696 0.9522
-7.6576 9.0977 -3.0789 0.9521
-8.4670 8.4059 -3.0892 0.9519
-9.3528 7.7573 -3.1462 0.9510
-5.6098 1.9527 -1.5380 0.9758
-6.2359 -1.2718 -1.6478 0.9740
-6.3062 -3.1976 -1.8307 0.9712
-6.5117 -4.9297 -2.1146 0.9668
-6.6427 -6.0333 -2.3234 0.9636
-6.1002 -6.6264 -2.3320 0.9635
-5.4826 -7.1419 -2.3312 0.9635
-4.8226 -7.6015 -2.3308 0.9635
-2.7525 -8.9848 -2.4330 0.9619
-1.1128 -9.3429 -2.4361 0.9619
-0.2749 -9.4132 -2.4383 0.9618
0.5669 -9.4101 -2.4409 0.9618
1.4061 -9.3331 -2.4438 0.9618
4.6108 -8.3019 -2.4588 0.9615
5.2986 -7.8061 -2.4428 0.9618
6.4054 -6.5392 -2.3701 0.9629
6.9773 -5.9534 -2.3748 0.9628
8.3564 -3.9166 -2.3895 0.9626
8.9560 -2.3784 -2.3992 0.9624
9.1506 -1.5728 -2.4040 0.9624
9.2722 -0.7514 -2.4086 0.9623
9.3193 0.0793 -2.4130 0.9622
9.1878 1.7406 -2.4212 0.9621
9.0095 2.5575 -2.4249 0.9620
8.7574 3.3560 -2.4283 0.9620
8.4335 4.1292 -2.4313 0.9619
8.0400 4.8707 -2.4339 0.9619
7.5803 5.5738 -2.4362 0.9619
4.6283 8.6782 -2.5465 0.9602
3.8347 9.0550 -2.5461 0.9602
3.0103 9.3577 -2.5451 0.9602
-0.4526 9.7877 -2.5369 0.9603
-2.0894 9.1319 -2.4255 0.9620
-2.8917 8.8956 -2.4219 0.9621
-2.0799 3.1583 -0.9791 0.9845
-9.0792 7.9686 -3.1278 0.9513
-9.9149 7.2440 -3.1793 0.9505
-11.7690 5.7179 -3.3878 0.9474
-5.5900 2.1226 -1.5482 0.9756
-6.2788 -2.9663 -1.7980 0.9717
-6.3704 -3.7386 -1.9125 0.9699
-5.6804 -6.9867 -2.3314 0.9635
-4.3468 -7.8831 -2.3308 0.9635
-2.1965 -9.1401 -2.4339 0.9619
-1.3729 -9.3059 -2.4355 0.9619
-0.5374 -9.3991 -2.4376 0.9618
0.3039 -9.4190 -2.4400 0.9618
1.1445 -9.3651 -2.4428 0.9618
5.1181 -8.0130 -2.4618 0.9615
5.5819 -7.2254 -2.3640 0.9630
6.2165 -6.7114 -2.3686 0.9629
6.8041 -6.1421 -2.3733 0.9628
8.2385 -4.1458 -2.3879 0.9626
8.5933 -3.4010 -2.3929 0.9625
8.8805 -2.6259 -2.3977 0.9625
9.0975 -1.8265 -2.4025 0.9624
9.2421 -1.0093 -2.4072 0.9623
8.8440 3.1089 -2.4272 0.9620
8.5423 3.8907 -2.4304 0.9620
7.2276 6.0320 -2.4375 0.9618
5.6117 8.0765 -2.5464 0.9602
4.0864 8.9451 -2.5463 0.9602
3.2708 9.2712 -2.5455 0.9602
2.4292 9.5214 -2.5442 0.9602
0.6968 9.7868 -2.5404 0.9603
-0.1792 9.8000 -2.5378 0.9603
-1.0082 9.3301 -2.4298 0.9620
-7.1248 9.4936 -3.0733 0.9521
-9.6778 7.4941 -3.1692 0.9507
-5.4392 3.4828 -1.6723 0.9737
-11.4163 5.9462 -3.3328 0.9482
-5.5700 2.2949 -1.5598 0.9754
-6.2523 -2.7429 -1.7678 0.9722
-6.3405 -3.4868 -1.8735 0.9705
-6.5580 -5.3196 -2.1864 0.9657
-6.4626 -6.2774 -2.3327 0.9635
-5.8739 -6.8261 -2.3317 0.9635
-3.1143 -8.4496 -2.3316 0.9635
-2.4503 -9.0736 -2.4335 0.9619
-0.7994 -9.3779 -2.4369 0.9619
0.0407 -9.4207 -2.4392 0.9618
1.7188 -9.2853 -2.4450 0.9617
3.3519 -8.8576 -2.4521 0.9616
4.1358 -8.5371 -2.4561 0.9616
5.3748 -7.3741 -2.3626 0.9630
7.1783 -5.7207 -2.3766 0.9628
6.0491 -3.9936 -1.8768 0.9705
8.1143 -4.3714 -2.3864 0.9626
8.7981 -2.8710 -2.3962 0.9625
9.0374 -2.0786 -2.4010 0.9624
9.3176 0.3918 -2.4146 0.9622
9.1297 2.0487 -2.4226 0.9621
7.8752 5.1392 -2.4348 0.9619
6.9730 6.5866 -2.4835 0.9611
5.8347 7.9162 -2.5462 0.9602
4.3348 8.8280 -2.5464 0.9602
3.5289 9.1773 -2.5458 0.9602
2.6946 9.4516 -2.5447 0.9602
0.9700 9.7662 -2.5411 0.9603
-1.5777 9.2423 -2.4276 0.9620
-3.9511 8.4550 -2.4164 0.9622
-7.7092 9.0558 -3.0793 0.9520
-8.5272 8.3717 -3.0940 0.9518
-9.4073 7.7142 -3.1499 0.9510
-5.6137 1.9190 -1.5361 0.9758
-5.8659 -0.1646 -1.5194 0.9760
-5.9184 -0.6982 -1.5430 0.9757
-6.0084 -1.2605 -1.5895 0.9750
-6.1495 -1.8763 -1.6647 0.9738
-6.5192 -4.9929 -2.1261 0.9666
-6.6365 -6.0956 -2.3331 0.9635
-6.0630 -6.6602 -2.3320 0.9635
-4.0804 -8.0246 -2.3309 0.9635
-3.3486 -8.3585 -2.3314 0.9635
-1.0607 -9.3494 -2.4363 0.9619
0.6195 -9.4074 -2.4410 0.9618
1.4583 -9.3259 -2.4440 0.9617
3.8937 -8.6448 -2.4549 0.9616
4.6577 -8.2769 -2.4591 0.9615
5.3078 -7.7266 -2.4271 0.9620
5.8250 -7.0394 -2.3657 0.9630
7.0114 -5.9151 -2.3751 0.9628
7.5266 -5.2766 -2.3800 0.9627
7.9839 -4.5933 -2.3849 0.9627
8.7090 -3.1135 -2.3947 0.9625
8.9702 -2.3287 -2.3995 0.9624
9.2773 -0.6996 -2.4089 0.9623
9.1789 1.7921 -2.4214 0.9621
8.9959 2.6080 -2.4251 0.9620
7.5494 5.6164 -2.4363 0.9619
7.0233 6.2724 -2.4381 0.9618
6.7179 7.1758 -2.5451 0.9602
5.3383 8.2604 -2.5465 0.9602
4.5798 8.7038 -2.5465 0.9602
3.7840 9.0761 -2.5460 0.9602
2.9579 9.3741 -2.5451 0.9602
1.2427 9.7379 -2.5418 0.9602
0.3684 9.8011 -2.5395 0.9603
-2.9410 8.8784 -2.4216 0.9621
-2.1012 3.1522 -0.9809 0.9845
-5.1002 6.3416 -2.1071 0.9669
-8.2626 8.5780 -3.0838 0.9520
-9.1341 7.9269 -3.1314 0.9513
-6.2018 -2.3172 -1.7142 0.9730
-6.6076 -5.7372 -2.2657 0.9645
-5.6412 -7.0181 -2.3314 0.9635
-2.9195 -8.8212 -2.4058 0.9623
-2.1454 -9.1526 -2.4340 0.9619
-1.3210 -9.3138 -2.4357 0.9619
-0.4850 -9.4025 -2.4377 0.9618
2.0300 -9.2272 -2.4462 0.9617
5.1634 -7.9852 -2.4621 0.9615
6.2546 -6.6774 -2.3689 0.9629
6.8392 -6.1047 -2.3736 0.9628
7.3716 -5.4811 -2.3784 0.9628
7.8475 -4.8113 -2.3833 0.9627
8.6132 -3.3534 -2.3932 0.9625
8.8962 -2.5766 -2.3980 0.9625
9.3146 -0.1288 -2.4119 0.9622
9.0611 2.3547 -2.4240 0.9621
8.1448 4.6886 -2.4333 0.9619
7.7013 5.4020 -2.4356 0.9619
7.1941 6.0725 -2.4376 0.9618
6.9146 6.9843 -2.5447 0.9602
5.5666 8.1078 -2.5464 0.9602
4.0363 8.9676 -2.5462 0.9602
1.5145 9.7019 -2.5424 0.9602
-4.9247 7.8546 -2.4004 0.9624
-10.4441 6.6057 -3.1997 0.9502
-5.5740 2.2603 -1.5574 0.9755
-5.8793 -0.3624 -1.5252 0.9760
-6.1045 -1.4957 -1.6273 0.9744
-6.1777 -2.1136 -1.6905 0.9734
-6.2575 -2.7870 -1.7736 0.9721
-6.3464 -3.5363 -1.8811 0.9704
-6.5660 -5.3872 -2.1990 0.9655
-5.1988 -7.3501 -2.3310 0.9635
-3.8095 -8.1573 -2.3310 0.9635
0.0933 -9.4210 -2.4394 0.9618
0.9347 -9.3855 -2.4421 0.9618
2.5952 -9.0940 -2.4486 0.9617
3.4016 -8.8397 -2.4524 0.9616
4.9356 -8.1216 -2.4607 0.9615
5.4165 -7.3448 -2.3629 0.9630
6.0620 -6.8453 -2.3674 0.9629
6.6618 -6.2893 -2.3721 0.9629
7.2111 -5.6812 -2.3769 0.9628
8.8152 -2.8222 -2.3965 0.9625
9.2128 -1.2150 -2.4060 0.9623
9.3163 0.4438 -2.4149 0.9622
9.2553 1.2757 -2.4190 0.9621
9.1190 2.0998 -2.4229 0.9621
8.9082 2.9095 -2.4264 0.9620
8.6244 3.6978 -2.4296 0.9620
8.2697 4.4579 -2.4325 0.9619
7.8469 5.1834 -2.4349 0.9619
7.3592 5.8679 -2.4370 0.9619
5.7905 7.9488 -2.5463 0.9602
4.2854 8.8520 -2.5464 0.9602
0.9155 9.7710 -2.5410 0.9603
-0.7619 8.9096 -2.5314 0.9635
-2.2314 8.2540 -2.4205 0.9651
-9.5616 6.4281 -3.2616 0.9532
-11.4272 5.0096 -3.5322 0.9495
-13.0961 4.3952 -3.9107 0.9442
-5.9879 -1.2911 -1.7341 0.9749
-6.1546 -1.9155 -1.8247 0.9736
-6.2321 -2.5697 -1.9084 0.9724
-6.4149 -4.1100 -2.1568 0.9688
-6.5273 -5.0572 -2.3376 0.9663
-5.5214 -6.1337 -2.3363 0.9663
-3.6980 -7.3743 -2.3354 0.9663
-3.0258 -7.6765 -2.3359 0.9663
-0.9240 -8.5718 -2.4407 0.9648
2.8864 -8.1747 -2.4542 0.9646
4.9720 -7.1518 -2.4658 0.9644
5.9292 -5.9194 -2.3718 0.9658
6.4457 -5.3765 -2.3762 0.9657
6.9127 -4.7888 -2.3806 0.9656
8.2125 -2.0830 -2.3985 0.9654
8.3807 -1.3442 -2.4028 0.9653
8.4820 -0.5920 -2.4070 0.9653
8.5152 0.1676 -2.4111 0.9652
8.4797 0.9283 -2.4149 0.9652
8.3754 1.6839 -2.4185 0.9651
8.2030 2.4279 -2.4218 0.9651
7.9635 3.1542 -2.4248 0.9650
7.2912 4.5291 -2.4299 0.9649
6.8635 5.1660 -2.4319 0.9649
4.8304 7.5669 -2.5414 0.9634
3.4076 8.3035 -2.5409 0.9634
1.8756 8.7694 -2.5387 0.9634
1.0848 8.8957 -2.5369 0.9634
0.2863 8.9495 -2.5348 0.9635
-1.2523 8.4727 -2.4246 0.9650
-2.7313 8.0936 -2.4182 0.9651
-4.1139 7.4561 -2.4107 0.9652
-5.1079 6.2791 -2.2914 0.9669
-7.7517 7.9580 -3.1450 0.9549
-10.1746 5.9676 -3.3392 0.9521
-5.6053 2.0571 -1.6903 0.9755
-5.6675 1.5220 -1.6613 0.9759
-6.1316 -1.7221 -1.8030 0.9739
-6.2901 -3.0580 -1.9800 0.9713
-6.2051 -5.4489 -2.3378 0.9663
-4.5355 -6.8908 -2.3354 0.9663
-3.9023 -7.2680 -2.3353 0.9663
-3.2387 -7.5884 -2.3357 0.9663
-1.1627 -8.5407 -2.4401 0.9648
-0.3962 -8.6172 -2.4420 0.9648
1.1443 -8.5675 -2.4470 0.9647
3.3863 -7.9901 -2.4567 0.9646
5.7584 -6.0792 -2.3705 0.9658
7.5777 -3.7078 -2.3882 0.9655
7.8931 -3.0224 -2.3927 0.9655
8.3352 -1.5768 -2.4015 0.9653
8.5122 -0.0702 -2.4098 0.9652
8.4982 0.6909 -2.4137 0.9652
8.0455 2.9295 -2.4239 0.9650
7.7609 3.6400 -2.4267 0.9650
7.4126 4.3225 -2.4292 0.9650
7.0034 4.9711 -2.4313 0.9649
6.2762 6.4108 -2.5398 0.9634
5.6813 6.9479 -2.5408 0.9634
2.8907 8.4952 -2.5403 0.9634
2.1201 8.7151 -2.5391 0.9634
1.3330 8.8639 -2.5375 0.9634
0.5362 8.9404 -2.5355 0.9635
-0.2635 8.9442 -2.5331 0.9635
-1.0156 8.5075 -2.4255 0.9650
-1.7686 8.3727 -2.4225 0.9651
-3.9061 7.5719 -2.4120 0.9652
-2.0561 3.2390 -1.0861 0.9842
-6.6559 8.6655 -3.0933 0.9556
-7.4733 8.1136 -3.1228 0.9552
-9.8955 6.1816 -3.3030 0.9527
-11.8675 4.7353 -3.6172 0.9483
-14.6303 4.3705 -4.3226 0.9385
-5.9542 -0.9396 -1.7065 0.9753
-6.3528 -3.5866 -2.0652 0.9701
-6.3561 -5.2745 -2.3382 0.9662
-4.7263 -6.7618 -2.3355 0.9663
-4.1037 -7.1561 -2.3353 0.9663
-3.4490 -7.4945 -2.3355 0.9663
-2.1524 -8.3393 -2.4382 0.9648
1.6695 -8.4880 -2.4489 0.9647
2.4235 -8.3159 -2.4521 0.9646
3.1604 -8.0778 -2.4556 0.9646
5.5832 -6.2341 -2.3691 0.9658
6.0948 -3.9267 -2.0525 0.9703
7.8011 -3.2397 -2.3913 0.9655
8.0741 -2.5353 -2.3958 0.9654
8.5025 -0.3077 -2.4086 0.9652
8.3187 1.9646 -2.4197 0.9651
7.8568 3.4207 -2.4259 0.9650
6.8478 5.5231 -2.4905 0.9641
2.3630 8.6540 -2.5396 0.9634
-0.8116 8.9046 -2.5313 0.9635
-1.5347 8.4221 -2.4235 0.9650
-2.9993 7.9932 -2.4169 0.9651
-3.6949 7.6819 -2.4132 0.9652
-4.3586 7.3096 -2.4092 0.9652
-7.1945 8.2624 -3.1015 0.9555
-8.0849 7.7620 -3.1728 0.9545
-10.5189 5.7047 -3.3876 0.9515
-11.4948 4.9629 -3.5444 0.9493
-13.3407 4.3946 -3.9763 0.9433
-6.0873 -1.3481 -1.7650 0.9744
-6.1592 -1.9547 -1.8293 0.9735
-6.2372 -2.6126 -1.9144 0.9723
-6.3236 -3.3408 -2.0246 0.9707
-6.4214 -4.1649 -2.1667 0.9687
-4.3019 -7.0387 -2.3353 0.9663
-2.9829 -7.6934 -2.3359 0.9663
-0.8761 -8.5773 -2.4408 0.9648
2.1894 -8.3768 -2.4511 0.9646
3.6542 -7.8766 -2.4581 0.9645
4.3494 -7.5310 -2.4620 0.9645
5.9629 -5.8868 -2.3721 0.9658
6.4763 -5.3410 -2.3765 0.9657
6.9401 -4.7506 -2.3809 0.9656
7.3502 -4.1201 -2.3854 0.9656
7.7031 -3.4542 -2.3899 0.9655
7.9956 -2.7582 -2.3944 0.9654
8.4752 0.9758 -2.4151 0.9652
7.9464 3.1988 -2.4250 0.9650
7.6376 3.8996 -2.4277 0.9650
6.8349 5.2045 -2.4320 0.9649
6.6221 6.0485 -2.5390 0.9634
6.0589 6.6186 -2.5402 0.9634
4.0912 7.9907 -2.5414 0.9634
3.3611 8.3223 -2.5409 0.9634
1.8265 8.7793 -2.5386 0.9634
1.0350 8.9012 -2.5368 0.9634
-2.7762 8.0775 -2.4180 0.9651
-3.4807 7.7858 -2.4143 0.9652
-4.1550 7.4322 -2.4105 0.9652
-4.7936 7.0199 -2.4064 0.9653
-5.1211 6.2240 -2.2817 0.9670
-8.6220 7.3152 -3.2010 0.9541
-9.3693 6.6075 -3.2456 0.9535
-11.1695 5.1971 -3.4875 0.9501
-5.6092 2.0230 -1.6881 0.9755
-5.7919 0.4530 -1.6447 0.9761
-5.8534 -0.0662 -1.6572 0.9760
-6.1362 -1.7604 -1.8072 0.9738
-6.2121 -2.4005 -1.8853 0.9727
-6.2955 -3.1043 -1.9871 0.9712
-6.4975 -4.8057 -2.2878 0.9670
-6.1744 -5.4833 -2.3377 0.9663
-4.4969 -6.9160 -2.3354 0.9663
-3.1963 -7.6064 -2.3357 0.9663
-1.1151 -8.5475 -2.4402 0.9648
-0.3481 -8.6197 -2.4422 0.9648
1.1922 -8.5616 -2.4471 0.9647
1.9539 -8.4313 -2.4501 0.9647
3.4312 -7.9718 -2.4569 0.9646
4.1353 -7.6456 -2.4607 0.9645
4.8090 -7.2580 -2.4648 0.9645
5.7929 -6.0476 -2.3707 0.9658
6.3210 -5.5166 -2.3751 0.9657
6.8008 -4.9397 -2.3795 0.9657
7.2280 -4.3212 -2.3840 0.9656
7.5992 -3.6658 -2.3885 0.9655
8.3449 -1.5304 -2.4018 0.9653
8.4950 0.7384 -2.4139 0.9652
8.4079 1.4958 -2.4176 0.9651
8.2524 2.2433 -2.4210 0.9651
8.0296 2.9746 -2.4241 0.9650
7.7410 3.6836 -2.4269 0.9650
7.3888 4.3641 -2.4293 0.9650
6.9759 5.0104 -2.4314 0.9649
6.7872 5.8601 -2.5385 0.9634
6.2405 6.4459 -2.5399 0.9634
5.6425 6.9797 -2.5408 0.9634
1.2834 8.8709 -2.5374 0.9634
0.4863 8.9428 -2.5354 0.9635
-0.3134 8.9420 -2.5330 0.9635
-1.8152 8.3620 -2.4223 0.9651
-3.2636 7.8838 -2.4155 0.9652
-2.0516 3.1923 -1.0743 0.9843
-5.2973 4.7551 -2.0152 0.9708
-9.1512 6.8441 -3.2350 0.9536
-9.9512 6.1394 -3.3101 0.9526
-11.9720 4.6997 -3.6410 0.9479
-6.3262 -5.3098 -2.3381 0.9662
-5.8240 -5.8500 -2.3369 0.9663
-5.2766 -6.3439 -2.3360 0.9663
-4.6884 -6.7880 -2.3354 0.9663
-3.4072 -7.5137 -2.3356 0.9663
-2.8375 -8.1150 -2.4337 0.9649
-2.1059 -8.3515 -2.4383 0.9648
-1.3530 -8.5112 -2.4397 0.9648
3.9183 -7.7543 -2.4595 0.9645
4.6020 -7.3856 -2.4635 0.9645
7.1004 -4.5186 -2.3826 0.9656
7.4894 -3.8743 -2.3871 0.9656
8.0891 -2.4905 -2.3960 0.9654
8.2942 -1.7618 -2.4004 0.9654
8.4333 -1.0164 -2.4047 0.9653
8.3083 2.0111 -2.4200 0.9651
6.4171 6.2682 -2.5395 0.9634
5.8346 6.8188 -2.5406 0.9634
4.5310 7.7501 -2.5414 0.9634
3.8210 8.1228 -2.5412 0.9634
3.0801 8.4292 -2.5406 0.9634
1.5310 8.8335 -2.5380 0.9634
-0.0636 8.9501 -2.5338 0.9635
-0.8606 8.8931 -2.5293 0.9635
-1.5816 8.4128 -2.4233 0.9650
-7.2502 8.2332 -3.1057 0.9554
-8.1404 7.7283 -3.1776 0.9544
-13.5830 4.3904 -4.0411 0.9424
-6.2423 -2.6559 -1.9205 0.9722
-6.4280 -4.2204 -2.1769 0.9685
-5.9859 -5.6859 -2.3372 0.9663
-4.8764 -6.6548 -2.3356 0.9663
-4.2626 -7.0626 -2.3353 0.9663
-2.9400 -7.7101 -2.3360 0.9663
0.7120 -8.6089 -2.4454 0.9647
2.2364 -8.3652 -2.4513 0.9646
2.9781 -8.1435 -2.4547 0.9646
4.3918 -7.5074 -2.4622 0.9645
5.4723 -6.3920 -2.3821 0.9656
5.9963 -5.8541 -2.3724 0.9658
7.3740 -4.0794 -2.3857 0.9656
7.7232 -3.4115 -2.3902 0.9655
8.2371 -1.9916 -2.3991 0.9654
8.3576 1.7776 -2.4189 0.9651
8.1767 2.5198 -2.4222 0.9651
7.9290 3.2434 -2.4252 0.9650
7.6162 3.9424 -2.4278 0.9650
7.2409 4.6108 -2.4302 0.9649
5.4060 7.1655 -2.5411 0.9634
2.5560 8.6000 -2.5399 0.9634
0.9852 8.9063 -2.5367 0.9634
-2.8210 8.0612 -2.4178 0.9651
-3.5238 7.7655 -2.4141 0.9652
-4.8322 6.9923 -2.4062 0.9653
-5.1347 6.1699 -2.2724 0.9672
-7.8628 7.8938 -3.1541 0.9547
-8.6694 7.2726 -3.2034 0.9540
-9.4102 6.5579 -3.2470 0.9534
-12.6234 4.4733 -3.7913 0.9458
-6.3537 -1.2589 -1.8336 0.9734
-6.2170 -2.4424 -1.8909 0.9726
-6.3957 -3.9481 -2.1278 0.9692
-6.5048 -4.8676 -2.3000 0.9668
-5.6238 -6.0408 -2.3365 0.9663
-5.0606 -6.5165 -2.3357 0.9663
-3.1538 -7.6243 -2.3358 0.9663
-1.0673 -8.5539 -2.4403 0.9648
-0.2999 -8.6220 -2.4423 0.9648
0.4711 -8.6226 -2.4446 0.9647
1.2401 -8.5554 -2.4473 0.9647
4.1784 -7.6232 -2.4610 0.9645
4.8499 -7.2318 -2.4650 0.9644
5.4261 -6.7085 -2.4426 0.9648
6.3525 -5.4818 -2.3754 0.9657
6.8290 -4.9022 -2.3798 0.9657
7.9283 -2.9347 -2.3933 0.9655
8.5142 0.0249 -2.4103 0.9652
8.4002 1.5429 -2.4178 0.9651
8.2405 2.2896 -2.4212 0.9651
7.7208 3.7270 -2.4270 0.9650
6.9481 5.0495 -2.4315 0.9649
6.7546 5.8981 -2.5386 0.9634
6.2046 6.4809 -2.5399 0.9634
4.2688 7.8974 -2.5414 0.9634
3.5464 8.2456 -2.5410 0.9634
0.4363 8.9449 -2.5352 0.9635
-0.3633 8.9395 -2.5328 0.9635
-1.1104 8.4944 -2.4252 0.9650
-1.8617 8.3510 -2.4222 0.9651
-3.3072 7.8647 -2.4153 0.9652
-3.9896 7.5262 -2.4115 0.9652
-2.0633 3.1714 -1.0711 0.9844
-9.2002 6.8009 -3.2389 0.9536
-10.0070 6.0969 -3.3173 0.9525
-12.0777 4.6634 -3.6651 0.9476
-16.1388 4.6254 -4.7527 0.9326
-6.2738 -2.9212 -1.9592 0.9716
-6.3648 -3.6877 -2.0824 0.9699
-6.2963 -5.3448 -2.3380 0.9662
-5.7910 -5.8822 -2.3368 0.9663
-5.2410 -6.3732 -2.3359 0.9663
-3.3652 -7.5327 -2.3356 0.9663
-2.7962 -8.1426 -2.4373 0.9648
0.2301 -8.6297 -2.4439 0.9647
1.0004 -8.5837 -2.4464 0.9647
1.7645 -8.4702 -2.4493 0.9647
3.9619 -7.7330 -2.4598 0.9645
5.6538 -6.1727 -2.3697 0.9658
6.1933 -5.6538 -2.3740 0.9657
7.1263 -4.4795 -2.3829 0.9656
8.5060 0.5482 -2.4130 0.9652
8.4361 1.3071 -2.4167 0.9651
8.0915 2.7937 -2.4233 0.9650
7.4827 4.1970 -2.4287 0.9650
5.7965 6.8514 -2.5406 0.9634
5.1633 7.3432 -2.5412 0.9634
3.7755 8.1439 -2.5412 0.9634
3.0329 8.4461 -2.5405 0.9634
1.4815 8.8415 -2.5379 0.9634
-0.1136 8.9490 -2.5336 0.9635
-0.8882 8.6725 -2.4680 0.9644
-1.6285 8.4031 -2.4231 0.9650
-2.3687 8.2134 -2.4199 0.9651
-5.0605 6.8221 -2.4046 0.9653
-7.3060 8.2037 -3.1099 0.9554
-8.9544 7.0143 -3.2201 0.9538
-9.7284 6.3062 -3.2820 0.9529
-10.6364 5.6157 -3.4050 0.9512
-11.6419 4.8729 -3.5728 0.9489
-13.8325 4.3860 -4.1080 0.9415
-6.0960 -1.4217 -1.7721 0.9743
-6.1686 -2.0338 -1.8388 0.9734
-6.2475 -2.6993 -1.9266 0.9721
-6.3351 -3.4379 -2.0405 0.9705
-5.9539 -5.7191 -2.3371 0.9663
-5.4175 -6.2250 -2.3361 0.9663
-4.8391 -6.6818 -2.3355 0.9663
-4.2230 -7.0863 -2.3353 0.9663
-3.5740 -7.4354 -2.3355 0.9663
-2.8969 -7.7265 -2.3360 0.9663
-0.7804 -8.5873 -2.4410 0.9648
-0.0109 -8.6302 -2.4431 0.9648
1.5267 -8.5129 -2.4484 0.9647
2.2833 -8.3533 -2.4515 0.9646
3.0238 -8.1274 -2.4549 0.9646
3.7426 -7.8369 -2.4586 0.9645
4.4341 -7.4835 -2.4625 0.9645
6.0296 -5.8212 -2.3726 0.9658
6.5371 -5.2696 -2.3770 0.9657
7.3975 -4.0387 -2.3860 0.9656
8.0277 -2.6693 -2.3949 0.9654
8.2491 -1.9458 -2.3993 0.9654
8.4048 -1.2041 -2.4036 0.9653
8.5138 0.3103 -2.4118 0.9652
8.3483 1.8244 -2.4191 0.9651
7.9113 3.2879 -2.4253 0.9650
7.5946 3.9851 -2.4280 0.9650
7.2154 4.6514 -2.4303 0.9649
6.5546 6.1225 -2.5391 0.9634
5.9849 6.6861 -2.5403 0.9634
4.7030 7.6469 -2.5414 0.9634
4.0016 8.0357 -2.5413 0.9634
2.5079 8.6139 -2.5398 0.9634
1.7282 8.7985 -2.5384 0.9634
0.9354 8.9113 -2.5366 0.9634
-1.3937 8.4486 -2.4241 0.9650
-2.1394 8.2798 -2.4209 0.9651
-3.5668 7.7450 -2.4139 0.9652
-4.2369 7.3838 -2.4100 0.9652
-5.2401 5.2022 -2.0903 0.9698
-9.4508 6.5081 -3.2485 0.9534
-11.2981 5.1042 -3.5097 0.9498
-12.7362 4.4333 -3.8177 0.9455
-6.1453 -1.8376 -1.8158 0.9737
-6.2220 -2.4846 -1.8967 0.9725
-6.4020 -4.0016 -2.1373 0.9691
-5.5898 -6.0720 -2.3364 0.9663
-4.4193 -6.9658 -2.3353 0.9663
-3.7801 -7.3324 -2.3354 0.9663
-1.7783 -8.4295 -2.4388 0.9648
-1.0196 -8.5602 -2.4405 0.9648
0.5193 -8.6204 -2.4448 0.9647
1.2879 -8.5490 -2.4475 0.9647
2.0483 -8.4103 -2.4505 0.9647
2.7944 -8.2050 -2.4538 0.9646
6.8571 -4.8645 -2.3801 0.9657
7.6414 -3.5815 -2.3891 0.9655
8.1868 -2.1742 -2.3980 0.9654
8.4730 -0.6866 -2.4065 0.9653
8.5148 0.0724 -2.4106 0.9652
7.7004 3.7703 -2.4272 0.9650
6.9202 5.0884 -2.4317 0.9649
6.1685 6.5156 -2.5400 0.9634
4.2246 7.9211 -2.5414 0.9634
3.5002 8.2652 -2.5410 0.9634
1.9735 8.7485 -2.5389 0.9634
-0.4132 8.9368 -2.5326 0.9635
-1.1577 8.4874 -2.4250 0.9650
-1.9082 8.3398 -2.4220 0.9651
-2.6412 8.1251 -2.4186 0.9651
-4.0311 7.5031 -2.4112 0.9652
-2.0794 3.1576 -1.0703 0.9844
-6.8041 8.5579 -3.0951 0.9556
-8.4790 7.4418 -3.1937 0.9542
-9.2457 6.7550 -3.2415 0.9535
-5.4556 3.2822 -1.8024 0.9739
-16.7353 4.6955 -4.9206 0.9303
-6.3708 -3.7388 -2.0912 0.9698
-6.2661 -5.3797 -2.3380 0.9663
-5.7579 -5.9143 -2.3367 0.9663
-3.3231 -7.5515 -2.3356 0.9663
-2.7507 -8.1583 -2.4373 0.9648
-1.2579 -8.5265 -2.4399 0.9648
0.2784 -8.6288 -2.4440 0.9647
1.0484 -8.5786 -2.4466 0.9647
2.5631 -8.2763 -2.4527 0.9646
3.2962 -8.0259 -2.4562 0.9646
4.0054 -7.7116 -2.4600 0.9645
4.6852 -7.3353 -2.4640 0.9645
5.7037 -6.1578 -2.3761 0.9657
8.3153 -1.6695 -2.4010 0.9654
8.4460 -0.9224 -2.4052 0.9653
8.5091 -0.1652 -2.4093 0.9652
8.5037 0.5957 -2.4132 0.9652
8.4295 1.3543 -2.4169 0.9651
8.2867 2.1042 -2.4204 0.9651
7.8000 3.5526 -2.4264 0.9650
5.7583 6.8838 -2.5407 0.9634
4.4442 7.8002 -2.5414 0.9634
3.7300 8.1648 -2.5412 0.9634
2.9856 8.4627 -2.5405 0.9634
1.4321 8.8493 -2.5378 0.9634
0.6362 8.9349 -2.5358 0.9634
-0.1636 8.9477 -2.5334 0.9635
-0.9206 8.5195 -2.4259 0.9650
-2.4144 8.1993 -2.4197 0.9651
-5.0980 6.7929 -2.4043 0.9653
-7.3618 8.1740 -3.1142 0.9553
-8.2381 7.6479 -3.1822 0.9543
-9.0038 6.9721 -3.2238 0.9538
-9.7841 6.2650 -3.2890 0.9528
-10.6953 5.5706 -3.4138 0.9511
-11.7159 4.8272 -3.5872 0.9487
-6.2527 -2.7431 -1.9329 0.9720
-6.3410 -3.4871 -2.0486 0.9704
-5.9217 -5.7521 -2.3371 0.9663
-4.1834 -7.1098 -2.3353 0.9663
-2.2453 -8.3143 -2.4380 0.9648
0.0373 -8.6306 -2.4433 0.9648
1.5743 -8.5049 -2.4486 0.9647
4.4762 -7.4594 -2.4627 0.9645
5.1327 -7.0419 -2.4669 0.9644
6.5672 -5.2336 -2.3773 0.9657
7.4208 -3.9978 -2.3862 0.9656
8.0434 -2.6248 -2.3952 0.9654
8.2607 -1.8999 -2.3996 0.9654
8.4124 -1.1572 -2.4039 0.9653
8.4967 -0.4025 -2.4081 0.9653
8.3387 1.8712 -2.4193 0.9651
7.5727 4.0277 -2.4281 0.9650
7.1898 4.6918 -2.4304 0.9649
6.8371 5.3895 -2.4646 0.9645
6.5206 6.1592 -2.5392 0.9634
5.9476 6.7196 -2.5404 0.9634
4.6602 7.6730 -2.5414 0.9634
3.9567 8.0579 -2.5413 0.9634
3.2211 8.3769 -2.5407 0.9634
0.8856 8.9159 -2.5365 0.9634
0.0864 8.9515 -2.5342 0.9635
-0.7121 8.9143 -2.5316 0.9635
-2.1854 8.2671 -2.4207 0.9651
-3.6096 7.7241 -2.4136 0.9652
-4.2776 7.3593 -2.4097 0.9652
-8.7638 7.1865 -3.2085 0.9540
-9.5060 6.4681 -3.2550 0.9533
-10.4017 5.7924 -3.3704 0.9517
-11.3625 5.0572 -3.5209 0.9496
-12.8571 4.3951 -3.8465 0.9451
-6.2271 -2.5270 -1.9025 0.9724
-6.3122 -3.2451 -2.0093 0.9709
-6.0810 -5.5854 -2.3374 0.9663
-4.9874 -6.5724 -2.3357 0.9663
-4.3804 -6.9903 -2.3353 0.9663
-2.4762 -8.2471 -2.4377 0.9648
-0.9718 -8.5662 -2.4406 0.9648
-0.2037 -8.6258 -2.4426 0.9648
2.0954 -8.3994 -2.4507 0.9647
2.8404 -8.1900 -2.4540 0.9646
4.2641 -7.5776 -2.4615 0.9645
4.9314 -7.1787 -2.4656 0.9644
5.4417 -6.5762 -2.4164 0.9651
6.8850 -4.8268 -2.3803 0.9656
7.3020 -4.2010 -2.3848 0.9656
7.6622 -3.5392 -2.3893 0.9655
7.9624 -2.8466 -2.3938 0.9655
8.1998 -2.1287 -2.3982 0.9654
8.3721 -1.3909 -2.4026 0.9653
8.2157 2.3819 -2.4216 0.9651
7.9804 3.1095 -2.4246 0.9650
7.6797 3.8135 -2.4274 0.9650
7.3159 4.4880 -2.4297 0.9649
3.4540 8.2845 -2.5409 0.9634
1.9246 8.7591 -2.5388 0.9634
1.1345 8.8899 -2.5371 0.9634
0.3363 8.9482 -2.5350 0.9635
-0.4631 8.9337 -2.5325 0.9635
-1.2050 8.4802 -2.4248 0.9650
-3.3942 7.8258 -2.4148 0.9652
-4.0725 7.4797 -2.4110 0.9652
-5.1006 6.3421 -2.3040 0.9667
-8.5268 7.3998 -3.1961 0.9541
-9.2871 6.7061 -3.2429 0.9535
-5.4601 3.2436 -1.7979 0.9739
-11.0499 5.2925 -3.4685 0.9503
-5.6116 2.0950 -1.6957 0.9754
-17.8961 4.9135 -5.2537 0.9258
-5.8448 -0.0008 -1.6546 0.9760
-6.1271 -1.6840 -1.7989 0.9739
-6.3770 -3.7905 -2.1001 0.9696
-5.7247 -5.9462 -2.3367 0.9663
-5.1693 -6.4311 -2.3358 0.9663
-4.5739 -6.8654 -2.3354 0.9663
-3.2810 -7.5700 -2.3357 0.9663
-2.7052 -8.1737 -2.4374 0.9648
-1.2104 -8.5337 -2.4400 0.9648
0.3265 -8.6276 -2.4442 0.9647
1.8593 -8.4513 -2.4497 0.9647
4.0488 -7.6898 -2.4603 0.9645
5.3692 -6.8705 -2.4685 0.9644
5.7237 -6.1106 -2.3702 0.9658
6.7436 -5.0141 -2.3789 0.9657
7.1776 -4.4006 -2.3834 0.9656
8.4519 -0.8753 -2.4055 0.9653
8.5108 -0.1177 -2.4096 0.9652
8.5011 0.6433 -2.4135 0.9652
8.2756 2.1506 -2.4206 0.9651
8.0611 2.8843 -2.4237 0.9650
7.7806 3.5964 -2.4265 0.9650
7.4362 4.2808 -2.4290 0.9650
7.0307 4.9316 -2.4312 0.9649
5.7199 6.9160 -2.5407 0.9634
5.0810 7.4005 -2.5413 0.9634
4.4005 7.8249 -2.5414 0.9634
3.6842 8.1854 -2.5411 0.9634
1.3826 8.8567 -2.5376 0.9634
-0.2136 8.9461 -2.5333 0.9635
-3.1759 7.9212 -2.4160 0.9651
-4.5189 7.2073 -2.4082 0.9653
-7.4176 8.1439 -3.1184 0.9552
-8.2865 7.6072 -3.1844 0.9543
-5.3670 4.1082 -1.9134 0.9723
-9.8397 6.2234 -3.2960 0.9528
-5.5150 2.8334 -1.7553 0.9746
-11.7901 4.7810 -3.6017 0.9485
-5.6374 1.7184 -1.6684 0.9758
-5.9502 -0.9050 -1.7038 0.9753
-6.4481 -4.3900 -2.2083 0.9681
-6.3857 -5.2392 -2.3383 0.9662
-5.8893 -5.7848 -2.3370 0.9663
-4.7640 -6.7353 -2.3355 0.9663
-0.6845 -8.5964 -2.4413 0.9648
0.0855 -8.6308 -2.4434 0.9648
0.8563 -8.5975 -2.4459 0.9647
2.3768 -8.3286 -2.4519 0.9646
3.1149 -8.0946 -2.4553 0.9646
3.8307 -7.7961 -2.4590 0.9645
4.5183 -7.4350 -2.4630 0.9645
5.1725 -7.0139 -2.4671 0.9644
5.5477 -6.2645 -2.3689 0.9658
7.4439 -3.9568 -2.3865 0.9656
7.7820 -3.2828 -2.3910 0.9655
8.4997 -0.3551 -2.4083 0.9653
8.5115 0.4055 -2.4123 0.9652
8.4545 1.1653 -2.4160 0.9651
8.3288 1.9179 -2.4195 0.9651
8.1353 2.6571 -2.4228 0.9650
7.8752 3.3766 -2.4257 0.9650
6.4863 6.1957 -2.5393 0.9634
5.9101 6.7529 -2.5405 0.9634
4.6173 7.6989 -2.5414 0.9634
3.9116 8.0798 -2.5413 0.9634
1.6297 8.8166 -2.5382 0.9634
-1.3676 7.7499 -2.4205 0.9676
-2.0513 7.5879 -2.4176 0.9676
-2.7167 7.3649 -2.4145 0.9677
-3.9712 6.7451 -2.4075 0.9678
-4.5501 6.3538 -2.4037 0.9678
-7.5336 7.3139 -3.2295 0.9570
-8.2703 6.7050 -3.2747 0.9564
-9.8621 5.4201 -3.4613 0.9540
-5.5613 2.4380 -1.8677 0.9749
-12.1348 4.0726 -3.9370 0.9478
-6.1550 -1.9156 -1.9827 0.9734
-6.0201 -4.6642 -2.3424 0.9686
-5.0901 -5.6546 -2.3401 0.9687
-3.4092 -6.7985 -2.3392 0.9687
-2.7894 -7.0769 -2.3397 0.9687
-1.5525 -7.7889 -2.4428 0.9673
-0.8517 -7.9014 -2.4444 0.9673
-0.1433 -7.9519 -2.4462 0.9673
0.5674 -7.9402 -2.4484 0.9672
1.2751 -7.8659 -2.4510 0.9672
1.9742 -7.7296 -2.4538 0.9672
2.6595 -7.5321 -2.4569 0.9671
3.3256 -7.2745 -2.4602 0.9671
3.9672 -6.9588 -2.4638 0.9670
6.3632 -4.4081 -2.3809 0.9681
7.8009 -0.5445 -2.4052 0.9678
7.8304 0.1541 -2.4089 0.9678
6.5803 4.9527 -2.5332 0.9661
6.1157 5.5236 -2.5347 0.9661
5.6010 6.0501 -2.5359 0.9661
4.4382 6.9526 -2.5370 0.9661
1.7234 8.0581 -2.5346 0.9661
0.2631 8.2246 -2.5310 0.9661
-1.1511 7.7878 -2.4214 0.9676
-2.5110 7.4410 -2.4155 0.9677
-3.1607 7.1773 -2.4122 0.9677
-3.7831 6.8566 -2.4086 0.9678
-2.1265 3.1517 -1.1694 0.9842
-4.9262 6.0557 -2.4010 0.9679
-5.3149 4.5607 -2.1541 0.9711
-11.6323 4.2689 -3.8112 0.9495
-14.6633 3.9379 -4.6699 0.9384
-18.7604 3.2784 -5.8577 0.9234
-19.0768 -0.1091 -5.8678 0.9233
-5.9107 -0.5637 -1.8263 0.9755
-6.2905 -3.0583 -2.1514 0.9712
-6.1493 -4.4953 -2.3429 0.9686
-2.9857 -6.9957 -2.3395 0.9687
-2.4518 -7.5492 -2.4414 0.9673
1.7570 -7.7788 -2.4529 0.9672
4.9806 -6.3003 -2.4702 0.9669
5.5275 -5.8355 -2.4723 0.9669
7.6673 -1.4505 -2.4001 0.9679
7.8279 -0.0645 -2.4078 0.9678
7.8140 0.6353 -2.4114 0.9677
6.2665 5.3497 -2.5343 0.9661
5.7670 5.8906 -2.5356 0.9661
2.6561 7.8057 -2.5361 0.9661
-0.9597 8.0397 -2.4904 0.9667
-1.6258 7.6964 -2.4195 0.9676
-2.3032 7.5113 -2.4165 0.9677
-2.9604 7.2660 -2.4132 0.9677
-3.5918 6.9628 -2.4098 0.9677
-2.0561 3.2389 -1.1800 0.9841
-7.0180 7.6193 -3.1861 0.9576
-10.1824 5.1597 -3.5110 0.9534
-11.1532 4.4502 -3.6935 0.9510
-13.0956 3.9121 -4.2038 0.9444
-5.8912 -0.3962 -1.8161 0.9756
-6.1096 -1.5332 -1.9375 0.9740
-6.3532 -3.5868 -2.2440 0.9699
-5.8591 -4.8622 -2.3419 0.9686
-5.3991 -5.3629 -2.3407 0.9687
-2.6613 -7.4770 -2.4411 0.9673
-1.9842 -7.6877 -2.4421 0.9673
-1.2909 -7.8383 -2.4434 0.9673
0.1232 -7.9548 -2.4470 0.9673
0.8334 -7.9196 -2.4494 0.9672
1.5385 -7.8220 -2.4520 0.9672
2.9118 -7.4424 -2.4581 0.9671
3.5693 -7.1629 -2.4615 0.9671
5.6426 -5.2678 -2.3743 0.9682
7.6199 -1.6631 -2.3989 0.9679
7.7506 -0.9781 -2.4028 0.9678
7.8193 -0.2829 -2.4066 0.9678
7.7678 1.1148 -2.4137 0.9677
7.6475 1.8061 -2.4169 0.9677
7.2213 3.1441 -2.4225 0.9676
6.9187 3.7797 -2.4249 0.9675
6.7288 4.4991 -2.4896 0.9667
6.4122 5.1717 -2.5338 0.9661
5.3958 6.2352 -2.5362 0.9661
4.8191 6.6935 -2.5368 0.9661
3.5525 7.4438 -2.5369 0.9661
2.8733 7.7293 -2.5363 0.9661
2.1713 7.9519 -2.5354 0.9661
0.7222 8.2012 -2.5323 0.9661
-0.0126 8.2261 -2.5302 0.9662
-1.4107 7.7416 -2.4204 0.9676
-2.0934 7.5757 -2.4174 0.9676
-4.0084 6.7221 -2.4073 0.9678
-5.1231 5.8836 -2.3996 0.9679
-7.5849 7.2819 -3.2341 0.9570
-8.3140 6.6637 -3.2772 0.9564
-9.0889 6.0369 -3.3560 0.9554
-9.9137 5.3765 -3.4688 0.9539
-12.2384 4.0315 -3.9632 0.9475
-6.0877 -1.3482 -1.9178 0.9742
-6.1596 -1.9549 -1.9877 0.9733
-6.2376 -2.6128 -2.0801 0.9721
-5.9938 -4.6976 -2.3423 0.9686
-5.5475 -5.2108 -2.3410 0.9687
-5.0583 -5.6828 -2.3400 0.9687
