ply
format ascii 1.0
element vertex 1552
property float32 x
property float32 y
property float32 z
property float32 I
end_header
10.9966 -8.4807 2.1274 0.9454
16.1347 -8.3654 2.7842 0.9291
11.3408 -13.3562 2.6842 0.9316
10.0085 -9.8518 2.1514 0.9448
11.7136 -7.9945 2.1726 0.9442
10.8670 -16.4641 3.0221 0.9233
11.3547 -14.2524 2.7916 0.9289
9.8996 -10.3734 2.1967 0.9436
17.3788 -8.4273 2.9589 0.9248
10.3689 -16.8309 3.0284 0.9231
11.4055 -15.2720 2.9200 0.9258
10.0131 -9.3415 2.0978 0.9461
10.8675 -8.4586 2.1097 0.9458
11.3938 -13.5404 2.7110 0.9309
9.9931 -9.9248 2.1576 0.9446
11.4840 -14.5473 2.8393 0.9277
10.1033 -10.6817 2.2524 0.9422
10.1560 -8.9780 2.0766 0.9466
11.4346 -8.4179 2.1752 0.9442
17.2965 -8.4829 2.9512 0.9250
10.2350 -16.7803 3.0111 0.9235
11.4064 -15.4162 2.9378 0.9253
15.8311 -8.3877 2.7446 0.9301
10.0097 -10.0301 2.1708 0.9443
10.5460 -8.8308 2.1072 0.9459
11.7193 -8.1525 2.1870 0.9439
14.7148 -8.3954 2.5953 0.9337
10.7252 -16.5685 3.0236 0.9232
10.1554 -10.8331 2.2748 0.9417
11.3374 -8.4244 2.1638 0.9444
11.4074 -15.5619 2.9559 0.9249
9.9560 -9.4555 2.1034 0.9460
15.6643 -8.3889 2.7221 0.9306
10.9829 -16.3214 2.5618 0.9237
9.8124 -10.1004 1.8338 0.9448
11.7583 -8.4163 1.8830 0.9433
16.4506 -7.7970 2.3706 0.9292
10.5113 -16.7265 2.5725 0.9234
11.4460 -15.0449 2.4617 0.9266
11.3864 -12.4781 2.1997 0.9341
10.0302 -9.1916 1.7716 0.9466
12.5475 -7.9222 1.9324 0.9419
15.6369 -8.0191 2.2884 0.9316
11.4101 -16.0126 2.5604 0.9238
11.7848 -7.9664 1.8524 0.9442
15.1780 -8.3929 2.2585 0.9324
10.8721 -16.3132 2.5529 0.9240
11.3978 -14.1765 2.3687 0.9293
9.8305 -10.2096 1.8456 0.9444
10.2411 -8.8919 1.7661 0.9468
11.6266 -8.4005 1.8679 0.9438
16.2762 -7.8033 2.3505 0.9298
11.3519 -15.0600 2.4558 0.9267
11.3406 -12.5397 2.2017 0.9341
10.0019 -9.2480 1.7739 0.9465
10.8966 -8.4036 1.7919 0.9460
12.4428 -7.9338 1.9217 0.9422
11.4112 -16.1659 2.5768 0.9233
11.3404 -13.3559 2.2816 0.9318
9.8249 -9.6711 1.7953 0.9459
10.5112 -8.6434 1.7721 0.9466
11.3553 -14.2531 2.3731 0.9291
10.1985 -8.9350 1.7657 0.9468
14.0245 -8.4225 2.1303 0.9361
11.4720 -12.7991 2.2382 0.9330
9.9736 -9.3046 1.7762 0.9465
10.8321 -8.4311 1.7875 0.9461
9.8135 -9.7463 1.8011 0.9457
11.7162 -8.0730 1.8528 0.9442
10.7964 -16.5166 2.5695 0.9235
11.4837 -14.5469 2.4134 0.9280
11.3213 -8.3345 1.8307 0.9449
14.0217 -8.5059 2.1356 0.9360
15.9362 -7.8157 2.3114 0.9309
10.2351 -16.7806 2.5596 0.9238
11.4061 -15.4157 2.4972 0.9256
10.7724 -8.4619 1.7838 0.9462
15.8324 -8.3884 2.3332 0.9303
11.2714 -16.2737 2.5778 0.9233
9.8020 -9.8220 1.8070 0.9456
10.4120 -8.7186 1.7684 0.9467
11.4751 -14.6699 2.4253 0.9276
10.1556 -10.8332 1.9337 0.9419
10.1150 -9.0223 1.7650 0.9468
11.4071 -15.5615 2.5126 0.9251
10.7130 -8.4928 1.7802 0.9463
12.1149 -7.9544 1.8873 0.9432
11.3966 -14.0464 1.9423 0.9298
10.2837 -8.8489 1.4568 0.9469
11.6873 -8.3654 1.5434 0.9438
14.1860 -8.3484 1.7675 0.9359
16.4197 -7.7824 1.9512 0.9295
11.2987 -12.3820 1.8000 0.9348
12.5730 -7.9383 1.5967 0.9419
-2.8117 4.6334 0.5820 0.9784
11.3394 -13.2346 1.8715 0.9323
10.5702 -8.6133 1.4642 0.9466
11.7855 -7.9669 1.5276 0.9444
15.0133 -8.3018 1.8422 0.9333
11.3975 -14.1761 1.9532 0.9294
14.0441 -8.3494 1.7545 0.9364
10.4405 -16.7793 2.1221 0.9236
11.3516 -15.0596 2.0251 0.9269
11.2994 -12.4941 1.8089 0.9345
10.9415 -8.4382 1.4837 0.9459
12.4564 -7.9425 1.5864 0.9423
11.4108 -16.1654 2.1248 0.9235
14.8586 -8.3029 1.8277 0.9338
18.1922 5.5131 2.0412 0.9264
10.8674 -16.4648 2.1184 0.9237
11.3558 -14.2538 1.9569 0.9293
13.9044 -8.3503 1.7416 0.9368
11.4048 -15.2712 2.0467 0.9262
11.3002 -12.6074 1.8180 0.9342
9.9736 -9.3046 1.4647 0.9466
15.6431 -8.1991 1.8965 0.9314
9.8494 -9.7820 1.4906 0.9457
11.7159 -8.0728 1.5278 0.9444
9.4489 -9.9898 1.4766 0.9462
11.3676 -8.3685 1.5158 0.9448
13.7667 -8.3512 1.7290 0.9373
15.9374 -7.8163 1.9061 0.9311
11.4058 -15.4153 2.0592 0.9258
12.2278 -7.9508 1.5662 0.9430
11.2718 -16.2743 2.1258 0.9234
9.8332 -9.8533 1.4948 0.9455
11.7188 -8.1521 1.5329 0.9442
11.4756 -14.6706 2.0001 0.9278
10.0811 -10.7537 1.5828 0.9424
10.1151 -9.0223 1.4555 0.9469
11.2812 -8.3827 1.5092 0.9450
13.6308 -8.3522 1.7166 0.9377
15.7715 -7.8223 1.8904 0.9316
11.4068 -15.5610 2.0718 0.9253
9.9167 -9.4182 1.4686 0.9465
10.7485 -8.5209 1.4729 0.9463
12.1156 -7.9549 1.5564 0.9434
9.9385 -10.2302 1.2074 0.9444
10.3316 -8.8901 1.1538 0.9468
16.4533 -7.7983 1.5413 0.9295
10.4249 -16.5890 1.6586 0.9244
11.3481 -14.9162 1.5866 0.9275
10.0784 -9.2358 1.1572 0.9466
13.3129 -8.4055 1.3328 0.9388
15.6362 -8.0188 1.4876 0.9319
10.0300 -17.1263 1.6801 0.9234
15.0267 -8.3092 1.4536 0.9334
10.8726 -16.3139 1.6596 0.9243
9.5585 -9.9271 1.1666 0.9462
10.2889 -8.9334 1.1535 0.9468
11.6659 -8.4289 1.2184 0.9439
14.0452 -8.3500 1.3832 0.9365
11.3493 -15.0565 1.5961 0.9271
10.0500 -9.2925 1.1587 0.9465
11.0100 -8.4910 1.1770 0.9457
13.1838 -8.4064 1.3236 0.9392
15.6395 -8.1086 1.4913 0.9317
11.3563 -16.0883 1.6670 0.9240
11.3378 -13.3527 1.4829 0.9321
9.9160 -9.7608 1.1779 0.9457
14.9321 -8.3440 1.4480 0.9336
18.1910 5.5127 1.6091 0.9265
11.3423 -14.2369 1.5409 0.9295
16.1074 -7.8108 1.5154 0.9307
10.2986 -16.7169 1.6621 0.9242
13.0564 -8.4072 1.3146 0.9396
15.1742 -7.9533 1.4503 0.9335
11.3353 -16.2113 1.6745 0.9237
10.5058 -8.7178 1.1557 0.9467
14.7790 -8.3450 1.4368 0.9341
18.2273 5.4352 1.6102 0.9265
10.7167 -16.3947 1.6581 0.9244
11.3434 -14.3692 1.5497 0.9291
10.1270 -10.7068 1.2476 0.9426
10.2035 -9.0200 1.1529 0.9468
13.7717 -8.3543 1.3636 0.9374
11.3165 -15.2946 1.6106 0.9265
11.3343 -12.7595 1.4447 0.9338
9.9930 -9.4063 1.1617 0.9464
10.8628 -8.5329 1.1693 0.9461
15.0171 -7.9565 1.4386 0.9341
9.8930 -9.9131 1.1856 0.9453
10.4607 -8.7594 1.1550 0.9467
12.1123 -8.4259 1.2490 0.9425
14.6283 -8.3461 1.4257 0.9346
11.3298 -12.0858 1.4024 0.9357
11.3512 -8.4346 1.1971 0.9448
13.7136 -8.4029 1.3615 0.9375
11.3523 -15.4868 1.6255 0.9258
11.3351 -12.8753 1.4521 0.9335
9.9643 -9.4634 1.1633 0.9463
9.9851 -10.2781 0.8886 0.9442
14.2937 -8.4118 1.0285 0.9357
17.6993 -8.3888 1.2146 0.9245
11.3559 -14.9265 1.1630 0.9276
11.0944 -8.4776 0.8658 0.9456
13.4979 -8.5223 0.9899 0.9380
16.3753 -8.3978 1.1412 0.9289
11.3543 -13.2520 1.0821 0.9325
10.0176 -9.7733 0.8679 0.9455
10.7094 -8.7268 0.8567 0.9461
12.3860 -8.3728 0.9271 0.9418
15.2012 -8.4057 1.0771 0.9328
10.3532 -8.9892 0.8502 0.9465
14.0646 -8.3615 1.0146 0.9365
17.5003 -8.3902 1.2035 0.9252
10.3962 -16.7080 1.2203 0.9242
11.3564 -15.0660 1.1699 0.9272
11.3473 -12.5471 1.0490 0.9344
13.3671 -8.5232 0.9831 0.9384
11.4102 -16.1645 1.2269 0.9238
10.0181 -9.8613 0.8717 0.9452
12.3442 -8.4249 0.9268 0.9419
9.9114 -10.3858 0.8902 0.9441
10.2073 -8.9427 0.8415 0.9471
11.5589 -8.4302 0.8872 0.9443
13.9246 -8.3625 1.0072 0.9370
10.3328 -16.7722 1.2216 0.9241
11.3570 -15.2071 1.1770 0.9268
10.0216 -9.3494 0.8499 0.9466
13.2379 -8.5240 0.9763 0.9388
16.0266 -8.4001 1.1221 0.9300
11.3567 -13.4963 1.0938 0.9318
9.9922 -9.9238 0.8733 0.9451
12.2281 -8.4257 0.9208 0.9422
14.8901 -8.4078 1.0604 0.9338
10.7515 -16.4480 1.2185 0.9243
11.3987 -14.4391 1.1408 0.9289
10.1258 -10.7055 0.9138 0.9427
11.4523 -8.4309 0.8818 0.9446
13.8553 -8.4050 1.0049 0.9371
17.1129 -8.3928 1.1819 0.9265
10.2693 -16.8366 1.2229 0.9240
11.3496 -12.7767 1.0597 0.9338
9.9930 -9.4063 0.8510 0.9465
13.1106 -8.5249 0.9698 0.9392
15.8567 -8.4013 1.1128 0.9306
11.3579 -13.6205 1.0997 0.9314
10.0194 -10.0398 0.8796 0.9447
10.5401 -8.8259 0.8525 0.9464
14.7383 -8.4088 1.0522 0.9343
10.6734 -16.4885 1.2180 0.9243
11.3996 -14.5734 1.1473 0.9285
10.1637 -9.0657 0.8445 0.9469
11.3517 -8.4351 0.8770 0.9449
13.8195 -8.4678 1.0050 0.9371
16.9243 -8.3941 1.1715 0.9271
11.3581 -15.4946 1.1913 0.9259
9.9644 -9.4635 0.8522 0.9464
10.8214 -8.5787 0.8563 0.9462
12.8951 -8.4667 0.9565 0.9400
-4.8180 -15.5301 0.6412 0.9370
10.9913 -16.3339 0.7763 0.9242
11.3957 -14.0453 0.7132 0.9302
9.9856 -10.2786 0.5651 0.9442
11.7765 -8.4293 0.5711 0.9437
14.2948 -8.4124 0.6540 0.9358
17.7988 -8.4360 0.7767 0.9242
10.0785 -9.2359 0.5390 0.9467
11.0949 -8.4780 0.5506 0.9456
13.4988 -8.5229 0.6295 0.9381
16.5790 -8.5022 0.7347 0.9281
-2.8106 4.6316 0.2136 0.9785
11.4088 -16.0107 0.7752 0.9243
11.4475 -13.3608 0.6938 0.9320
10.7096 -8.7270 0.5447 0.9462
12.3869 -8.3734 0.5896 0.9419
15.2023 -8.4063 0.6850 0.9328
10.8793 -16.3240 0.7735 0.9245
9.9091 -10.2912 0.5633 0.9444
11.6674 -8.4300 0.5676 0.9440
14.0656 -8.3621 0.6452 0.9366
17.7181 -8.4946 0.7748 0.9244
10.4467 -16.7893 0.7797 0.9239
13.3680 -8.5238 0.6252 0.9385
10.0179 -9.8611 0.5543 0.9453
10.6585 -8.7646 0.5441 0.9463
15.0456 -8.4074 0.6796 0.9333
18.1876 5.5117 0.7494 0.9267
9.9110 -10.3854 0.5661 0.9442
10.2075 -8.9428 0.5351 0.9471
17.5203 -8.4959 0.7678 0.9250
10.3755 -16.8417 0.7800 0.9239
11.4576 -12.7831 0.6769 0.9336
10.8786 -8.4672 0.5436 0.9463
13.2388 -8.5246 0.6209 0.9389
-4.9668 -17.0841 0.7015 0.9313
11.3498 -13.4881 0.6951 0.9319
9.9920 -9.9236 0.5553 0.9452
18.2205 5.4331 0.7497 0.9267
-5.0366 -15.4996 0.6426 0.9368
10.1650 -8.9859 0.5350 0.9471
11.4530 -8.4314 0.5608 0.9447
17.3013 -8.4852 0.7598 0.9258
10.2416 -16.7913 0.7755 0.9243
11.4049 -15.4140 0.7561 0.9261
10.8186 -8.4983 0.5425 0.9464
13.1115 -8.5255 0.6167 0.9393
-4.8930 -16.5549 0.6807 0.9332
11.2801 -16.2862 0.7812 0.9238
10.5387 -8.8247 0.5420 0.9465
12.1139 -8.4270 0.5819 0.9426
14.7394 -8.4094 0.6691 0.9343
10.7321 -16.5791 0.7787 0.9240
10.1574 -10.8352 0.5856 0.9423
17.1349 -8.4985 0.7542 0.9263
-2.8772 4.6008 0.2140 0.9785
10.2098 -16.9080 0.7788 0.9240
11.4592 -13.0163 0.6838 0.9329
9.9644 -9.4635 0.5419 0.9465
15.6907 -8.4030 0.7018 0.9312
-6.3014 -15.3240 0.2799 0.9359
-4.8181 -15.5307 0.2747 0.9370
10.9917 -16.3346 0.3326 0.9243
10.4040 -8.9524 0.2319 0.9466
11.7773 -8.4298 0.2447 0.9437
17.7738 -8.4241 0.3323 0.9243
-5.3310 -15.4592 0.2762 0.9367
10.4974 -16.7044 0.3333 0.9241
11.0954 -8.4784 0.2359 0.9457
16.4751 -8.4490 0.3128 0.9286
-2.8103 4.6310 0.0915 0.9786
-5.8503 -15.3869 0.2781 0.9363
10.0680 -17.1912 0.3365 0.9234
11.4085 -16.0103 0.3321 0.9244
11.4472 -13.3605 0.2972 0.9320
10.7099 -8.7271 0.2334 0.9462
12.3877 -8.3739 0.2526 0.9419
15.2035 -8.4070 0.2935 0.9329
11.3573 -14.1261 0.3062 0.9301
9.9095 -10.2916 0.2413 0.9444
10.3536 -8.9896 0.2316 0.9466
14.0667 -8.3628 0.2764 0.9366
17.5789 -8.4279 0.3293 0.9250
10.4269 -16.7574 0.3334 0.9241
11.4556 -15.1975 0.3215 0.9267
11.4425 -12.6523 0.2882 0.9340
10.0501 -9.2926 0.2312 0.9467
16.1329 -8.3644 0.3069 0.9299
-5.0454 -17.6474 0.3100 0.9292
10.0204 -17.2861 0.3375 0.9232
10.0177 -9.8609 0.2374 0.9453
10.6587 -8.7648 0.2331 0.9463
-6.4526 -15.3030 0.2805 0.9357
11.4540 -14.3770 0.3105 0.9291
9.9107 -10.3850 0.2425 0.9442
10.2076 -8.9429 0.2292 0.9472
17.3875 -8.4315 0.3264 0.9256
-5.4783 -15.4387 0.2767 0.9366
11.3608 -15.2122 0.3207 0.9269
10.8789 -8.4675 0.2329 0.9463
13.2398 -8.5252 0.2660 0.9389
16.0292 -8.4015 0.3057 0.9302
-4.9671 -17.0854 0.3006 0.9313
11.3770 -16.2709 0.3354 0.9236
11.3495 -13.4877 0.2978 0.9319
-6.5286 -15.2924 0.2809 0.9356
10.7802 -16.4919 0.3328 0.9242
10.1235 -10.7031 0.2489 0.9428
10.1651 -8.9860 0.2292 0.9472
11.4537 -8.4320 0.2403 0.9447
17.1992 -8.4351 0.3236 0.9262
-5.5522 -15.4284 0.2770 0.9365
10.2418 -16.7915 0.3322 0.9243
11.4486 -12.8881 0.2912 0.9334
9.9931 -9.4063 0.2318 0.9466
13.1125 -8.5261 0.2642 0.9393
-6.0745 -15.3557 0.2789 0.9361
-4.8934 -16.5562 0.2916 0.9333
11.2805 -16.2868 0.3347 0.9238
10.0189 -10.0393 0.2396 0.9448
14.7404 -8.4100 0.2867 0.9344
-6.6048 -15.2818 0.2812 0.9356
10.1575 -10.8353 0.2509 0.9423
11.3528 -8.4359 0.2389 0.9450
-2.8765 4.5997 0.0916 0.9785
-5.6262 -15.4181 0.2772 0.9364
10.2099 -16.9081 0.3336 0.9240
11.4055 -15.5593 0.3259 0.9257
11.4448 -13.0000 0.2926 0.9331
10.8197 -8.5774 0.2333 0.9463
12.8962 -8.4674 0.2606 0.9401
15.6920 -8.4037 0.3007 0.9313
11.3951 -14.0446 -0.1018 0.9302
9.9864 -10.2794 -0.0807 0.9443
10.4043 -8.9526 -0.0773 0.9466
14.2969 -8.4136 -0.0934 0.9358
17.7981 -8.4357 -0.1109 0.9242
10.5183 -16.7376 -0.1113 0.9240
11.4582 -15.0610 -0.1065 0.9271
11.3441 -12.4317 -0.0948 0.9349
13.5008 -8.5241 -0.0899 0.9381
-2.8099 4.6304 -0.0305 0.9786
-5.8505 -15.3875 -0.0927 0.9363
10.7101 -8.7273 -0.0778 0.9462
12.3885 -8.3745 -0.0842 0.9419
-6.3772 -15.3141 -0.0934 0.9358
-4.8911 -15.5212 -0.0916 0.9370
10.8799 -16.3249 -0.1104 0.9245
9.9099 -10.2921 -0.0804 0.9445
10.3538 -8.9898 -0.0772 0.9466
11.6689 -8.4311 -0.0811 0.9440
14.0677 -8.3634 -0.0921 0.9366
17.7212 -8.4961 -0.1106 0.9244
-5.4048 -15.4496 -0.0922 0.9366
10.4472 -16.7900 -0.1113 0.9239
16.1326 -8.3643 -0.1023 0.9299
-5.9250 -15.3771 -0.0928 0.9362
10.0205 -17.2861 -0.1125 0.9232
11.4092 -16.1631 -0.1114 0.9239
11.4383 -13.4711 -0.0995 0.9318
10.6590 -8.7650 -0.0777 0.9463
12.3466 -8.4266 -0.0842 0.9420
-6.4529 -15.3036 -0.0935 0.9357
11.4537 -14.3766 -0.1035 0.9291
9.9103 -10.3846 -0.0808 0.9442
10.2078 -8.9431 -0.0764 0.9472
14.0229 -8.4215 -0.0921 0.9367
17.5233 -8.4974 -0.1096 0.9251
-5.4786 -15.4393 -0.0922 0.9366
10.8792 -8.4677 -0.0776 0.9463
13.2407 -8.5258 -0.0887 0.9389
16.0304 -8.4021 -0.1019 0.9302
-5.9998 -15.3667 -0.0929 0.9361
9.9522 -17.3461 -0.1126 0.9231
11.3774 -16.2715 -0.1118 0.9237
11.3491 -13.4873 -0.0992 0.9319
9.9915 -9.9231 -0.0793 0.9452
10.6080 -8.8025 -0.0776 0.9464
12.2304 -8.4274 -0.0836 0.9423
18.2116 5.4305 -0.1070 0.9268
-6.5289 -15.2930 -0.0936 0.9356
10.8035 -16.5275 -0.1112 0.9241
11.4587 -14.5153 -0.1041 0.9287
10.1653 -8.9861 -0.0764 0.9472
14.0234 -8.5070 -0.0923 0.9365
-5.5524 -15.4290 -0.0923 0.9365
10.2420 -16.7918 -0.1107 0.9243
11.4042 -15.4131 -0.1080 0.9262
10.8192 -8.4987 -0.0775 0.9465
13.1134 -8.5266 -0.0881 0.9393
15.8604 -8.4033 -0.1011 0.9307
-6.0747 -15.3563 -0.0930 0.9361
11.3567 -13.6191 -0.0998 0.9315
10.5358 -8.8222 -0.0774 0.9465
12.1155 -8.4281 -0.0831 0.9427
14.7416 -8.4107 -0.0956 0.9344
-5.1100 -15.4907 -0.0918 0.9368
11.4555 -14.6449 -0.1047 0.9283
13.9070 -8.5214 -0.0918 0.9368
10.2099 -16.9081 -0.1112 0.9240
9.9645 -9.4635 -0.0774 0.9465
12.8971 -8.4679 -0.0869 0.9402
15.6932 -8.4044 -0.1002 0.9313
11.0603 -13.6319 -0.4943 0.9322
9.8733 -10.1631 -0.3990 0.9449
14.1446 -8.3241 -0.4621 0.9364
17.7055 -8.3918 -0.5517 0.9246
10.4317 -16.5999 -0.5520 0.9245
11.0514 -12.1110 -0.4617 0.9365
10.0786 -9.2359 -0.3849 0.9468
11.0965 -8.4792 -0.3932 0.9456
-2.8095 4.6297 -0.1525 0.9786
-5.8507 -15.3881 -0.4636 0.9362
10.4478 -12.1940 -0.4522 0.9378
12.3894 -8.3751 -0.4211 0.9419
15.0268 -8.3093 -0.4835 0.9336
9.8915 -10.2729 -0.4016 0.9445
10.2505 -8.9001 -0.3822 0.9471
11.6696 -8.4316 -0.4054 0.9440
14.0687 -8.3640 -0.4609 0.9366
17.5063 -8.3931 -0.5467 0.9253
-5.4051 -15.4502 -0.4609 0.9366
10.3687 -16.6638 -0.5526 0.9245
10.4587 -13.8749 -0.4893 0.9328
10.9537 -12.1119 -0.4598 0.9367
10.0501 -9.2926 -0.3854 0.9467
16.0139 -8.3027 -0.5079 0.9304
10.8411 -15.3583 -0.5293 0.9275
10.3652 -12.2072 -0.4509 0.9379
12.3475 -8.4271 -0.4209 0.9419
14.8718 -8.3103 -0.4797 0.9341
18.1802 5.5095 -0.5349 0.9268
-6.4532 -15.3042 -0.4677 0.9357
-4.9642 -15.5116 -0.4586 0.9369
10.8021 -16.3658 -0.5522 0.9245
10.8610 -13.6327 -0.4908 0.9326
17.3109 -8.3944 -0.5417 0.9259
-5.4788 -15.4400 -0.4613 0.9365
10.8568 -12.1128 -0.4580 0.9370
10.0217 -9.3495 -0.3859 0.9466
10.8795 -8.4680 -0.3882 0.9463
13.0003 -8.3710 -0.4354 0.9400
-6.0001 -15.3673 -0.4645 0.9361
-5.2807 -18.1640 -0.5326 0.9271
11.3488 -13.4869 -0.4963 0.9319
9.8584 -9.7909 -0.3912 0.9459
12.2313 -8.4279 -0.4182 0.9423
18.2072 5.4292 -0.5350 0.9268
-6.5292 -15.2936 -0.4682 0.9356
-5.0372 -15.5015 -0.4590 0.9369
10.7624 -13.6331 -0.4891 0.9329
10.1654 -8.9863 -0.3820 0.9472
11.3620 -15.3561 -0.5379 0.9264
10.7606 -12.1137 -0.4562 0.9372
12.8753 -8.3719 -0.4324 0.9404
15.6749 -8.3050 -0.4995 0.9315
-6.0749 -15.3569 -0.4650 0.9361
-5.3652 -18.1523 -0.5330 0.9271
10.6379 -15.3591 -0.5261 0.9280
11.3564 -13.6187 -0.4993 0.9315
9.8469 -9.8669 -0.3925 0.9457
14.5691 -8.3123 -0.4723 0.9351
10.6644 -13.6335 -0.4874 0.9331
10.1579 -10.8356 -0.4182 0.9423
11.3539 -8.4367 -0.3983 0.9450
13.6545 -8.3667 -0.4509 0.9379
16.9300 -8.3969 -0.5321 0.9272
-2.8751 4.5975 -0.1527 0.9785
10.6653 -12.1145 -0.4545 0.9375
9.9645 -9.4636 -0.3870 0.9465
10.7598 -8.5299 -0.3866 0.9465
12.7519 -8.3727 -0.4295 0.9408
10.3370 -15.3615 -0.9390 0.9285
10.4047 -8.9530 -0.6961 0.9465
14.2990 -8.4149 -0.8414 0.9357
17.7071 -8.3925 -0.9938 0.9245
10.4602 -16.6452 -0.9970 0.9243
11.0970 -8.4796 -0.7083 0.9456
13.3378 -8.4212 -0.8000 0.9388
16.3820 -8.4012 -0.9337 0.9289
-2.8091 4.6291 -0.2746 0.9785
10.0681 -17.1913 -1.0104 0.9233
9.8098 -13.7667 -0.8573 0.9345
10.3495 -12.0792 -0.8067 0.9383
10.0164 -9.7721 -0.7097 0.9455
15.2071 -8.4089 -0.8813 0.9328
-6.3777 -15.3154 -0.8414 0.9357
9.9108 -10.2929 -0.7246 0.9444
11.6704 -8.4322 -0.7302 0.9440
17.5079 -8.3938 -0.9847 0.9252
-5.4053 -15.4508 -0.8301 0.9365
11.0131 -8.4935 -0.7053 0.9458
16.2061 -8.4024 -0.9258 0.9295
-5.9255 -15.3784 -0.8358 0.9361
-5.1967 -18.1765 -0.9587 0.9271
9.8401 -13.9402 -0.8653 0.9339
10.0170 -9.8602 -0.7128 0.9453
18.1778 5.5087 -0.9633 0.9267
-4.9644 -15.5123 -0.8260 0.9368
10.1400 -15.3626 -0.9335 0.9289
10.8613 -13.6331 -0.8840 0.9326
9.9095 -10.3838 -0.7279 0.9441
10.2081 -8.9434 -0.6883 0.9471
17.3124 -8.3951 -0.9758 0.9258
10.1843 -13.6368 -0.8632 0.9341
10.8575 -12.1135 -0.8250 0.9369
16.0330 -8.4035 -0.9180 0.9301
10.6084 -8.8029 -0.6991 0.9463
14.8958 -8.4110 -0.8675 0.9338
18.2028 5.4279 -0.9633 0.9267
-6.5294 -15.2943 -0.8434 0.9356
10.7627 -13.6336 -0.8809 0.9328
10.1200 -10.6994 -0.7469 0.9427
10.1656 -8.9864 -0.6881 0.9471
16.9752 -8.3253 -0.9588 0.9271
-5.5529 -15.4303 -0.8317 0.9364
10.2701 -16.8379 -1.0002 0.9240
10.7613 -12.1143 -0.8218 0.9372
10.8198 -8.4992 -0.6978 0.9464
12.9551 -8.4237 -0.7837 0.9400
15.8630 -8.4046 -0.9104 0.9306
-6.0752 -15.3575 -0.8376 0.9360
10.6384 -15.3598 -0.9476 0.9279
10.0743 -12.0812 -0.7978 0.9389
10.0182 -10.0386 -0.7192 0.9448
-5.1104 -15.4919 -0.8273 0.9368
10.1580 -10.8358 -0.7532 0.9422
13.7392 -8.4186 -0.8172 0.9375
16.9314 -8.3976 -0.9585 0.9271
-2.8744 4.5964 -0.2749 0.9785
10.6659 -12.1152 -0.8186 0.9374
-6.3024 -15.3265 -1.2151 0.9357
9.4011 -13.9708 -1.2347 0.9347
11.7804 -8.4320 -1.0622 0.9436
14.3001 -8.4155 -1.2166 0.9356
17.7972 -8.4352 -1.4441 0.9240
14.0516 12.2862 -1.3686 0.9279
10.6176 13.3003 -1.2479 0.9340
9.3031 14.0646 -1.2364 0.9346
7.9960 14.8096 -1.2340 0.9347
6.7732 15.7663 -1.2582 0.9335
5.3455 16.3246 -1.2595 0.9334
4.1607 18.0022 -1.3548 0.9286
-5.3319 -15.4617 -1.1992 0.9365
11.0976 -8.4800 -1.0241 0.9455
14.9301 12.2526 -1.4162 0.9255
12.5792 12.3580 -1.2930 0.9317
11.0730 13.0149 -1.2529 0.9338
8.4424 14.5309 -1.2322 0.9348
3.1058 18.1942 -1.3533 0.9286
-5.8512 -15.3894 -1.2072 0.9361
15.2082 -8.4096 -1.2742 0.9327
13.3688 12.3367 -1.3338 0.9296
11.5246 12.7180 -1.2584 0.9335
5.1006 17.1147 -1.3094 0.9309
3.6624 18.0363 -1.3495 0.9288
-4.8917 -15.5230 -1.1934 0.9368
10.2508 -8.9004 -0.9954 0.9470
11.9701 12.4073 -1.2641 0.9332
10.6828 13.2604 -1.2486 0.9340
9.3634 14.0196 -1.2361 0.9346
4.2438 17.9963 -1.3557 0.9285
-5.4055 -15.4515 -1.2003 0.9365
10.2793 -13.6370 -1.2521 0.9338
10.0502 -9.2927 -1.0036 0.9466
11.0136 -8.4939 -1.0198 0.9457
16.1317 -8.3638 -1.3323 0.9297
15.0602 12.2475 -1.4233 0.9251
9.8257 13.7604 -1.2398 0.9344
8.5053 14.4901 -1.2320 0.9348
5.9105 16.0841 -1.2564 0.9336
-2.8187 4.6919 -0.4013 0.9783
-4.5055 -15.7588 -1.2018 0.9364
9.6012 -13.6018 -1.2208 0.9354
9.9152 -9.7600 -1.0201 0.9457
12.3492 -8.4283 -1.0963 0.9418
15.0513 -8.4106 -1.2642 0.9332
18.1753 5.5079 -1.3925 0.9267
13.4763 12.3253 -1.3391 0.9294
10.2890 13.4967 -1.2444 0.9342
7.6614 14.9812 -1.2338 0.9347
6.4146 15.9024 -1.2573 0.9335
5.1342 16.9512 -1.2987 0.9314
3.7449 18.0308 -1.3503 0.9288
-16.4214 7.6485 -1.3282 0.9299
10.1404 -15.3634 -1.3497 0.9288
9.6716 -12.1398 -1.1381 0.9396
10.2082 -8.9435 -0.9951 0.9470
11.5633 -8.4334 -1.0494 0.9442
14.0160 -8.4174 -1.1988 0.9365
17.5278 -8.4996 -1.4283 0.9248
10.7479 13.2203 -1.2493 0.9339
8.1242 14.7315 -1.2335 0.9348
5.4823 16.2514 -1.2576 0.9335
9.4840 -15.3946 -1.3258 0.9300
10.0217 -9.3495 -1.0049 0.9465
13.0818 -8.4235 -1.1408 0.9395
15.1915 12.2422 -1.4306 0.9247
12.7995 12.3522 -1.3042 0.9311
8.5679 14.4491 -1.2317 0.9348
4.9148 17.9470 -1.3644 0.9281
9.9037 -9.8359 -1.0234 0.9456
14.8969 -8.4116 -1.2544 0.9337
9.0321 14.2006 -1.2340 0.9347
7.7289 14.9485 -1.2339 0.9347
-16.2450 7.6545 -1.3167 0.9305
-6.5297 -15.2949 -1.2194 0.9355
-5.0376 -15.5027 -1.1952 0.9367
10.0429 -15.3639 -1.3458 0.9290
13.8771 -8.4183 -1.1901 0.9370
17.2997 -8.4844 -1.4128 0.9256
12.1479 12.3690 -1.2712 0.9328
10.8129 13.1799 -1.2500 0.9339
9.4917 13.9413 -1.2366 0.9346
8.1880 14.6921 -1.2333 0.9348
2.9603 19.4318 -1.4412 0.9242
-5.5531 -15.4309 -1.2025 0.9363
9.4750 -15.5344 -1.3342 0.9296
10.0907 -13.6380 -1.2439 0.9342
10.7620 -12.1151 -1.1882 0.9371
9.9932 -9.4064 -1.0063 0.9464
10.8649 -8.5346 -1.0130 0.9461
15.8643 -8.4053 -1.3164 0.9305
15.3252 12.2377 -1.4380 0.9244
12.9110 12.3492 -1.3100 0.9309
9.9582 13.6865 -1.2411 0.9344
7.3243 15.1478 -1.2337 0.9347
6.0545 16.0334 -1.2566 0.9336
3.3315 18.0578 -1.3464 0.9290
-4.6456 -15.7177 -1.2017 0.9364
9.5764 -13.8265 -1.2332 0.9348
10.1068 -12.1201 -1.1571 0.9387
10.4220 -8.7269 -0.9967 0.9469
12.1180 -8.4298 -1.0824 0.9425
14.7450 -8.4126 -1.2447 0.9342
13.6911 12.2995 -1.3495 0.9288
11.7213 12.5926 -1.2614 0.9333
10.4202 13.4192 -1.2457 0.9341
9.1029 14.1722 -1.2350 0.9347
5.1996 16.6314 -1.2777 0.9325
-6.6059 -15.2843 -1.2209 0.9354
9.9458 -15.3644 -1.3420 0.9292
9.5534 -12.2133 -1.1369 0.9397
10.1639 -9.0659 -0.9986 0.9468
13.7402 -8.4192 -1.1815 0.9374
14.5453 12.2676 -1.3952 0.9265
12.2539 12.3663 -1.2765 0.9326
10.8778 13.1392 -1.2507 0.9339
9.5585 13.9057 -1.2373 0.9346
8.2517 14.6524 -1.2330 0.9348
4.4940 17.9784 -1.3588 0.9284
2.9983 19.1089 -1.4183 0.9254
-2.8737 4.5953 -0.3974 0.9785
10.6665 -12.1159 -1.1836 0.9373
12.8318 -8.4251 -1.1255 0.9403
15.6970 -8.4064 -1.3056 0.9311
-7.3646 -14.1651 -1.5327 0.9379
-6.3027 -15.3272 -1.5910 0.9356
-4.8191 -15.5338 -1.5614 0.9367
9.1976 -13.6684 -1.5817 0.9359
9.8360 -12.1229 -1.4988 0.9392
10.2935 -8.8573 -1.3037 0.9469
14.3011 -8.4162 -1.5931 0.9355
16.0827 11.7054 -1.9097 0.9232
13.4601 11.7691 -1.7166 0.9307
9.6166 12.0465 -1.4798 0.9399
8.0176 12.1211 -1.3952 0.9433
5.9910 13.9457 -1.4572 0.9408
4.9847 15.2230 -1.5379 0.9377
2.5722 18.5455 -1.7975 0.9275
-15.4746 7.6328 -1.6565 0.9330
-7.2968 -16.2787 -1.7127 0.9308
11.0535 -12.1133 -1.5743 0.9362
11.0981 -8.4804 -1.3409 0.9454
13.5046 -8.5265 -1.5333 0.9378
16.5872 -8.5064 -1.7896 0.9278
14.2478 11.6926 -1.7695 0.9286
8.5550 12.0945 -1.4223 0.9422
7.2871 12.5425 -1.3926 0.9434
5.1748 14.2783 -1.4580 0.9408
2.9770 17.4392 -1.6985 0.9314
-2.8084 4.6279 -0.5197 0.9785
-11.9387 7.8013 -1.3692 0.9443
-15.0154 7.9991 -1.6333 0.9339
-17.8520 7.5513 -1.8609 0.9251
-5.8514 -15.3900 -1.5807 0.9360
9.0012 -15.3696 -1.7100 0.9309
9.7200 -13.6407 -1.6080 0.9349
15.2094 -8.4102 -1.6685 0.9325
7.5717 12.1421 -1.3738 0.9441
5.5694 13.9862 -1.4453 0.9413
4.7411 15.9082 -1.5937 0.9355
3.5016 17.2447 -1.6894 0.9317
-16.5038 7.5975 -1.7443 0.9296
-17.1185 -8.5177 -1.8357 0.9260
-7.3697 -14.0220 -1.5208 0.9383
-4.8919 -15.5237 -1.5626 0.9367
9.1500 -13.7292 -1.5840 0.9359
9.7473 -12.1236 -1.4935 0.9394
9.9116 -10.2938 -1.3719 0.9442
14.0718 -8.3658 -1.5717 0.9363
9.7024 12.0436 -1.4848 0.9397
7.1603 13.1216 -1.4351 0.9417
5.0132 15.0823 -1.5259 0.9381
-15.3135 7.6383 -1.6429 0.9335
-5.4057 -15.4521 -1.5716 0.9363
9.2984 -12.3357 -1.4831 0.9398
10.9558 -12.1142 -1.5681 0.9365
10.0502 -9.2927 -1.3141 0.9465
12.2669 11.9443 -1.6438 0.9335
10.3209 12.0219 -1.5212 0.9383
7.3074 12.4493 -1.3859 0.9436
6.5633 13.8884 -1.4748 0.9401
4.4192 16.4239 -1.6329 0.9339
-2.8168 4.6888 -0.5251 0.9783
-17.6489 7.5583 -1.8432 0.9258
-15.9514 -8.4777 -1.7343 0.9300
-7.3442 -14.9320 -1.5976 0.9353
-5.0474 -17.6542 -1.7628 0.9289
10.2905 -12.1193 -1.5264 0.9381
9.8695 -9.7150 -1.3295 0.9459
10.5234 -8.6535 -1.3080 0.9467
12.3500 -8.4288 -1.4355 0.9417
15.0525 -8.4113 -1.6554 0.9331
15.3604 11.7135 -1.8545 0.9253
5.6391 13.9796 -1.4472 0.9412
4.8002 15.8486 -1.5898 0.9356
-11.1442 7.8639 -1.3095 0.9467
-16.3252 7.6037 -1.7290 0.9302
-6.4540 -15.3061 -1.5948 0.9354
-4.9648 -15.5135 -1.5638 0.9366
9.6593 -12.1243 -1.4882 0.9396
11.5641 -8.4340 -1.3741 0.9441
17.5293 -8.5003 -1.8703 0.9247
11.6520 11.9703 -1.6038 0.9351
9.7889 12.0407 -1.4898 0.9395
8.1688 12.1138 -1.4027 0.9430
6.1326 13.9318 -1.4614 0.9407
5.0412 14.9436 -1.5141 0.9386
4.1363 17.1968 -1.6981 0.9314
2.6557 17.9692 -1.7439 0.9296
-14.9058 -8.4418 -1.6446 0.9335
-7.3133 -15.9336 -1.6831 0.9320
9.4674 -15.3675 -1.7329 0.9300
9.1237 -12.2166 -1.4638 0.9406
10.0217 -9.3495 -1.3158 0.9464
13.2444 -8.5282 -1.5123 0.9387
16.0356 -8.4048 -1.7381 0.9298
14.4905 11.6773 -1.7867 0.9279
12.3721 11.9397 -1.6507 0.9332
10.4113 12.0186 -1.5266 0.9381
8.7119 12.0865 -1.4304 0.9419
7.3274 12.3570 -1.3792 0.9439
6.6356 13.8810 -1.4771 0.9400
5.2318 14.0438 -1.4388 0.9416
4.4567 16.2742 -1.6199 0.9344
3.1168 17.3265 -1.6901 0.9317
-17.4497 7.5651 -1.8259 0.9264
-7.3430 -14.7632 -1.5830 0.9359
-6.0008 -15.3692 -1.5840 0.9358
10.1986 -12.1200 -1.5207 0.9383
9.9906 -9.9222 -1.3518 0.9450
10.4649 -8.6839 -1.3055 0.9468
12.2337 -8.4296 -1.4263 0.9420
15.5234 11.7289 -1.8679 0.9248
9.2765 12.0568 -1.4605 0.9407
7.0476 13.6309 -1.4732 0.9402
4.8592 15.7891 -1.5860 0.9358
3.6595 17.2332 -1.6914 0.9317
-11.1468 7.9404 -1.3139 0.9465
-17.5374 -8.5320 -1.8724 0.9246
-6.5300 -15.2955 -1.5967 0.9354
-5.0378 -15.5033 -1.5650 0.9366
9.5718 -12.1250 -1.4831 0.9398
10.1177 -10.6970 -1.4136 0.9425
10.1659 -8.9867 -1.3026 0.9469
11.4574 -8.4347 -1.3659 0.9444
14.0224 -8.5064 -1.5745 0.9362
17.2994 -8.4842 -1.8498 0.9255
13.7734 11.7220 -1.7364 0.9299
11.7521 11.9661 -1.6102 0.9348
8.2449 12.1101 -1.4065 0.9428
7.2034 12.9254 -1.4206 0.9423
6.2037 13.9247 -1.4635 0.9406
-15.1510 7.7266 -1.6328 0.9339
9.3735 -15.3679 -1.7282 0.9302
10.7623 -12.1156 -1.5558 0.9370
13.1170 -8.5290 -1.5021 0.9391
15.8655 -8.4060 -1.7237 0.9304
12.4780 11.9351 -1.6577 0.9330
10.5025 12.0153 -1.5321 0.9379
7.3472 12.2655 -1.3727 0.9442
4.5002 16.1502 -1.6096 0.9348
-11.6138 7.8125 -1.3438 0.9453
-13.1840 -8.4303 -1.5024 0.9391
-7.3673 -14.6480 -1.5741 0.9362
-4.8952 -16.5621 -1.6580 0.9330
8.8426 -15.5723 -1.7192 0.9306
12.1187 -8.4304 -1.4173 0.9424
18.2347 5.3490 -1.8244 0.9265
13.9185 8.5965 -1.5706 0.9364
15.6704 11.7306 -1.8793 0.9244
13.2004 11.8587 -1.7036 0.9312
9.3605 12.0544 -1.4652 0.9405
7.0706 13.5274 -1.4654 0.9405
5.7789 13.9663 -1.4511 0.9411
4.8961 15.6606 -1.5753 0.9362
2.4366 19.4888 -1.8856 0.9241
-15.9773 7.6156 -1.6992 0.9313
-17.7531 -8.5394 -1.8913 0.9239
-6.6062 -15.2849 -1.5986 0.9353
10.1583 -10.8361 -1.4260 0.9421
10.1639 -9.0659 -1.3076 0.9467
11.3556 -8.4379 -1.3582 0.9447
17.1435 -8.5028 -1.8372 0.9260
13.8899 11.7148 -1.7445 0.9296
9.9634 12.0347 -1.5000 0.9391
7.2246 12.8287 -1.4135 0.9426
5.0957 14.6726 -1.4912 0.9395
4.2617 17.0489 -1.6871 0.9318
-2.8730 4.5941 -0.5202 0.9785
-15.2414 -8.4533 -1.6732 0.9324
-5.6273 -15.4212 -1.5760 0.9362
9.2801 -15.3683 -1.7236 0.9304
10.6669 -12.1163 -1.5498 0.9372
12.9006 -8.4703 -1.4816 0.9399
9.1810 -13.6437 -1.9534 0.9359
9.8365 -12.1236 -1.8545 0.9390
9.9885 -10.2816 -1.7028 0.9439
10.3749 -8.9274 -1.6258 0.9464
14.3022 -8.4168 -1.9713 0.9353
11.6929 8.5104 -1.7179 0.9434
13.0217 11.3857 -2.0547 0.9327
11.0951 11.6033 -1.9070 0.9374
9.3354 11.6943 -1.7775 0.9415
7.7950 11.7846 -1.6784 0.9447
5.7948 13.4889 -1.7439 0.9426
2.3824 17.1767 -2.0599 0.9325
-10.8035 7.9910 -1.5962 0.9473
-12.6747 7.7282 -1.7634 0.9420
-18.0063 -8.3651 -2.3584 0.9231
-14.5829 -8.4314 -2.0009 0.9344
-11.8397 -8.3373 -1.7201 0.9433
-7.4073 -13.2208 -1.8001 0.9408
-5.3323 -15.4630 -1.9429 0.9362
9.2271 -12.1283 -1.8102 0.9405
11.0540 -12.1139 -1.9480 0.9361
11.0986 -8.4808 -1.6592 0.9453
16.3515 11.1363 -2.3500 0.9234
11.7712 11.5642 -1.9601 0.9357
9.9253 11.6659 -1.8194 0.9402
8.3130 11.7524 -1.7100 0.9437
6.9791 12.0123 -1.6502 0.9456
6.2764 13.4359 -1.7616 0.9420
4.9539 13.6687 -1.7270 0.9431
4.1490 15.6982 -1.9288 0.9367
2.8679 16.8004 -2.0245 0.9337
-11.8690 7.7558 -1.6842 0.9445
-12.7079 -8.3671 -1.8073 0.9406
-8.6928 -8.2769 -1.4258 0.9528
-7.5306 -10.3009 -1.5157 0.9499
-5.1970 -18.4889 -2.2813 0.9256
9.0013 -15.3698 -2.1158 0.9308
9.7205 -13.6414 -1.9897 0.9348
10.3837 -12.1192 -1.8957 0.9377
10.0157 -9.7715 -1.6621 0.9452
10.6770 -8.7004 -1.6360 0.9460
12.3927 -8.3773 -1.7769 0.9415
15.2106 -8.4109 -2.0646 0.9324
14.4683 11.1356 -2.1687 0.9291
12.4847 11.5209 -2.0180 0.9339
8.8503 11.7172 -1.7443 0.9426
7.3633 11.8079 -1.6530 0.9455
6.6515 13.1507 -1.7506 0.9424
5.3884 13.5317 -1.7301 0.9430
-11.1484 7.7927 -1.6157 0.9467
-13.4292 7.7023 -1.8390 0.9395
-16.5024 7.5969 -2.1580 0.9294
-13.6697 -8.4001 -1.9058 0.9374
-11.1589 -8.3140 -1.6530 0.9455
-6.3786 -15.3173 -1.9709 0.9353
-4.8921 -15.5243 -1.9335 0.9365
9.0930 -13.6438 -1.9476 0.9361
9.7478 -12.1243 -1.8479 0.9393
10.3251 -8.9648 -1.6243 0.9464
14.0729 -8.3664 -1.9448 0.9362
17.4058 -8.3449 -2.2929 0.9252
13.1047 11.3557 -2.0598 0.9325
6.8154 12.4896 -1.6901 0.9443
3.7846 16.0487 -1.9587 0.9357
-10.7843 8.0513 -1.5986 0.9472
-15.3123 7.6377 -2.0326 0.9334
-14.7436 -8.4369 -2.0178 0.9339
-11.9583 -8.3414 -1.7319 0.9430
-8.2228 -8.2608 -1.3845 0.9541
-5.4059 -15.4527 -1.9447 0.9362
9.1426 -12.1289 -1.8042 0.9407
10.0503 -9.2927 -1.6259 0.9464
13.3745 -8.5279 -1.8842 0.9381
16.1311 -8.3635 -2.1584 0.9294
16.4560 11.1005 -2.3579 0.9232
10.3990 8.4569 -1.5922 0.9474
11.8705 11.5583 -1.9681 0.9354
8.3884 11.7476 -1.7147 0.9435
7.0125 11.9469 -1.6455 0.9457
5.0154 13.6485 -1.7273 0.9431
4.2084 15.6408 -1.9240 0.9368
2.9357 16.7476 -2.0197 0.9338
-2.8149 4.6856 -0.6493 0.9782
-11.7599 7.7595 -1.6736 0.9448
-14.2519 7.6741 -1.9227 0.9369
-12.8388 -8.3716 -1.8206 0.9401
-5.9263 -15.3803 -1.9579 0.9358
-5.0478 -17.6557 -2.1813 0.9287
9.6295 -13.6419 -1.9835 0.9350
10.6265 -8.7383 -1.6342 0.9461
10.6323 11.6288 -1.8717 0.9385
8.9285 11.7120 -1.7494 0.9424
7.4350 11.8055 -1.6573 0.9454
6.6757 13.0538 -1.7416 0.9427
4.5619 15.0615 -1.8694 0.9386
2.1222 18.2967 -2.1880 0.9285
-11.0552 7.8011 -1.6072 0.9470
-13.2994 7.7067 -1.8259 0.9400
-16.3239 7.6030 -2.1390 0.9300
-11.2684 -8.3177 -1.6637 0.9451
-8.0589 -8.5421 -1.3950 0.9538
-7.4857 -11.4839 -1.6283 0.9463
-6.4543 -15.3067 -1.9733 0.9353
-4.9649 -15.5142 -1.9349 0.9365
9.6598 -12.1250 -1.8415 0.9395
9.9083 -10.3826 -1.7048 0.9438
11.5648 -8.4345 -1.7003 0.9440
17.2114 -8.3461 -2.2722 0.9258
15.6934 11.2096 -2.2909 0.9253
6.8377 12.3988 -1.6819 0.9446
5.9312 13.4741 -1.7487 0.9424
3.8459 15.9898 -1.9535 0.9359
-12.4375 7.7363 -1.7399 0.9427
-15.1538 7.6432 -2.0161 0.9339
-18.0818 -8.2051 -2.3587 0.9231
-12.0785 -8.3455 -1.7439 0.9426
-5.4796 -15.4425 -1.9464 0.9361
9.4680 -15.3685 -2.1442 0.9299
10.8592 -12.1154 -1.9326 0.9366
10.0218 -9.3496 -1.6281 0.9463
10.8807 -8.4689 -1.6378 0.9460
13.2453 -8.5288 -1.8713 0.9385
10.4986 8.4604 -1.6016 0.9471
11.9706 11.5523 -1.9761 0.9352
10.0981 11.6571 -1.8320 0.9398
7.0457 11.8819 -1.6409 0.9459
-11.6523 7.7632 -1.6632 0.9452
-14.1101 7.6789 -1.9082 0.9373
-16.1377 -8.4847 -2.1657 0.9292
-8.8552 -8.2825 -1.4403 0.9523
-7.3433 -14.7637 -1.9587 0.9357
-6.0011 -15.3698 -1.9600 0.9357
-4.9694 -17.0931 -2.1145 0.9308
9.5390 -13.6423 -1.9774 0.9351
10.1991 -12.1207 -1.8817 0.9382
9.9903 -9.9220 -1.6725 0.9449
14.8992 -8.4129 -2.0325 0.9334
14.7664 11.1570 -2.1984 0.9282
10.7233 11.6239 -1.8786 0.9383
9.0084 11.7083 -1.7548 0.9422
7.5063 11.8018 -1.6614 0.9452
5.5228 13.5177 -1.7346 0.9429
4.5932 14.9248 -1.8549 0.9390
3.5048 16.5049 -2.0043 0.9343
-13.1713 7.7111 -1.8130 0.9404
-13.9634 -8.4102 -1.9363 0.9364
-11.3792 -8.3215 -1.6746 0.9448
-8.0614 -8.4689 -1.3889 0.9540
-6.5303 -15.2962 -1.9756 0.9352
8.9191 -13.6447 -1.9364 0.9364
9.5723 -12.1256 -1.8351 0.9397
10.1166 -10.6957 -1.7488 0.9424
10.1660 -8.9868 -1.6118 0.9468
11.4581 -8.4352 -1.6901 0.9443
14.0221 -8.5062 -1.9481 0.9361
17.0945 -8.3837 -2.2616 0.9262
12.0346 8.5154 -1.7512 0.9423
13.2717 11.2950 -2.0702 0.9322
5.9996 13.4666 -1.7512 0.9423
4.8022 14.0289 -1.7614 0.9420
3.9070 15.9312 -1.9485 0.9361
2.5921 17.0146 -2.0444 0.9330
-12.3211 7.7403 -1.7284 0.9431
-12.2004 -8.3497 -1.7561 0.9422
9.3741 -15.3689 -2.1384 0.9301
8.9752 -12.1303 -1.7924 0.9410
10.7629 -12.1162 -1.9251 0.9368
10.8208 -8.5000 -1.6345 0.9461
15.8668 -8.4066 -2.1330 0.9302
12.9457 8.5658 -1.8439 0.9394
8.5403 11.7378 -1.7243 0.9432
6.4851 13.4122 -1.7697 0.9418
5.1386 13.6079 -1.7278 0.9431
4.3264 15.5265 -1.9146 0.9371
-17.2527 7.5712 -2.2380 0.9269
-16.3263 -8.4912 -2.1859 0.9286
-10.7330 -8.2994 -1.6116 0.9468
-8.9377 -8.2853 -1.4477 0.9521
-7.4576 -12.0196 -1.6802 0.9446
-4.8955 -16.5633 -2.0516 0.9328
9.4492 -13.6427 -1.9713 0.9353
10.1078 -12.1214 -1.8748 0.9384
10.5259 -8.8139 -1.6308 0.9462
14.7472 -8.4139 -2.0168 0.9339
10.8149 11.6189 -1.8855 0.9381
6.7232 12.8627 -1.7240 0.9432
5.5903 13.5106 -1.7368 0.9428
-10.8718 7.8176 -1.5906 0.9475
-5.1110 -15.4938 -1.9380 0.9364
9.4854 -12.1263 -1.8288 0.9399
11.3561 -8.4383 -1.6806 0.9446
11.4762 11.5815 -1.9367 0.9364
6.8816 12.2196 -1.6659 0.9451
6.0682 13.4591 -1.7537 0.9423
-14.8446 7.6538 -1.9839 0.9349
-15.2426 -8.4540 -2.0704 0.9322
-10.4886 -8.5693 -1.6089 0.9469
-8.4537 -8.2687 -1.4047 0.9535
-7.4950 -10.5467 -1.5369 0.9492
-4.8843 -18.3177 -2.2519 0.9265
9.2806 -15.3692 -2.1327 0.9302
8.8924 -12.1309 -1.7867 0.9412
10.6674 -12.1170 -1.9176 0.9370
9.9646 -9.4637 -1.6324 0.9461
15.6995 -8.4077 -2.1155 0.9308
-7.7424 -14.8919 -2.3782 0.9344
-6.3830 -15.5225 -2.3781 0.9344
2.4421 -16.6367 -2.3825 0.9343
3.9187 -16.3629 -2.3840 0.9343
5.3664 -15.9596 -2.3857 0.9342
14.3033 -8.4174 -2.3515 0.9352
17.5946 1.6459 -2.5039 0.9311
15.8906 6.0033 -2.4068 0.9337
16.6635 9.9851 -2.7525 0.9245
14.6510 10.6633 -2.5675 0.9294
12.6088 11.0247 -2.3731 0.9346
7.5834 11.4647 -1.9476 0.9460
6.5006 12.0399 -1.9387 0.9462
5.6100 13.0588 -2.0138 0.9442
4.4807 13.6836 -2.0401 0.9435
-10.5462 7.8006 -1.8586 0.9484
-15.1097 7.4528 -2.3871 0.9342
-17.1997 3.3130 -2.4818 0.9317
-17.4766 0.2038 -2.4764 0.9318
-17.2000 -2.8987 -2.4714 0.9320
-15.7021 -5.6533 -2.3646 0.9348
-15.1232 -7.0258 -2.3627 0.9349
-11.8405 -8.3379 -2.0519 0.9432
-9.7579 -8.2664 -1.8120 0.9496
-7.4077 -13.2214 -2.1473 0.9406
-6.8650 -15.3155 -2.3781 0.9344
-5.4718 -15.8672 -2.3781 0.9344
-2.5663 -16.5930 -2.3790 0.9344
-1.0765 -16.7613 -2.3798 0.9344
0.4230 -16.7976 -2.3808 0.9344
3.4047 -16.4736 -2.3835 0.9343
4.8638 -16.1154 -2.3851 0.9343
8.9792 -14.2885 -2.3911 0.9341
9.2273 -12.1286 -2.1593 0.9403
11.0546 -12.1146 -2.3237 0.9359
10.0787 -9.2361 -1.9370 0.9463
11.0991 -8.4812 -1.9792 0.9451
16.1287 -4.9050 -2.3886 0.9342
16.5206 -3.4509 -2.3913 0.9341
17.5077 -2.0508 -2.4976 0.9313
17.6400 -0.4816 -2.5003 0.9312
17.6312 1.0949 -2.5030 0.9311
17.4809 2.6658 -2.5055 0.9311
17.1898 4.2184 -2.5079 0.9310
14.8558 8.2821 -2.4099 0.9336
11.4022 11.2017 -2.2648 0.9375
8.0832 11.4275 -1.9833 0.9450
6.7377 11.5968 -1.9003 0.9473
6.0744 13.0033 -2.0336 0.9437
4.8108 13.2738 -2.0005 0.9446
3.9928 15.1073 -2.2141 0.9388
2.7660 16.2037 -2.3291 0.9357
1.5128 18.9264 -2.6902 0.9262
-0.1881 19.6941 -2.7906 0.9235
-2.8076 4.6266 -0.7668 0.9784
-9.9120 7.8224 -1.7891 0.9503
-11.8682 7.7553 -2.0088 0.9443
-16.0100 5.1436 -2.3826 0.9343
-17.4682 0.7502 -2.4773 0.9318
-17.4471 -0.8100 -2.4747 0.9319
-16.9924 -3.8895 -2.4699 0.9320
-15.8758 -5.1614 -2.3653 0.9348
-10.4292 -8.2895 -1.8876 0.9476
-8.6415 -8.2281 -1.6907 0.9529
-5.9648 -15.6882 -2.3781 0.9344
-1.5996 -16.7173 -2.3795 0.9344
-0.1021 -16.7999 -2.3804 0.9344
2.8875 -16.5683 -2.3829 0.9343
4.3567 -16.2554 -2.3845 0.9343
7.1868 -15.2464 -2.3882 0.9342
10.3841 -12.1197 -2.2613 0.9376
10.6772 -8.7005 -1.9515 0.9459
14.8569 -8.2153 -2.4055 0.9337
15.3978 -6.7988 -2.3849 0.9343
17.4283 -2.5959 -2.4966 0.9313
17.6504 0.5432 -2.5021 0.9311
17.3076 3.6780 -2.5071 0.9310
15.7279 6.4286 -2.4074 0.9337
7.5712 8.3553 -1.5976 0.9555
8.6008 11.3870 -2.0219 0.9440
7.1633 11.4871 -1.9181 0.9468
6.3338 12.5226 -1.9884 0.9449
3.2098 15.8075 -2.2855 0.9369
1.8950 16.9991 -2.4235 0.9332
-7.7537 7.8047 -1.5588 0.9565
-11.1311 7.7806 -1.9242 0.9466
-15.2987 7.0428 -2.3863 0.9342
-15.8477 5.6437 -2.3836 0.9343
-16.2694 4.2029 -2.3809 0.9344
-17.4703 -0.2645 -2.4756 0.9318
-17.3594 -1.8198 -2.4731 0.9319
-16.0952 -4.6819 -2.3750 0.9345
-13.6708 -8.4007 -2.2735 0.9372
-9.2233 -8.2481 -1.7532 0.9512
-7.3766 -14.0351 -2.2466 0.9380
-6.4521 -15.4939 -2.3781 0.9344
-5.0447 -16.0087 -2.3782 0.9344
0.8731 -16.7827 -2.3811 0.9344
2.3679 -16.6470 -2.3824 0.9343
3.8457 -16.3797 -2.3839 0.9343
5.2951 -15.9828 -2.3856 0.9342
8.0639 -14.8121 -2.3896 0.9341
9.7481 -12.1246 -2.2043 0.9391
10.3253 -8.9650 -1.9375 0.9463
11.6734 -8.4344 -2.0406 0.9435
14.0739 -8.3671 -2.3199 0.9360
15.1717 -7.2738 -2.3840 0.9343
16.2599 -4.4726 -2.3894 0.9341
17.3319 -3.1381 -2.4957 0.9313
17.5621 -1.5814 -2.4984 0.9312
17.6523 -0.0087 -2.5011 0.9312
15.9165 5.9322 -2.4067 0.9337
15.3362 7.3341 -2.4087 0.9336
14.6316 8.6791 -2.4104 0.9336
14.7987 10.6704 -2.5851 0.9289
12.6881 10.9947 -2.3788 0.9344
10.8465 11.2427 -2.2135 0.9388
9.1479 11.3553 -2.0661 0.9428
7.6536 11.4596 -1.9525 0.9458
3.6400 15.4355 -2.2470 0.9379
-15.6698 6.1386 -2.3845 0.9343
-16.1365 4.7111 -2.3818 0.9343
-17.1857 3.3898 -2.4820 0.9317
-17.4138 -1.2769 -2.4740 0.9319
-17.2135 -2.8222 -2.4715 0.9320
-15.7278 -5.5836 -2.3647 0.9348
-15.1549 -6.9586 -2.3628 0.9348
-11.9591 -8.3420 -2.0660 0.9428
-8.1744 -8.2121 -1.6418 0.9543
-5.5424 -15.8427 -2.3781 0.9344
-4.1077 -16.2759 -2.3784 0.9344
0.3482 -16.7989 -2.3807 0.9344
1.8461 -16.7095 -2.3820 0.9343
6.2167 -15.6565 -2.3868 0.9342
9.1428 -12.1293 -2.1521 0.9405
10.0503 -9.2927 -1.9395 0.9462
11.0152 -8.4951 -1.9710 0.9454
13.3755 -8.5285 -2.2476 0.9379
15.0769 -7.8169 -2.4063 0.9337
15.5798 -6.3859 -2.3857 0.9342
16.5042 -3.5242 -2.3912 0.9341
17.4974 -2.1287 -2.4975 0.9313
17.6350 1.0163 -2.5028 0.9311
17.4917 2.5878 -2.5054 0.9311
17.2076 4.1416 -2.5078 0.9310
15.5537 6.8494 -2.4080 0.9336
13.2546 10.7791 -2.4207 0.9333
8.6379 8.4107 -1.7082 0.9525
6.7706 11.5348 -1.8951 0.9474
4.0504 15.0534 -2.2088 0.9390
-8.3648 7.9803 -1.6381 0.9544
-9.8254 7.8254 -1.7797 0.9505
-11.7591 7.7590 -1.9962 0.9447
-14.2508 7.6735 -2.2933 0.9367
-15.9878 5.2152 -2.3828 0.9343
-16.3707 3.7641 -2.3801 0.9344
-17.3410 2.3852 -2.4802 0.9317
-17.4656 0.8280 -2.4775 0.9318
-17.0103 -3.8139 -2.4700 0.9320
-15.3692 -6.4833 -2.3635 0.9348
-12.8397 -8.3722 -2.1718 0.9400
-8.7219 -8.2309 -1.6992 0.9527
-7.4764 -8.4382 -1.5974 0.9555
-4.6141 -16.1387 -2.3783 0.9344
-1.6740 -16.7098 -2.3794 0.9344
-0.1770 -16.7990 -2.3804 0.9344
1.3228 -16.7558 -2.3815 0.9344
2.8136 -16.5805 -2.3829 0.9343
4.2841 -16.2741 -2.3844 0.9343
5.7228 -15.8388 -2.3862 0.9342
7.1185 -15.2776 -2.3881 0.9342
10.2915 -12.1204 -2.2529 0.9378
16.3795 -4.0366 -2.3902 0.9341
17.4156 -2.6734 -2.4965 0.9313
17.3229 3.6007 -2.5069 0.9310
16.3064 4.9416 -2.4142 0.9335
15.7558 6.3582 -2.4073 0.9337
15.1376 7.7442 -2.4092 0.9336
16.4462 10.3612 -2.7542 0.9245
11.1330 8.4898 -1.9838 0.9450
12.1821 11.1416 -2.3391 0.9355
7.6416 8.3578 -1.6046 0.9553
6.3584 12.4334 -1.9787 0.9451
5.2900 13.1145 -2.0037 0.9445
1.9502 16.8138 -2.3983 0.9339
-7.6873 7.8071 -1.5524 0.9567
-9.2424 7.8454 -1.7177 0.9522
-13.2984 7.7062 -2.1778 0.9398
-16.2514 4.2755 -2.3810 0.9344
-17.2646 2.9271 -2.4811 0.9317
-17.4722 -0.1867 -2.4758 0.9318
-17.3682 -1.7425 -2.4732 0.9319
-17.1269 -3.2816 -2.4708 0.9320
-7.3816 -13.8941 -2.2292 0.9384
-3.6703 -16.3811 -2.3786 0.9344
6.6357 -15.4880 -2.3874 0.9342
9.6600 -12.1253 -2.1966 0.9393
13.9337 -8.3680 -2.3029 0.9364
15.1383 -7.3409 -2.3838 0.9343
17.3168 -3.2151 -2.4955 0.9313
17.6511 -0.0873 -2.5010 0.9312
17.4212 3.0565 -2.5061 0.9310
15.3682 7.2655 -2.4086 0.9336
14.6696 8.6135 -2.4103 0.9336
14.9484 10.6774 -2.6029 0.9285
12.7678 10.9646 -2.3846 0.9343
10.9373 11.2361 -2.2217 0.9386
7.7241 11.4544 -1.9575 0.9457
5.7415 13.0433 -2.0192 0.9441
2.4319 16.4550 -2.3568 0.9350
-0.6298 19.7372 -2.7980 0.9233
-8.6982 7.8640 -1.6615 0.9537
-15.6433 6.2087 -2.3847 0.9343
-16.1163 4.7832 -2.3820 0.9343
-17.1714 3.4665 -2.4821 0.9317
-17.4759 0.3596 -2.4767 0.9318
-17.2268 -2.7456 -2.4717 0.9320
-16.8974 -4.2673 -2.4693 0.9320
-15.1864 -6.8912 -2.3629 0.9348
-12.0794 -8.3461 -2.0803 0.9424
-9.9437 -8.2728 -1.8328 0.9491
-8.2502 -8.2147 -1.6496 0.9541
-7.4280 -12.9851 -2.1196 0.9414
-7.0012 -15.2538 -2.3781 0.9344
-4.1801 -16.2573 -2.3784 0.9344
-2.7140 -16.5690 -2.3789 0.9344
4.7197 -16.1569 -2.3849 0.9343
8.8507 -14.3666 -2.3909 0.9341
9.0591 -12.1302 -2.1451 0.9407
10.8597 -12.1160 -2.3054 0.9364
10.8811 -8.4692 -1.9537 0.9458
15.5503 -6.4549 -2.3856 0.9342
17.4868 -2.2065 -2.4973 0.9313
17.6331 -0.6387 -2.5001 0.9312
17.6384 0.9376 -2.5027 0.9311
17.5022 2.5097 -2.5052 0.9311
17.2251 4.0647 -2.5076 0.9310
15.5834 6.7798 -2.4079 0.9336
15.9407 10.6500 -2.7163 0.9255
10.4979 8.4599 -1.9103 0.9470
11.5924 11.1874 -2.2827 0.9370
7.2272 8.3429 -1.5640 0.9564
6.2062 12.9827 -2.0389 0.9435
4.9303 13.2344 -2.0011 0.9445
2.8959 16.0983 -2.3176 0.9361
-15.4478 6.6973 -2.3856 0.9342
-17.3311 2.4625 -2.4803 0.9317
-17.4627 0.9059 -2.4776 0.9318
-17.3100 -2.2067 -2.4725 0.9319
-15.9225 -5.0202 -2.3655 0.9348
-12.9727 -8.3768 -2.1880 0.9395
-10.6310 -8.2964 -1.9107 0.9470
-7.5019 -8.3913 -1.5948 0.9555
-7.3436 -14.7643 -2.3364 0.9356
-4.6859 -16.1179 -2.3783 0.9344
-3.2302 -16.4747 -2.3787 0.9344
-1.7484 -16.7019 -2.3794 0.9344
-0.2518 -16.7976 -2.3803 0.9344
2.7397 -16.5924 -2.3828 0.9343
4.2114 -16.2925 -2.3843 0.9343
5.6520 -15.8635 -2.3861 0.9342
7.0501 -15.3085 -2.3880 0.9342
8.3948 -14.6314 -2.3901 0.9341
9.2950 -13.2932 -2.2983 0.9366
10.1995 -12.1211 -2.2446 0.9380
9.9901 -9.9218 -1.9950 0.9447
12.2354 -8.4307 -2.1053 0.9417
16.3604 -4.1093 -2.3901 0.9341
17.4025 -2.7508 -2.4964 0.9313
17.5979 -1.1889 -2.4991 0.9312
17.5660 1.9609 -2.5044 0.9311
15.7832 6.2877 -2.4072 0.9337
13.7596 8.5832 -2.2978 0.9366
11.2545 8.5035 -1.9986 0.9446
7.3021 11.4808 -1.9279 0.9465
6.3827 12.3448 -1.9691 0.9454
5.3498 13.0944 -2.0042 0.9445
2.0199 16.7621 -2.3922 0.9341
-10.9321 7.7874 -1.9018 0.9472
-13.1704 7.7106 -2.1624 0.9402
-16.2332 4.3482 -2.3811 0.9344
-17.2524 3.0041 -2.4813 0.9317
-17.4737 -0.1089 -2.4759 0.9318
-16.0765 -4.5216 -2.3663 0.9348
-14.9928 -7.2941 -2.3624 0.9349
-13.9645 -8.4108 -2.3098 0.9363
-9.3971 -8.2541 -1.7722 0.9507
-7.8089 -8.2036 -1.6048 0.9553
-6.5899 -15.4358 -2.3781 0.9344
-3.7432 -16.3644 -2.3785 0.9344
-0.7765 -16.7792 -2.3800 0.9344
0.7236 -16.7890 -2.3810 0.9344
2.2193 -16.6664 -2.3823 0.9343
5.1521 -16.0281 -2.3855 0.9342
10.1662 -8.9870 -1.9226 0.9467
11.4589 -8.4357 -2.0161 0.9441
15.2521 -7.4802 -2.4070 0.9337
17.1807 -3.2691 -2.4780 0.9318
17.5454 -1.7376 -2.4982 0.9312
17.6496 -0.1659 -2.5009 0.9312
17.6124 1.4104 -2.5035 0.9311
17.1147 4.5261 -2.5083 0.9310
15.9674 5.7897 -2.4065 0.9337
15.3998 7.1967 -2.4085 0.9336
14.7073 8.5478 -2.4103 0.9336
9.9249 8.4466 -1.8466 0.9487
9.3083 11.3459 -2.0794 0.9424
5.8075 13.0355 -2.0220 0.9440
4.5749 13.3647 -2.0015 0.9445
3.7585 15.3256 -2.2358 0.9382
2.4991 16.4046 -2.3512 0.9352
-8.6234 7.8666 -1.6539 0.9539
-10.2691 7.8101 -1.8280 0.9492
-12.3203 7.7398 -2.0615 0.9429
-14.9968 7.6479 -2.3852 0.9343
-16.0957 4.8553 -2.3821 0.9343
-14.5376 -8.1479 -2.3613 0.9349
-12.2013 -8.3503 -2.0949 0.9420
-10.0382 -8.2760 -1.8434 0.9488
-7.5607 -8.9275 -1.6576 0.9538
-7.0691 -15.2225 -2.3781 0.9344
-4.2525 -16.2384 -2.3784 0.9344
-2.7878 -16.5566 -2.3789 0.9344
-1.3003 -16.7445 -2.3797 0.9344
0.1985 -16.8006 -2.3806 0.9344
4.6475 -16.1772 -2.3848 0.9343
8.7863 -14.4052 -2.3908 0.9341
8.9758 -12.1311 -2.1382 0.9409
9.9932 -9.4065 -1.9445 0.9461
15.0049 -7.9500 -2.4060 0.9337
15.5205 -6.5238 -2.3855 0.9342
16.0589 -5.1192 -2.3882 0.9342
16.4702 -3.6707 -2.3909 0.9341
17.4758 -2.2842 -2.4972 0.9313
17.6291 -0.7171 -2.4999 0.9312
17.2422 3.9878 -2.5075 0.9310
14.9636 8.0820 -2.4097 0.9336
13.4194 10.7159 -2.4332 0.9330
11.6886 11.1800 -2.2918 0.9367
8.3022 11.4106 -1.9994 0.9446
6.2322 12.8892 -2.0286 0.9438
2.9446 15.9606 -2.2996 0.9365
1.6852 18.0437 -2.5677 0.9294
0.0755 19.7895 -2.8040 0.9232
-9.6551 7.8312 -1.7614 0.9510
-13.9692 7.6832 -2.2589 0.9376
-15.4187 6.7664 -2.3858 0.9342
-17.0453 -3.6626 -2.4702 0.9320
-15.9454 -4.9494 -2.3656 0.9348
-15.4276 -6.3467 -2.3637 0.9348
-14.7888 -7.6916 -2.3619 0.9349
-13.1076 -8.3814 -2.2044 0.9391
-6.1739 -15.6070 -2.3781 0.9344
-4.7576 -16.0967 -2.3783 0.9344
-3.3035 -16.4599 -2.3787 0.9344
-1.8227 -16.6936 -2.3794 0.9344
-0.3266 -16.7960 -2.3803 0.9344
1.1734 -16.7661 -2.3814 0.9344
2.6656 -16.6039 -2.3827 0.9343
4.1386 -16.3105 -2.3843 0.9343
5.5810 -15.8879 -2.3860 0.9342
6.9815 -15.3391 -2.3879 0.9342
8.3292 -14.6680 -2.3900 0.9341
9.2485 -13.3530 -2.3015 0.9365
10.0172 -10.0377 -2.0093 0.9443
10.5261 -8.8141 -1.9453 0.9460
15.3029 -7.0028 -2.3845 0.9343
16.3411 -4.1818 -2.3900 0.9341
17.3527 3.4458 -2.5067 0.9310
16.2880 4.7779 -2.4051 0.9337
15.2049 7.6085 -2.4090 0.9336
16.5333 10.2115 -2.7534 0.9245
9.3807 8.4272 -1.7867 0.9503
8.8315 11.3733 -2.0403 0.9435
5.4128 13.0815 -2.0059 0.9444
4.3820 14.0160 -2.0807 0.9424
2.0892 16.7107 -2.3862 0.9342
-9.0836 7.8508 -1.7011 0.9527
-10.8343 7.7908 -1.8908 0.9475
-13.0442 7.7149 -2.1473 0.9406
-15.7736 5.8560 -2.3840 0.9343
-17.2398 3.0811 -2.4814 0.9317
-17.4750 -0.0310 -2.4760 0.9318
-17.1570 -3.1291 -2.4711 0.9320
-15.0257 -7.2275 -2.3625 0.9349
-11.4924 -8.3260 -2.0108 0.9443
-3.8160 -16.3474 -2.3785 0.9344
-2.3432 -16.6267 -2.3791 0.9344
0.6487 -16.7916 -2.3810 0.9344
5.0805 -16.0503 -2.3854 0.9342
10.1586 -10.8365 -2.1046 0.9418
10.1640 -9.0659 -1.9298 0.9465
13.6595 -8.3697 -2.2698 0.9373
15.2178 -7.5477 -2.4068 0.9337
16.8477 -3.2835 -2.4321 0.9330
17.6477 -0.2446 -2.5007 0.9312
17.1339 4.4497 -2.5082 0.9310
15.9924 5.7183 -2.4064 0.9337
15.4311 7.1277 -2.4084 0.9336
15.2539 10.6916 -2.6394 0.9275
11.1206 11.2227 -2.2386 0.9382
9.3892 11.3411 -2.0862 0.9423
7.8663 11.4439 -1.9676 0.9454
6.6371 11.7854 -1.9165 0.9468
4.6304 13.3330 -1.9998 0.9446
3.8173 15.2710 -2.2303 0.9384
-0.4511 19.6240 -2.7812 0.9238
-2.8716 4.5919 -0.7674 0.9784
-10.1787 7.8133 -1.8181 0.9495
-12.2054 7.7437 -2.0481 0.9433
-15.5892 6.3485 -2.3850 0.9343
-17.4320 -1.0443 -2.4744 0.9319
-17.2522 -2.5924 -2.4719 0.9319
-15.8030 -5.3736 -2.3650 0.9348
-14.5742 -8.0834 -2.3614 0.9349
-4.3247 -16.2192 -2.3784 0.9344
-2.8615 -16.5437 -2.3789 0.9344
-1.3749 -16.7382 -2.3796 0.9344
0.1237 -16.8009 -2.3806 0.9344
1.6225 -16.7313 -2.3818 0.9343
3.1102 -16.5296 -2.3832 0.9343
4.5752 -16.1972 -2.3848 0.9343
7.3920 -15.1503 -2.3885 0.9342
12.9024 -8.4714 -2.1870 0.9395
14.9685 -8.0163 -2.4059 0.9337
15.4904 -6.5924 -2.3853 0.9342
16.0351 -5.1905 -2.3881 0.9342
16.4528 -3.7438 -2.3908 0.9341
17.4645 -2.3620 -2.4971 0.9313
17.6248 -0.7956 -2.4998 0.9312
-6.6709 -12.8309 -2.3824 0.9431
-4.2851 -13.8124 -2.3824 0.9431
-1.7634 -14.3593 -2.3833 0.9430
0.8166 -14.4544 -2.3850 0.9430
2.1036 -14.3307 -2.3861 0.9430
4.6217 -13.7449 -2.3889 0.9429
5.8333 -13.2869 -2.3905 0.9429
7.0003 -12.7231 -2.3923 0.9428
10.2940 -8.8578 -2.2372 0.9464
13.0783 -6.1987 -2.3843 0.9430
13.5925 -5.0124 -2.3866 0.9430
15.1722 0.0601 -2.4995 0.9403
15.1198 1.4144 -2.5017 0.9403
14.6522 4.0851 -2.5058 0.9402
13.6501 5.1569 -2.4038 0.9426
12.5330 7.5100 -2.4070 0.9425
12.2188 10.6837 -2.6739 0.9363
7.3802 11.1576 -2.2038 0.9472
-8.8492 7.8584 -1.9496 0.9532
-12.3830 7.5503 -2.3893 0.9429
-12.9943 6.4094 -2.3869 0.9430
-13.8990 3.9907 -2.3822 0.9431
-14.7988 2.8506 -2.4828 0.9407
-14.8076 -2.4955 -2.4738 0.9409
-14.5144 -3.8033 -2.4718 0.9410
-13.5215 -4.8682 -2.3675 0.9434
-12.4251 -7.1839 -2.3644 0.9435
-11.7284 -8.2589 -2.3631 0.9435
-7.0688 -12.6166 -2.3824 0.9431
-5.9150 -13.1960 -2.3823 0.9431
-4.7145 -13.6713 -2.3824 0.9431
-3.4767 -14.0389 -2.3826 0.9431
-2.2111 -14.2959 -2.3831 0.9430
0.3644 -14.4707 -2.3846 0.9430
6.5975 -12.9322 -2.3917 0.9428
8.8045 -11.5728 -2.3955 0.9428
9.8102 -10.7508 -2.3976 0.9427
10.0787 -9.2361 -2.2521 0.9461
13.4246 -5.4328 -2.3858 0.9430
14.8189 -3.0954 -2.4939 0.9405
