ply
format ascii 1.0
element vertex 1595
property float32 x
property float32 y
property float32 z
property float32 I
end_header
-2.1575 4.6989 -2.3934 0.9775
-2.5291 4.4187 -2.3567 0.9778
-2.9578 4.2387 -2.3925 0.9775
-3.3237 3.9568 -2.3920 0.9775
-4.1441 3.4435 -2.4941 0.9765
-5.0812 1.7728 -2.4911 0.9766
-5.2176 1.3116 -2.4903 0.9766
-5.3121 0.8403 -2.4895 0.9766
-5.3641 0.3625 -2.4886 0.9766
-5.3733 -0.1179 -2.4878 0.9766
-5.3396 -0.5970 -2.4870 0.9766
-5.1450 -1.5362 -2.4854 0.9766
-4.9858 -1.9889 -2.4847 0.9766
-4.7869 -2.4254 -2.4840 0.9766
-4.5500 -2.8424 -2.4833 0.9766
-4.2770 -3.2364 -2.4827 0.9766
-3.1831 -4.1458 -2.4194 0.9772
-2.3534 -4.5652 -2.3774 0.9776
-1.9361 -4.7566 -2.3772 0.9776
-0.6063 -5.0988 -2.3768 0.9776
0.7667 -5.0776 -2.3770 0.9776
1.2172 -4.9893 -2.3772 0.9776
1.6580 -4.8613 -2.3775 0.9776
2.0857 -4.6945 -2.3778 0.9776
2.8885 -4.2503 -2.3787 0.9776
4.0838 -3.4795 -2.4834 0.9766
4.6402 -2.6992 -2.4849 0.9766
4.8642 -2.2748 -2.4856 0.9766
5.2982 -0.9053 -2.4880 0.9766
5.3596 -0.4287 -2.4888 0.9766
5.3539 0.5318 -2.4905 0.9766
5.1773 1.4765 -2.4920 0.9765
5.0263 1.9334 -2.4928 0.9765
4.8350 2.3752 -2.4935 0.9765
4.6049 2.7982 -2.4942 0.9765
4.3378 3.1990 -2.4949 0.9765
4.0358 3.5744 -2.4954 0.9765
3.7013 3.9213 -2.4960 0.9765
3.3371 4.2369 -2.4965 0.9765
2.0089 4.7660 -2.3941 0.9775
1.1294 5.0481 -2.3944 0.9775
-2.3928 4.4310 -2.3310 0.9780
-3.2252 4.0379 -2.3921 0.9775
-4.0581 3.5450 -2.4942 0.9765
-4.6213 2.7652 -2.4928 0.9765
-5.0363 1.8979 -2.4913 0.9766
-5.3540 0.4949 -2.4889 0.9766
-5.3531 -0.4650 -2.4872 0.9766
-5.2886 -0.9408 -2.4864 0.9766
-5.1818 -1.4088 -2.4856 0.9766
-5.0338 -1.8653 -2.4849 0.9766
-4.8457 -2.3066 -2.4842 0.9766
-4.0580 -3.5056 -2.4822 0.9766
-3.3590 -4.1581 -2.4743 0.9767
-2.8584 -4.2684 -2.3779 0.9776
-1.6245 -4.8715 -2.3770 0.9776
-1.1829 -4.9968 -2.3769 0.9776
-0.7320 -5.0823 -2.3768 0.9776
1.5374 -4.9006 -2.3774 0.9776
1.9691 -4.7444 -2.3777 0.9776
2.3852 -4.5504 -2.3781 0.9776
3.1578 -4.0552 -2.3791 0.9776
3.5081 -3.7579 -2.3796 0.9776
4.3011 -3.2088 -2.4839 0.9766
4.8061 -2.3940 -2.4854 0.9766
5.0022 -1.9560 -2.4862 0.9766
5.1586 -1.5020 -2.4870 0.9766
5.2738 -1.0357 -2.4878 0.9766
5.3469 -0.5609 -2.4886 0.9766
5.2117 1.3480 -2.4918 0.9766
4.6723 2.6834 -2.4940 0.9765
4.4152 3.0907 -2.4947 0.9765
4.1226 3.4734 -2.4953 0.9765
3.4405 4.1530 -2.4963 0.9765
1.6967 4.8863 -2.3943 0.9775
1.2537 5.0186 -2.3944 0.9775
0.8007 5.1107 -2.3945 0.9775
-1.9230 4.8002 -2.3936 0.9775
-2.3436 4.6085 -2.3932 0.9775
-2.7452 4.3801 -2.3928 0.9775
-3.5509 3.8993 -2.4412 0.9770
-4.2780 3.2746 -2.4937 0.9765
-4.9884 2.0219 -2.4915 0.9766
-5.1473 1.5679 -2.4907 0.9766
-5.2651 1.1017 -2.4899 0.9766
-5.3406 0.6270 -2.4891 0.9766
-5.3735 0.1476 -2.4883 0.9766
-5.3635 -0.3327 -2.4875 0.9766
-5.2155 -1.2805 -2.4859 0.9766
-5.0787 -1.7405 -2.4851 0.9766
-4.1436 -3.4046 -2.4824 0.9766
-3.8222 -3.7601 -2.4818 0.9766
-3.4705 -4.0855 -2.4813 0.9766
-2.9631 -4.1966 -2.3780 0.9776
-1.7443 -4.8300 -2.3771 0.9776
-1.3060 -4.9661 -2.3769 0.9776
-0.4018 -5.1189 -2.3768 0.9776
0.9693 -5.0431 -2.3771 0.9776
1.4158 -4.9369 -2.3773 0.9776
2.2720 -4.6077 -2.3780 0.9776
3.4140 -3.8432 -2.3795 0.9776
4.7451 -2.5118 -2.4852 0.9766
5.3733 -0.2140 -2.4892 0.9766
5.3292 0.7456 -2.4908 0.9766
5.1148 1.6826 -2.4924 0.9765
3.5418 4.0666 -2.4962 0.9765
2.6486 4.4414 -2.3936 0.9775
2.2417 4.6607 -2.3939 0.9775
1.8168 4.8428 -2.3942 0.9775
1.3772 4.9860 -2.3944 0.9775
0.9266 5.0893 -2.3945 0.9775
0.4685 5.1518 -2.3945 0.9775
0.0066 5.1730 -2.3945 0.9775
-0.4553 5.1527 -2.3944 0.9775
-0.9135 5.0911 -2.3942 0.9775
-1.8040 4.8464 -2.3937 0.9775
-4.1962 3.3795 -2.4939 0.9765
-4.7276 2.5778 -2.4925 0.9765
-5.3687 0.2803 -2.4885 0.9766
-5.3705 -0.2001 -2.4877 0.9766
-5.3295 -0.6787 -2.4869 0.9766
-5.2459 -1.1514 -2.4861 0.9766
-4.9545 -2.0648 -2.4846 0.9766
-4.7490 -2.4982 -2.4839 0.9766
-4.5057 -2.9115 -2.4832 0.9766
-3.9141 -3.6647 -2.4820 0.9766
-3.5705 -3.9988 -2.4815 0.9766
-3.0827 -4.1448 -2.3910 0.9775
-2.2832 -4.6006 -2.3774 0.9776
-1.8630 -4.7856 -2.3771 0.9776
-0.9821 -5.0400 -2.3768 0.9776
0.8444 -5.0654 -2.3770 0.9776
1.2934 -4.9702 -2.3773 0.9776
2.9533 -4.2057 -2.3788 0.9776
3.3178 -3.9261 -2.3793 0.9776
4.1368 -3.4168 -2.4836 0.9766
5.3772 0.1339 -2.4898 0.9766
5.3455 0.6137 -2.4906 0.9766
5.2710 1.0889 -2.4914 0.9766
5.1544 1.5557 -2.4922 0.9765
4.9964 2.0103 -2.4929 0.9765
4.7983 2.4490 -2.4936 0.9765
3.6410 3.9777 -2.4961 0.9765
3.2719 4.2877 -2.4966 0.9765
1.9358 4.7963 -2.3941 0.9775
1.5000 4.9504 -2.3943 0.9775
1.0520 5.0648 -2.3945 0.9775
-0.3279 5.1625 -2.3944 0.9775
-2.4769 4.4234 -2.3467 0.9779
-3.2865 3.9879 -2.3920 0.9775
-3.7853 3.8366 -2.4948 0.9765
-4.6629 2.6940 -2.4927 0.9765
-4.8833 2.2662 -2.4919 0.9766
-5.0645 1.8205 -2.4912 0.9766
-5.3041 0.8901 -2.4895 0.9766
-5.3744 -0.0674 -2.4879 0.9766
-5.1593 -1.4879 -2.4855 0.9766
-5.0044 -1.9420 -2.4848 0.9766
-4.8096 -2.3804 -2.4840 0.9766
-4.5766 -2.7996 -2.4834 0.9766
-4.3072 -3.1962 -2.4827 0.9766
-3.6684 -3.9096 -2.4816 0.9766
-3.2479 -4.1490 -2.4390 0.9770
-2.8011 -4.3246 -2.3850 0.9775
-2.3962 -4.5430 -2.3775 0.9776
-1.5496 -4.8957 -2.3770 0.9776
-0.6541 -5.0929 -2.3768 0.9776
-0.1968 -5.1309 -2.3768 0.9776
0.7190 -5.0846 -2.3770 0.9776
1.1702 -5.0005 -2.3772 0.9776
1.6123 -4.8766 -2.3775 0.9776
2.0415 -4.7138 -2.3778 0.9776
2.4546 -4.5135 -2.3782 0.9776
3.2196 -4.0066 -2.3792 0.9776
3.5653 -3.7039 -2.3797 0.9776
5.3784 0.0011 -2.4896 0.9766
5.3585 0.4814 -2.4904 0.9766
5.2959 0.9583 -2.4912 0.9766
5.0441 1.8861 -2.4927 0.9765
4.3675 3.1581 -2.4948 0.9765
3.7379 3.8863 -2.4959 0.9765
2.9490 4.4320 -2.4641 0.9768
2.4690 4.5440 -2.3938 0.9775
1.6218 4.9118 -2.3943 0.9775
1.1768 5.0372 -2.3944 0.9775
0.7223 5.1224 -2.3945 0.9775
-0.6610 5.1302 -2.3943 0.9775
-1.1163 5.0503 -2.3941 0.9775
-1.5626 4.9299 -2.3939 0.9775
-1.9963 4.7700 -2.3935 0.9775
-2.8118 4.3374 -2.3927 0.9775
-3.6536 3.8907 -2.4705 0.9767
-4.0247 3.5831 -2.4943 0.9765
-4.3274 3.2085 -2.4936 0.9765
-4.8263 2.3863 -2.4922 0.9765
-5.1705 1.4889 -2.4906 0.9766
-5.2810 1.0209 -2.4898 0.9766
-5.3575 -0.4147 -2.4873 0.9766
-5.1949 -1.3601 -2.4857 0.9766
-4.8673 -2.2611 -2.4842 0.9766
-4.6447 -2.6859 -2.4836 0.9766
-4.3852 -3.0891 -2.4829 0.9766
-3.4075 -4.1380 -2.4813 0.9766
-2.8984 -4.2414 -2.3779 0.9776
-2.5078 -4.4826 -2.3775 0.9776
-2.0972 -4.6880 -2.3773 0.9776
-1.2298 -4.9855 -2.3769 0.9776
-0.7797 -5.0752 -2.3768 0.9776
1.0464 -5.0277 -2.3771 0.9776
1.4912 -4.9147 -2.3774 0.9776
3.9037 -3.5627 -2.4464 0.9770
4.2707 -3.2490 -2.4839 0.9766
4.5451 -2.8555 -2.4846 0.9766
4.9835 -2.0028 -2.4861 0.9766
5.1441 -1.5503 -2.4869 0.9766
5.3413 -0.6111 -2.4885 0.9766
5.3683 0.3489 -2.4901 0.9766
5.3174 0.8271 -2.4910 0.9766
5.2240 1.2990 -2.4917 0.9766
4.6971 2.6394 -2.4939 0.9765
4.4438 3.0490 -2.4946 0.9765
4.1549 3.4345 -2.4952 0.9765
3.4793 4.1204 -2.4963 0.9765
1.7425 4.8701 -2.3942 0.9775
1.3008 5.0066 -2.3944 0.9775
0.3896 5.1584 -2.3945 0.9775
-0.0726 5.1725 -2.3945 0.9775
-1.4404 4.9672 -2.3939 0.9775
-1.8779 4.8181 -2.3936 0.9775
-2.3002 4.6304 -2.3932 0.9775
-2.7040 4.4057 -2.3928 0.9775
-3.4920 3.9077 -2.4258 0.9772
-5.2547 1.1512 -2.4900 0.9766
-5.3665 -0.2823 -2.4875 0.9766
-5.3182 -0.7601 -2.4867 0.9766
-4.9221 -2.1404 -2.4844 0.9766
-4.7100 -2.5706 -2.4837 0.9766
-4.4604 -2.9800 -2.4831 0.9766
-4.1755 -3.3656 -2.4825 0.9766
-3.5088 -4.0528 -2.4814 0.9766
-2.6178 -4.4194 -2.3776 0.9776
-1.7896 -4.8135 -2.3771 0.9776
-1.3526 -4.9537 -2.3769 0.9776
-0.9048 -5.0544 -2.3768 0.9776
0.0086 -5.1347 -2.3768 0.9776
0.4671 -5.1137 -2.3769 0.9776
0.9219 -5.0519 -2.3771 0.9776
1.8061 -4.8085 -2.3776 0.9776
2.2286 -4.6287 -2.3780 0.9776
3.7380 -3.5846 -2.3973 0.9774
4.1889 -3.3532 -2.4837 0.9766
4.4728 -2.9666 -2.4844 0.9766
4.9321 -2.1251 -2.4859 0.9766
5.1037 -1.6767 -2.4867 0.9766
5.3748 0.2162 -2.4899 0.9766
5.3358 0.6955 -2.4907 0.9766
4.9653 2.0866 -2.4930 0.9765
4.7605 2.5223 -2.4938 0.9765
4.5175 2.9381 -2.4944 0.9765
4.2382 3.3306 -2.4951 0.9765
3.9248 3.6965 -2.4956 0.9765
3.5798 4.0330 -2.4962 0.9765
2.6937 4.4220 -2.3967 0.9774
1.8622 4.8254 -2.3942 0.9775
1.4240 4.9728 -2.3944 0.9775
0.5169 5.1472 -2.3945 0.9775
-0.8656 5.0995 -2.3943 0.9775
-1.3174 5.0014 -2.3940 0.9775
-1.7584 4.8632 -2.3937 0.9775
-2.1853 4.6861 -2.3934 0.9775
-2.9828 4.2210 -2.3925 0.9775
-3.8435 3.7780 -2.4947 0.9765
-4.1644 3.4188 -2.4940 0.9765
-4.4517 3.0325 -2.4933 0.9765
-4.7033 2.6221 -2.4926 0.9765
-4.9171 2.1910 -2.4918 0.9766
-5.0915 1.7427 -2.4910 0.9766
-5.3169 0.8088 -2.4894 0.9766
-5.3358 -0.6286 -2.4870 0.9766
-5.1357 -1.5666 -2.4854 0.9766
-4.7724 -2.4536 -2.4839 0.9766
-4.2576 -3.2617 -2.4826 0.9766
-3.6080 -3.9652 -2.4815 0.9766
-3.1440 -4.1454 -2.4083 0.9773
-2.3263 -4.5790 -2.3774 0.9776
-1.0294 -5.0306 -2.3768 0.9776
-0.5761 -5.1023 -2.3768 0.9776
0.7968 -5.0730 -2.3770 0.9776
3.6218 -3.6491 -2.3798 0.9776
4.6562 -2.6718 -2.4849 0.9766
4.8777 -2.2460 -2.4857 0.9766
5.2027 -1.3435 -2.4872 0.9766
5.3780 0.0834 -2.4897 0.9766
5.3508 0.5634 -2.4905 0.9766
4.3188 3.2246 -2.4949 0.9765
1.9807 4.7779 -2.3941 0.9775
1.5463 4.9361 -2.3943 0.9775
0.1829 5.1698 -2.3945 0.9775
-0.2794 5.1654 -2.3944 0.9775
-1.1935 5.0325 -2.3941 0.9775
-1.6379 4.9053 -2.3938 0.9775
-2.0690 4.7388 -2.3935 0.9775
-4.3758 3.1418 -2.4935 0.9765
-4.6375 2.7377 -2.4928 0.9765
-5.3502 -0.4967 -2.4872 0.9766
-4.8319 -2.3352 -2.4841 0.9766
-4.6028 -2.7566 -2.4834 0.9766
-4.3371 -3.1557 -2.4828 0.9766
-3.7050 -3.8751 -2.4817 0.9766
-2.4388 -4.5203 -2.3775 0.9776
-2.0252 -4.7195 -2.3772 0.9776
-0.7019 -5.0865 -2.3768 0.9776
0.2140 -5.1304 -2.3768 0.9776
1.1232 -5.0112 -2.3772 0.9776
1.5664 -4.8914 -2.3774 0.9776
2.8081 -4.3036 -2.3786 0.9776
3.5303 -3.7372 -2.3797 0.9776
4.0155 -3.5536 -2.4820 0.9766
4.5884 -2.7857 -2.4847 0.9766
5.0138 -1.9264 -2.4862 0.9766
5.2799 -1.0045 -2.4878 0.9766
5.3626 0.4311 -2.4903 0.9766
5.0614 1.8386 -2.4926 0.9765
4.8785 2.2838 -2.4934 0.9765
4.3968 3.1168 -2.4947 0.9765
3.4159 4.1734 -2.4964 0.9765
3.0130 4.4372 -2.4827 0.9766
2.5115 4.5206 -2.3937 0.9775
2.0981 4.7273 -2.3940 0.9775
1.2240 5.0260 -2.3944 0.9775
0.3106 5.1637 -2.3945 0.9775
-0.1517 5.1707 -2.3945 0.9775
-0.6128 5.1363 -2.3943 0.9775
-1.0688 5.0606 -2.3942 0.9775
-2.3449 4.5444 -2.3671 0.9777
-3.5903 3.8959 -2.4523 0.9769
-5.3441 0.5954 -2.4890 0.9766
-5.2077 -1.3113 -2.4858 0.9766
-4.8885 -2.2153 -2.4843 0.9766
-4.4141 -3.0478 -2.4830 0.9766
-4.1233 -3.4290 -2.4824 0.9766
-3.7999 -3.7826 -2.4818 0.9766
-2.9381 -4.2141 -2.3779 0.9776
-2.5498 -4.4589 -2.3776 0.9776
-2.1412 -4.6681 -2.3773 0.9776
-1.2765 -4.9737 -2.3769 0.9776
-0.8273 -5.0677 -2.3768 0.9776
-0.3715 -5.1212 -2.3768 0.9776
0.0872 -5.1340 -2.3768 0.9776
0.5453 -5.1060 -2.3769 0.9776
0.9991 -5.0373 -2.3771 0.9776
1.4450 -4.9285 -2.3774 0.9776
2.2993 -4.5942 -2.3780 0.9776
3.4367 -3.8229 -2.3795 0.9776
3.8377 -3.5691 -2.4259 0.9772
4.2399 -3.2888 -2.4838 0.9766
4.9643 -2.0494 -2.4860 0.9766
5.1291 -1.5985 -2.4868 0.9766
5.3351 -0.6612 -2.4884 0.9766
5.3746 -0.1822 -2.4892 0.9766
5.3712 0.2985 -2.4901 0.9766
5.3248 0.7771 -2.4909 0.9766
4.7216 2.5951 -2.4939 0.9765
4.4722 3.0071 -2.4945 0.9765
3.8679 3.7563 -2.4957 0.9765
3.5177 4.0875 -2.4962 0.9765
3.1393 4.3861 -2.4967 0.9765
2.6223 4.4570 -2.3937 0.9775
2.2141 4.6739 -2.3940 0.9775
1.7881 4.8535 -2.3942 0.9775
1.3477 4.9941 -2.3944 0.9775
0.4380 5.1545 -2.3945 0.9775
-0.4857 5.1499 -2.3944 0.9775
-0.9435 5.0856 -2.3942 0.9775
-3.0469 4.1747 -2.3924 0.9775
-3.4338 3.9160 -2.4108 0.9773
-3.9007 3.7185 -2.4946 0.9765
-4.4974 2.9638 -2.4932 0.9765
-4.9499 2.1154 -2.4917 0.9766
-5.1173 1.6645 -2.4909 0.9766
-5.2438 1.2005 -2.4901 0.9766
-5.3702 0.2485 -2.4884 0.9766
-4.4883 -2.9381 -2.4831 0.9766
-3.8923 -3.6878 -2.4820 0.9766
-3.0444 -4.1444 -2.3804 0.9776
-1.8347 -4.7965 -2.3771 0.9776
-1.3990 -4.9408 -2.3769 0.9776
-0.9522 -5.0457 -2.3768 0.9776
-0.4979 -5.1105 -2.3768 0.9776
-0.0396 -5.1346 -2.3768 0.9776
0.4190 -5.1178 -2.3769 0.9776
0.8744 -5.0603 -2.3770 0.9776
1.3228 -4.9625 -2.3773 0.9776
1.7609 -4.8252 -2.3776 0.9776
2.1850 -4.6494 -2.3779 0.9776
2.5919 -4.4365 -2.3784 0.9776
3.6774 -3.5934 -2.3799 0.9776
4.1571 -3.3923 -2.4836 0.9766
4.4446 -3.0084 -2.4843 0.9766
5.0876 -1.7245 -2.4866 0.9766
5.3680 -0.3149 -2.4890 0.9766
5.3764 0.1657 -2.4898 0.9766
5.3419 0.6453 -2.4906 0.9766
5.1452 1.5862 -2.4922 0.9765
4.9845 2.0399 -2.4930 0.9765
4.7838 2.4775 -2.4937 0.9765
4.5447 2.8955 -2.4944 0.9765
4.2692 3.2905 -2.4950 0.9765
2.7517 4.4234 -2.4114 0.9773
2.3288 4.6177 -2.3939 0.9775
1.4706 4.9592 -2.3943 0.9775
0.5652 5.1421 -2.3945 0.9775
-0.8177 5.1075 -2.3943 0.9775
-1.2703 5.0136 -2.3940 0.9775
-2.9431 4.2490 -2.3925 0.9775
-3.3100 3.9683 -2.3920 0.9775
-3.8079 3.8140 -2.4947 0.9765
-4.1322 3.4579 -2.4941 0.9765
-4.4232 3.0742 -2.4934 0.9765
-4.6786 2.6662 -2.4927 0.9765
-5.0751 1.7905 -2.4911 0.9766
-5.2130 1.3298 -2.4903 0.9766
-5.3737 -0.0992 -2.4878 0.9766
-5.2670 -1.0528 -2.4862 0.9766
-5.1504 -1.5184 -2.4855 0.9766
-4.5599 -2.8266 -2.4833 0.9766
-4.2882 -3.2216 -2.4827 0.9766
-2.7670 -4.3279 -2.3778 0.9776
-1.4467 4.6599 -2.3934 0.9785
-2.2518 4.3271 -2.3927 0.9785
-2.6287 4.1080 -2.3923 0.9785
-4.0652 3.0516 -2.4934 0.9776
-4.3203 2.6757 -2.4927 0.9776
-4.5407 2.2786 -2.4920 0.9776
-4.7246 1.8635 -2.4913 0.9776
-5.0717 0.0917 -2.4882 0.9777
-5.0581 -0.3614 -2.4874 0.9777
-4.9102 -1.2546 -2.4859 0.9777
-4.6062 -2.1067 -2.4845 0.9777
-3.5739 -3.5824 -2.4822 0.9777
-2.3919 -4.2167 -2.3780 0.9786
-2.0056 -4.4130 -2.3777 0.9786
-1.6035 -4.5740 -2.3775 0.9786
-0.3339 -4.8349 -2.3773 0.9786
0.0991 -4.8454 -2.3773 0.9786
0.9595 -4.7511 -2.3776 0.9786
1.7897 -4.5057 -2.3781 0.9786
2.5634 -4.1169 -2.3789 0.9786
2.9213 -3.8723 -2.3794 0.9786
3.2791 -3.6223 -2.3967 0.9785
4.0122 -3.0900 -2.4841 0.9777
4.2733 -2.7201 -2.4848 0.9777
4.6916 -1.9178 -2.4862 0.9777
4.8456 -1.4917 -2.4869 0.9777
4.9609 -1.0534 -2.4877 0.9777
5.0367 -0.6064 -2.4885 0.9777
5.0674 0.2993 -2.4900 0.9776
5.0220 0.7507 -2.4908 0.9776
4.8112 1.6330 -2.4923 0.9776
4.6475 2.0566 -2.4930 0.9776
4.4465 2.4640 -2.4936 0.9776
4.2098 2.8519 -2.4942 0.9776
2.9476 4.1485 -2.4963 0.9776
2.0737 4.4170 -2.3935 0.9785
1.2552 4.7161 -2.3939 0.9785
0.8291 4.8096 -2.3940 0.9785
-0.0396 4.8803 -2.3940 0.9785
-0.9069 4.7950 -2.3937 0.9785
-1.3312 4.6944 -2.3935 0.9785
-1.7448 4.5562 -2.3932 0.9785
-2.1444 4.3816 -2.3928 0.9785
-2.5291 4.1760 -2.3948 0.9785
-2.9106 3.9590 -2.4103 0.9783
-3.3664 3.8124 -2.4948 0.9776
-3.6925 3.4957 -2.4942 0.9776
-3.9889 3.1513 -2.4936 0.9776
-4.2532 2.7818 -2.4929 0.9776
-4.6775 1.9798 -2.4915 0.9776
-4.9521 1.1156 -2.4900 0.9776
-5.0659 -0.2364 -2.4877 0.9777
-4.4594 -2.3997 -2.4841 0.9777
-4.2263 -2.7876 -2.4834 0.9777
-3.6615 -3.4933 -2.4823 0.9777
-3.3343 -3.8055 -2.4818 0.9777
-2.4954 -4.1565 -2.3781 0.9786
-2.1140 -4.3622 -2.3778 0.9786
-0.8822 -4.7655 -2.3773 0.9786
-0.4532 -4.8251 -2.3773 0.9786
0.8418 -4.7732 -2.3775 0.9786
1.6778 -4.5484 -2.3780 0.9786
2.0775 -4.3810 -2.3784 0.9786
3.1661 -3.6759 -2.3797 0.9786
3.6331 -3.5256 -2.4833 0.9777
4.4411 -2.4386 -2.4853 0.9777
4.6424 -2.0329 -2.4860 0.9777
4.8069 -1.6108 -2.4867 0.9777
5.0665 -0.2796 -2.4890 0.9776
5.0729 0.1740 -2.4898 0.9776
5.0386 0.6264 -2.4906 0.9776
4.9640 1.0741 -2.4913 0.9776
4.8497 1.5135 -2.4921 0.9776
4.2787 2.7469 -2.4941 0.9776
4.0173 3.1187 -2.4947 0.9776
3.7236 3.4657 -2.4952 0.9776
2.1896 4.3795 -2.4018 0.9784
1.7838 4.5421 -2.3937 0.9785
1.3712 4.6836 -2.3939 0.9785
0.9476 4.7876 -2.3940 0.9785
-0.3551 4.8674 -2.3939 0.9785
-0.7882 4.8160 -2.3938 0.9785
-1.6319 4.5981 -2.3933 0.9785
-3.2715 3.8946 -2.4949 0.9776
-4.1835 2.8862 -2.4931 0.9776
-4.6275 2.0949 -2.4917 0.9776
-4.9234 1.2377 -2.4902 0.9776
-4.9670 -1.0107 -2.4864 0.9777
-4.8555 -1.4498 -2.4856 0.9777
-4.7053 -1.8770 -2.4849 0.9777
-4.5177 -2.2890 -2.4842 0.9777
-4.2942 -2.6825 -2.4836 0.9777
-3.7468 -3.4020 -2.4825 0.9777
-3.4274 -3.7222 -2.4820 0.9777
-2.6058 -4.1071 -2.3859 0.9786
-2.2212 -4.3088 -2.3779 0.9786
-1.4192 -4.6343 -2.3774 0.9786
-0.5722 -4.8125 -2.3773 0.9786
-0.1402 -4.8444 -2.3773 0.9786
0.2929 -4.8377 -2.3773 0.9786
0.7237 -4.7925 -2.3775 0.9786
1.5648 -4.5883 -2.3780 0.9786
2.3567 -4.2380 -2.3787 0.9786
2.7262 -4.0114 -2.3791 0.9786
3.8542 -3.2839 -2.4837 0.9777
4.5904 -2.1468 -2.4858 0.9777
4.7652 -1.7288 -2.4865 0.9777
4.9021 -1.2969 -2.4873 0.9777
4.9998 -0.8543 -2.4880 0.9777
5.0752 0.0487 -2.4896 0.9776
4.8852 1.3932 -2.4919 0.9776
4.7427 1.8243 -2.4926 0.9776
4.5621 2.2411 -2.4933 0.9776
4.3449 2.6402 -2.4939 0.9776
4.0928 3.0183 -2.4945 0.9776
3.4922 3.6997 -2.4956 0.9776
2.7794 4.2634 -2.4964 0.9776
2.3285 4.3832 -2.4346 0.9781
1.4865 4.6483 -2.3938 0.9785
0.6361 4.8389 -2.3940 0.9785
-0.2347 4.8748 -2.3940 0.9785
-0.6690 4.8341 -2.3938 0.9785
-1.0979 4.7546 -2.3936 0.9785
-2.3177 4.2920 -2.3927 0.9785
-3.1411 3.9327 -2.4689 0.9778
-3.5159 3.6743 -2.4945 0.9776
-3.8290 3.3449 -2.4939 0.9776
-4.3605 2.6091 -2.4926 0.9776
-4.7523 1.7909 -2.4912 0.9776
-5.0523 0.4670 -2.4889 0.9776
-5.0723 0.0140 -2.4881 0.9777
-5.0517 -0.4388 -2.4873 0.9777
-4.9908 -0.8879 -2.4866 0.9777
-4.8902 -1.3295 -2.4858 0.9777
-4.7506 -1.7604 -2.4851 0.9777
-4.5732 -2.1769 -2.4844 0.9777
-4.1110 -2.9541 -2.4832 0.9777
-2.7516 -4.1089 -2.4257 0.9782
-2.3271 -4.2528 -2.3780 0.9786
-0.6909 -4.7969 -2.3773 0.9786
-0.2598 -4.8394 -2.3773 0.9786
0.1733 -4.8434 -2.3773 0.9786
1.0321 -4.7360 -2.3776 0.9786
1.4510 -4.6254 -2.3779 0.9786
1.8585 -4.4779 -2.3782 0.9786
2.2513 -4.2947 -2.3785 0.9786
2.6262 -4.0773 -2.3790 0.9786
3.3687 -3.6086 -2.4215 0.9782
4.0592 -3.0283 -2.4842 0.9777
4.5357 -2.2593 -2.4856 0.9777
4.9767 -0.9774 -2.4878 0.9777
4.9177 1.2720 -2.4917 0.9776
4.4085 2.5319 -2.4937 0.9776
4.1658 2.9161 -2.4943 0.9776
3.8897 3.2772 -2.4949 0.9776
3.2461 3.9184 -2.4959 0.9776
2.0059 4.4483 -2.3936 0.9785
0.3219 4.8699 -2.3940 0.9785
-0.1143 4.8792 -2.3940 0.9785
-1.4029 4.6734 -2.3934 0.9785
-1.8144 4.5288 -2.3931 0.9785
-2.2111 4.3481 -2.3928 0.9785
-2.5901 4.1326 -2.3924 0.9785
-3.4243 3.7603 -2.4947 0.9776
-3.7454 3.4387 -2.4941 0.9776
-4.7070 1.9079 -2.4914 0.9776
-5.0614 -0.3139 -2.4875 0.9777
-4.9219 -1.2084 -2.4860 0.9777
-4.7930 -1.6426 -2.4853 0.9777
-4.4220 -2.4676 -2.4840 0.9777
-3.9107 -3.2132 -2.4828 0.9777
-3.2755 -3.8560 -2.4818 0.9777
-2.9098 -4.1213 -2.4747 0.9778
-2.4314 -4.1942 -2.3781 0.9786
-2.0470 -4.3940 -2.3778 0.9786
-0.8092 -4.7784 -2.3773 0.9786
-0.3793 -4.8315 -2.3773 0.9786
0.4862 -4.8222 -2.3774 0.9786
1.7472 -4.5223 -2.3781 0.9786
2.1444 -4.3488 -2.3784 0.9786
3.9829 -3.1274 -2.4840 0.9777
4.4781 -2.3705 -2.4854 0.9777
4.6733 -1.9617 -2.4861 0.9777
4.8312 -1.5371 -2.4869 0.9777
5.0306 -0.6537 -2.4884 0.9777
5.0698 0.2517 -2.4899 0.9776
5.0287 0.7035 -2.4907 0.9776
4.8263 1.5877 -2.4922 0.9776
4.4693 2.4221 -2.4935 0.9776
3.9692 3.1799 -2.4948 0.9776
3.6702 3.5224 -2.4953 0.9776
3.3417 3.8368 -2.4958 0.9776
2.6068 4.3714 -2.4966 0.9776
2.1150 4.3973 -2.3935 0.9785
1.2994 4.7041 -2.3939 0.9785
0.8742 4.8016 -2.3940 0.9785
0.4420 4.8605 -2.3940 0.9785
-0.8618 4.8033 -2.3937 0.9785
-1.7020 4.5725 -2.3932 0.9785
-2.4874 4.1955 -2.3925 0.9785
-2.8589 3.9661 -2.3982 0.9785
-3.6596 3.5304 -2.4943 0.9776
-3.9592 3.1887 -2.4936 0.9776
-4.6588 2.0237 -2.4916 0.9776
-4.8195 1.5992 -2.4908 0.9776
-5.0294 -0.6404 -2.4870 0.9777
-4.9507 -1.0866 -2.4862 0.9777
-4.6758 -1.9487 -2.4848 0.9777
-4.2524 -2.7478 -2.4835 0.9777
-3.9891 -3.1158 -2.4829 0.9777
-3.3699 -3.7741 -2.4819 0.9777
-1.7584 -4.5169 -2.3776 0.9786
-1.3480 -4.6555 -2.3774 0.9786
-0.9269 -4.7570 -2.3773 0.9786
-0.4985 -4.8207 -2.3773 0.9786
-0.0661 -4.8459 -2.3773 0.9786
0.7970 -4.7809 -2.3775 0.9786
1.2208 -4.6911 -2.3777 0.9786
2.0362 -4.4003 -2.3783 0.9786
2.4213 -4.2016 -2.3787 0.9786
3.5998 -3.5595 -2.4832 0.9777
3.9042 -3.2246 -2.4839 0.9777
4.4179 -2.4801 -2.4852 0.9777
4.6230 -2.0764 -2.4859 0.9777
4.7914 -1.6558 -2.4867 0.9777
5.0741 0.1264 -2.4897 0.9776
4.9737 1.0274 -2.4912 0.9776
4.8636 1.4679 -2.4920 0.9776
4.7144 1.8968 -2.4927 0.9776
4.5275 2.3108 -2.4934 0.9776
4.3042 2.7065 -2.4940 0.9776
3.7559 3.4305 -2.4952 0.9776
3.4353 3.7529 -2.4957 0.9776
2.2421 4.3809 -2.4140 0.9783
1.8295 4.5329 -2.3978 0.9785
1.4152 4.6705 -2.3938 0.9785
0.1268 4.8789 -2.3940 0.9785
-0.7429 4.8232 -2.3938 0.9785
-1.5886 4.6132 -2.3933 0.9785
-1.9939 4.4524 -2.3930 0.9785
-2.7531 4.0253 -2.3922 0.9785
-3.2346 3.9250 -2.4948 0.9776
-3.8796 3.2857 -2.4938 0.9776
-4.9117 1.2839 -2.4903 0.9776
-5.0052 0.8399 -2.4895 0.9776
-5.0587 0.3896 -2.4887 0.9776
-5.0716 -0.0636 -2.4880 0.9777
-4.8690 -1.4041 -2.4857 0.9777
-4.7229 -1.8328 -2.4850 0.9777
-4.5391 -2.2465 -2.4843 0.9777
-4.0651 -3.0165 -2.4831 0.9777
-3.7787 -3.3667 -2.4825 0.9777
-3.4623 -3.6899 -2.4820 0.9777
-2.6607 -4.1078 -2.4007 0.9784
-2.2616 -4.2878 -2.3779 0.9786
-1.8695 -4.4721 -2.3777 0.9786
-1.0441 -4.7327 -2.3773 0.9786
-0.1857 -4.8428 -2.3773 0.9786
0.2475 -4.8402 -2.3773 0.9786
0.6787 -4.7990 -2.3775 0.9786
1.5217 -4.6027 -2.3779 0.9786
1.9269 -4.4490 -2.3782 0.9786
2.3167 -4.2599 -2.3786 0.9786
2.6884 -4.0368 -2.3791 0.9786
4.1053 -2.9660 -2.4843 0.9777
4.3549 -2.5883 -2.4850 0.9777
4.5699 -2.1897 -2.4857 0.9777
4.8895 -1.3428 -2.4872 0.9777
4.9914 -0.9011 -2.4880 0.9777
5.0535 -0.4520 -2.4887 0.9776
4.8979 1.3472 -2.4918 0.9776
4.5828 2.1981 -2.4932 0.9776
4.1209 2.9797 -2.4944 0.9776
3.5267 3.6667 -2.4955 0.9776
2.8193 4.2370 -2.4964 0.9776
2.3829 4.3856 -2.4483 0.9780
1.9375 4.4786 -2.3936 0.9785
0.6815 4.8328 -2.3940 0.9785
-0.6236 4.8402 -2.3938 0.9785
-1.8834 4.5004 -2.3931 0.9785
-2.6529 4.0923 -2.3923 0.9785
-3.4813 3.7072 -2.4946 0.9776
-3.7975 3.3808 -2.4940 0.9776
-4.3359 2.6500 -2.4927 0.9776
-4.7354 1.8355 -2.4912 0.9776
-4.9834 0.9634 -2.4897 0.9776
-5.0479 0.5144 -2.4889 0.9776
-5.0557 -0.3914 -2.4874 0.9777
-4.9991 -0.8410 -2.4866 0.9777
-4.9026 -1.2836 -2.4859 0.9777
-4.7671 -1.7157 -2.4852 0.9777
-4.5935 -2.1339 -2.4845 0.9777
-2.8107 -4.1131 -2.4437 0.9780
-2.3669 -4.2308 -2.3780 0.9786
-1.5763 -4.5834 -2.3775 0.9786
-0.3052 -4.8367 -2.3773 0.9786
0.5599 -4.8143 -2.3774 0.9786
0.9876 -4.7454 -2.3776 0.9786
1.4075 -4.6387 -2.3778 0.9786
2.5877 -4.1017 -2.3789 0.9786
3.3136 -3.6171 -2.4062 0.9784
3.7397 -3.4130 -2.4835 0.9777
4.0305 -3.0662 -2.4841 0.9777
4.7030 -1.8901 -2.4862 0.9777
4.8544 -1.4630 -2.4870 0.9777
5.0403 -0.5766 -2.4885 0.9777
5.0733 -0.1243 -2.4893 0.9776
5.0657 0.3293 -2.4901 0.9776
4.9293 1.2257 -2.4916 0.9776
4.6354 2.0841 -2.4930 0.9776
4.4319 2.4903 -2.4937 0.9776
4.1929 2.8768 -2.4943 0.9776
3.2827 3.8876 -2.4959 0.9776
2.5321 4.3977 -2.4892 0.9776
2.0475 4.4292 -2.3935 0.9785
1.6440 4.5948 -2.3938 0.9785
0.8006 4.8144 -2.3940 0.9785
-0.0684 4.8800 -2.3940 0.9785
-0.5039 4.8542 -2.3939 0.9785
-0.9352 4.7895 -2.3937 0.9785
-1.3590 4.6864 -2.3935 0.9785
-1.7718 4.5458 -2.3932 0.9785
-2.5605 4.1719 -2.4011 0.9784
-2.9435 3.9545 -2.4182 0.9783
-4.0074 3.1276 -2.4935 0.9776
-4.2695 2.7565 -2.4929 0.9776
-4.4973 2.3636 -2.4922 0.9776
-4.9584 1.0862 -2.4899 0.9776
-5.0694 0.1869 -2.4884 0.9777
-4.8083 -1.5976 -2.4854 0.9777
-4.4451 -2.4260 -2.4840 0.9777
-4.2097 -2.8125 -2.4834 0.9777
-3.6406 -3.5148 -2.4823 0.9777
-3.3116 -3.8251 -2.4818 0.9777
-2.9564 -4.1048 -2.4814 0.9777
-2.4707 -4.1712 -2.3781 0.9786
-1.2766 -4.6755 -2.3774 0.9786
0.0081 -4.8464 -2.3773 0.9786
0.4408 -4.8265 -2.3774 0.9786
2.4855 -4.1641 -2.3788 0.9786
2.8479 -3.9263 -2.3793 0.9786
4.2212 -2.7997 -2.4846 0.9777
4.6545 -2.0054 -2.4860 0.9777
4.9577 1.1035 -2.4914 0.9776
4.6851 1.9689 -2.4928 0.9776
3.7031 3.4877 -2.4953 0.9776
3.3775 3.8052 -2.4957 0.9776
3.0248 4.0923 -2.4962 0.9776
2.6478 4.3467 -2.4966 0.9776
1.7569 4.5527 -2.3937 0.9785
1.3435 4.6917 -2.3939 0.9785
0.9193 4.7931 -2.3940 0.9785
0.0521 4.8803 -2.3940 0.9785
-0.8167 4.8112 -2.3938 0.9785
-1.6590 4.5883 -2.3933 0.9785
-2.0618 4.4212 -2.3929 0.9785
-2.4479 4.2188 -2.3925 0.9785
-3.2944 3.8751 -2.4949 0.9776
-3.6264 3.5646 -2.4943 0.9776
-4.4379 2.4742 -2.4924 0.9776
-4.6398 2.0674 -2.4916 0.9776
-4.8044 1.6444 -2.4909 0.9776
-4.9305 1.2085 -2.4901 0.9776
-5.0354 -0.5932 -2.4871 0.9777
-4.9608 -1.0401 -2.4863 0.9777
-4.8467 -1.4784 -2.4856 0.9777
-4.6940 -1.9048 -2.4849 0.9777
-4.5039 -2.3157 -2.4842 0.9777
-4.2781 -2.7079 -2.4836 0.9777
-3.4053 -3.7424 -2.4819 0.9777
-2.1957 -4.3218 -2.3779 0.9786
-1.3917 -4.6426 -2.3774 0.9786
-0.9716 -4.7481 -2.3773 0.9786
0.7521 -4.7881 -2.3775 0.9786
1.1767 -4.7023 -2.3777 0.9786
1.5920 -4.5789 -2.3780 0.9786
1.9948 -4.4191 -2.3783 0.9786
2.7499 -3.9953 -2.3791 0.9786
3.5637 -3.5906 -2.4815 0.9777
4.1505 -2.9029 -2.4844 0.9777
4.3943 -2.5214 -2.4851 0.9777
4.6032 -2.1196 -2.4858 0.9777
5.0749 0.0787 -2.4896 0.9776
5.0491 0.5317 -2.4904 0.9776
4.8770 1.4221 -2.4919 0.9776
4.5488 2.2681 -2.4933 0.9776
4.0749 3.0425 -2.4945 0.9776
3.4703 3.7204 -2.4956 0.9776
2.7541 4.2798 -2.4965 0.9776
1.4589 4.6570 -2.3938 0.9785
0.6074 4.8426 -2.3940 0.9785
-0.6976 4.8300 -2.3938 0.9785
-1.5453 4.6280 -2.3934 0.9785
-1.9520 4.4710 -2.3930 0.9785
-2.7152 4.0511 -2.3922 0.9785
-3.1771 3.9297 -2.4788 0.9777
-4.5877 2.1816 -2.4918 0.9776
-4.7627 1.7627 -2.4911 0.9776
-4.9973 0.8870 -2.4896 0.9776
-5.0549 0.4371 -2.4888 0.9776
-5.0722 -0.0160 -2.4880 0.9777
-5.0490 -0.4687 -2.4873 0.9777
-4.9854 -0.9174 -2.4865 0.9777
-4.8821 -1.3584 -2.4858 0.9777
-4.7399 -1.7884 -2.4851 0.9777
-4.3440 -2.6016 -2.4837 0.9777
-4.0933 -2.9783 -2.4831 0.9777
-3.8102 -3.3312 -2.4826 0.9777
-3.1558 -3.9542 -2.4816 0.9777
-1.5059 -4.6069 -2.3775 0.9786
-1.0885 -4.7227 -2.3773 0.9786
-0.6625 -4.8009 -2.3773 0.9786
0.2020 -4.8423 -2.3773 0.9786
0.6336 -4.8052 -2.3774 0.9786
1.0602 -4.7298 -2.3776 0.9786
1.4784 -4.6167 -2.3779 0.9786
1.8849 -4.4669 -2.3782 0.9786
2.6503 -4.0617 -2.3790 0.9786
3.4041 -3.6036 -2.4316 0.9782
3.7916 -3.3555 -2.4836 0.9777
4.3303 -2.6290 -2.4849 0.9777
4.5491 -2.2325 -2.4856 0.9777
4.7316 -1.8179 -2.4864 0.9777
4.8765 -1.3886 -2.4871 0.9777
5.0489 -0.4994 -2.4887 0.9776
4.7758 1.7349 -2.4924 0.9776
4.3935 2.5580 -2.4938 0.9776
3.8703 3.3002 -2.4950 0.9776
3.5609 3.6334 -2.4955 0.9776
3.2229 3.9376 -2.4959 0.9776
2.8589 4.2103 -2.4964 0.9776
2.4390 4.3902 -2.4635 0.9779
-0.1431 4.8784 -2.3940 0.9785
-3.4464 3.7398 -2.4947 0.9776
-4.0547 3.0657 -2.4934 0.9776
-4.5328 2.2944 -2.4920 0.9776
-3.8916 -3.2362 -2.4827 0.9777
-2.0209 -4.4060 -2.3777 0.9786
-1.2049 -4.6945 -2.3774 0.9786
-0.3507 -4.8337 -2.3773 0.9786
0.5147 -4.8193 -2.3774 0.9786
0.9430 -4.7544 -2.3776 0.9786
1.7740 -4.5119 -2.3781 0.9786
2.5490 -4.1257 -2.3789 0.9786
2.9078 -3.8824 -2.3793 0.9786
3.2591 -3.6253 -2.3912 0.9785
4.2638 -2.7349 -2.4847 0.9777
4.4922 -2.3440 -2.4854 0.9777
4.8403 -1.5085 -2.4869 0.9777
4.9572 -1.0706 -2.4877 0.9777
5.0717 -0.1720 -2.4892 0.9776
5.0684 0.2817 -2.4900 0.9776
4.9405 1.1794 -2.4915 0.9776
4.8168 1.6162 -2.4922 0.9776
4.6546 2.0404 -2.4929 0.9776
4.4550 2.4485 -2.4936 0.9776
3.9504 3.2034 -2.4948 0.9776
2.9619 4.1382 -2.4963 0.9776
2.0890 4.4097 -2.3935 0.9785
1.6871 4.5791 -2.3937 0.9785
-0.8902 4.7981 -2.3937 0.9785
-2.1292 4.3890 -2.3929 0.9785
-2.5121 4.1806 -2.3925 0.9785
-3.3532 3.8241 -2.4948 0.9776
-3.6804 3.5086 -2.4942 0.9776
-3.9780 3.1651 -2.4936 0.9776
-4.4751 2.4058 -2.4922 0.9776
-5.0676 0.2345 -2.4885 0.9777
-5.0668 -0.2188 -2.4877 0.9777
-5.0254 -0.6702 -2.4869 0.9777
-4.9440 -1.1159 -2.4862 0.9777
-2.1292 -4.3549 -2.3778 0.9786
-1.7317 -4.5271 -2.3776 0.9786
-1.3205 -4.6633 -2.3774 0.9786
-0.0374 -4.8463 -2.3773 0.9786
0.3955 -4.8304 -2.3774 0.9786
0.8253 -4.7761 -2.3775 0.9786
1.6620 -4.5541 -2.3780 0.9786
2.4462 -4.1872 -2.3788 0.9786
2.8109 -3.9528 -2.3792 0.9786
3.6209 -3.5382 -2.4833 0.9777
4.1946 -2.8392 -2.4846 0.9777
4.6353 -2.0490 -2.4860 0.9777
5.0655 -0.2971 -2.4890 0.9776
5.0407 0.6089 -2.4905 0.9776
4.9677 1.0569 -2.4913 0.9776
4.8549 1.4967 -2.4920 0.9776
4.5138 2.3376 -2.4934 0.9776
4.2881 2.7320 -2.4940 0.9776
4.0280 3.1047 -2.4946 0.9776
3.7356 3.4527 -2.4952 0.9776
3.4130 3.7732 -2.4957 0.9776
-0.7715 4.8187 -2.3938 0.9785
-1.1985 4.7302 -2.3936 0.9785
-2.7768 4.0089 -2.3921 0.9785
-4.7889 1.6895 -2.4910 0.9776
-4.9191 1.2548 -2.4902 0.9776
-4.9705 -0.9935 -2.4864 0.9777
-4.7118 -1.8607 -2.4849 0.9777
-4.3035 -2.6677 -2.4836 0.9777
-4.0471 -3.0405 -2.4830 0.9777
-3.7587 -3.3890 -2.4825 0.9777
-2.6260 -4.1074 -2.3913 0.9785
-1.7553 4.2651 -2.3927 0.9794
-2.1288 4.0907 -2.3924 0.9794
-2.5477 3.9813 -2.4521 0.9789
-2.9434 3.8031 -2.4948 0.9786
-3.8434 2.8851 -2.4931 0.9786
-4.0846 2.5297 -2.4925 0.9786
-4.6052 1.3557 -2.4904 0.9786
-4.7064 0.9388 -2.4897 0.9786
-4.7827 -0.3418 -2.4875 0.9786
-4.7317 -0.7672 -2.4868 0.9786
-4.5173 -1.5957 -2.4854 0.9786
-4.1594 -2.3725 -2.4842 0.9787
-2.7223 -3.9336 -2.4817 0.9787
-2.3098 -4.0721 -2.4287 0.9791
-1.5164 -4.3257 -2.3780 0.9796
-0.7228 -4.5260 -2.3777 0.9796
0.0938 -4.5824 -2.3778 0.9796
0.5026 -4.5559 -2.3779 0.9796
0.9074 -4.4931 -2.3780 0.9796
1.3051 -4.3946 -2.3782 0.9796
1.6925 -4.2610 -2.3785 0.9796
2.0664 -4.0935 -2.3789 0.9795
2.4266 -3.8973 -2.3817 0.9795
2.7668 -3.6677 -2.3834 0.9795
3.2124 -3.5486 -2.4832 0.9787
4.4363 -1.8135 -2.4863 0.9786
4.5819 -1.4105 -2.4870 0.9786
4.7624 -0.5734 -2.4885 0.9786
4.7913 0.2829 -2.4900 0.9786
4.7483 0.7098 -2.4907 0.9786
4.6673 1.1313 -2.4914 0.9786
4.3940 1.9444 -2.4927 0.9786
3.9801 2.6962 -2.4939 0.9786
3.7242 3.0415 -2.4945 0.9786
2.4256 4.1556 -2.4962 0.9786
2.0451 4.3561 -2.4965 0.9785
1.5799 4.3344 -2.3933 0.9794
1.1921 4.4790 -2.4045 0.9793
0.3747 4.5987 -2.3936 0.9794
-0.0374 4.6137 -2.3935 0.9794
-0.8573 4.5330 -2.3933 0.9794
-1.6495 4.3073 -2.3928 0.9794
-2.8487 3.8748 -2.4950 0.9786
-3.4910 3.3049 -2.4939 0.9786
-3.7713 2.9793 -2.4933 0.9786
-4.4225 1.8719 -2.4913 0.9786
-4.5706 1.4691 -2.4906 0.9786
-4.6822 1.0548 -2.4899 0.9786
-4.7563 0.6324 -2.4892 0.9786
-4.7901 -0.2235 -2.4877 0.9786
-4.7496 -0.6502 -2.4870 0.9786
-4.6713 -1.0714 -2.4863 0.9786
-3.9966 -2.6360 -2.4837 0.9787
-3.7444 -2.9817 -2.4832 0.9787
-3.4625 -3.3035 -2.4827 0.9787
-3.1532 -3.5988 -2.4822 0.9787
-2.8188 -3.8653 -2.4818 0.9787
-2.4517 -4.0837 -2.4710 0.9788
-0.0195 -4.5833 -2.3777 0.9796
0.7962 -4.5141 -2.3780 0.9796
1.1962 -4.4254 -2.3782 0.9796
2.3271 -3.9518 -2.3791 0.9795
3.1236 -3.6266 -2.4831 0.9787
3.4357 -3.3340 -2.4836 0.9787
4.7464 -0.6908 -2.4883 0.9786
4.7905 -0.2643 -2.4890 0.9786
4.7964 0.1645 -2.4898 0.9786
4.7640 0.5923 -2.4905 0.9786
4.4404 1.8352 -2.4925 0.9786
3.7980 2.9485 -2.4943 0.9786
3.2143 3.5784 -2.4953 0.9786
2.8824 3.8517 -2.4958 0.9786
2.5274 4.0943 -2.4961 0.9786
2.1520 4.3041 -2.4964 0.9785
1.7029 4.3361 -2.4167 0.9792
1.2963 4.4277 -2.3934 0.9794
-1.1486 4.4678 -2.3931 0.9794
-2.2964 4.0122 -2.3983 0.9794
-2.7523 3.9442 -2.4951 0.9786
-3.0929 3.6820 -2.4946 0.9786
-3.9553 2.7287 -2.4929 0.9786
-4.3752 1.9807 -2.4915 0.9786
-4.6551 1.1702 -2.4901 0.9786
-4.7396 0.7497 -2.4894 0.9786
-4.7862 0.3234 -2.4887 0.9786
-4.7946 -0.1052 -2.4879 0.9786
-4.5913 -1.3709 -2.4858 0.9786
-4.4494 -1.7749 -2.4851 0.9786
-4.0607 -2.5367 -2.4839 0.9787
-3.8171 -2.8885 -2.4833 0.9787
-2.5627 -4.0390 -2.4815 0.9787
0.2770 -4.5751 -2.3778 0.9796
1.0864 -4.4534 -2.3781 0.9796
1.4799 -4.3391 -2.3784 0.9796
2.2287 -4.0078 -2.3790 0.9795
2.5781 -3.7935 -2.3794 0.9795
2.9804 -3.6383 -2.4399 0.9790
3.6447 -3.1054 -2.4840 0.9787
4.1410 -2.4088 -2.4853 0.9786
4.5059 -1.6348 -2.4866 0.9786
4.6352 -1.2263 -2.4874 0.9786
4.7768 0.4744 -2.4903 0.9786
4.1078 2.4961 -2.4936 0.9786
3.8694 2.8536 -2.4942 0.9786
3.5999 3.1884 -2.4947 0.9786
3.3015 3.4977 -2.4952 0.9786
1.4052 4.3943 -2.3934 0.9794
1.0073 4.5024 -2.3935 0.9794
0.6013 4.5745 -2.3936 0.9794
0.1905 4.6099 -2.3936 0.9794
-0.6324 4.5699 -2.3934 0.9794
-1.0379 4.4949 -2.3932 0.9794
-1.8204 4.2376 -2.3926 0.9794
-2.1912 4.0576 -2.3923 0.9794
-3.3240 3.4737 -2.4942 0.9786
-3.6200 3.1623 -2.4937 0.9786
-3.8870 2.8258 -2.4930 0.9786
-4.1227 2.4668 -2.4924 0.9786
-4.3253 2.0883 -2.4917 0.9786
-4.6251 1.2849 -2.4903 0.9786
-4.7961 0.0132 -2.4881 0.9786
-4.7193 -0.8395 -2.4867 0.9786
-4.4922 -1.6646 -2.4853 0.9786
-4.3245 -2.0585 -2.4847 0.9786
-3.8875 -2.7935 -2.4835 0.9787
-3.3273 -3.4390 -2.4825 0.9787
-2.2274 -4.0706 -2.4072 0.9793
-1.8326 -4.2018 -2.3781 0.9796
-1.4500 -4.3483 -2.3779 0.9796
-0.2457 -4.5767 -2.3777 0.9796
0.5723 -4.5478 -2.3779 0.9796
1.3722 -4.3742 -2.3783 0.9796
1.7575 -4.2347 -2.3786 0.9796
2.4835 -3.8558 -2.3793 0.9795
2.8468 -3.6559 -2.4038 0.9793
3.5667 -3.1942 -2.4839 0.9787
3.8385 -2.8637 -2.4845 0.9787
4.0799 -2.5101 -2.4851 0.9786
4.6031 -1.3403 -2.4872 0.9786
4.7058 -0.9242 -2.4879 0.9786
4.7867 0.3563 -2.4901 0.9786
4.7371 0.7825 -2.4908 0.9786
4.6496 1.2027 -2.4915 0.9786
3.6773 3.0983 -2.4946 0.9786
2.7262 3.9642 -2.4959 0.9786
1.9620 4.3510 -2.4761 0.9787
1.5133 4.3581 -2.3933 0.9794
0.7141 4.5582 -2.3936 0.9794
-0.1080 4.6125 -2.3935 0.9794
-0.5194 4.5842 -2.3934 0.9794
-0.9266 4.5193 -2.3933 0.9794
-1.3262 4.4180 -2.3930 0.9794
-2.0904 4.1106 -2.3924 0.9794
-2.9076 3.8306 -2.4949 0.9786
-3.2373 3.5550 -2.4944 0.9786
-3.8162 2.9211 -2.4932 0.9786
-4.2727 2.1946 -2.4919 0.9786
-4.4504 1.8038 -2.4912 0.9786
-4.5924 1.3989 -2.4905 0.9786
-4.6976 0.9830 -2.4898 0.9786
-4.7947 0.1317 -2.4883 0.9786
-4.7389 -0.7228 -2.4869 0.9786
-4.5323 -1.5533 -2.4855 0.9786
-4.3743 -1.9512 -2.4848 0.9786
-4.1816 -2.3334 -2.4842 0.9787
-3.9556 -2.6968 -2.4836 0.9787
-3.6982 -3.0386 -2.4831 0.9787
-2.7592 -3.9079 -2.4817 0.9787
-2.3632 -4.0764 -2.4444 0.9790
-1.9358 -4.1554 -2.3782 0.9796
-1.5570 -4.3113 -2.3780 0.9796
-0.7653 -4.5190 -2.3777 0.9796
-0.3587 -4.5692 -2.3777 0.9796
1.2638 -4.4066 -2.3782 0.9796
1.6524 -4.2767 -2.3785 0.9796
2.0279 -4.1126 -2.3788 0.9795
2.3873 -3.9158 -2.3792 0.9795
3.1789 -3.5785 -2.4832 0.9787
3.4864 -3.2811 -2.4837 0.9787
3.7664 -2.9574 -2.4843 0.9787
4.4190 -1.8550 -2.4863 0.9786
4.5683 -1.4534 -2.4870 0.9786
4.6811 -1.0400 -2.4877 0.9786
4.7567 -0.6181 -2.4884 0.9786
4.7943 -0.1910 -2.4891 0.9786
4.5630 1.5011 -2.4920 0.9786
4.4119 1.9030 -2.4927 0.9786
4.0051 2.6587 -2.4939 0.9786
3.7525 3.0064 -2.4944 0.9786
3.4698 3.3301 -2.4949 0.9786
1.6257 4.3334 -2.4011 0.9794
1.2284 4.4471 -2.3934 0.9794
0.0059 4.6138 -2.3935 0.9794
-2.3728 4.0023 -2.4138 0.9793
-2.8123 3.9015 -2.4950 0.9786
-3.4599 3.3377 -2.4940 0.9786
-3.7432 3.0147 -2.4934 0.9786
-3.9964 2.6678 -2.4928 0.9786
-4.4048 1.9134 -2.4914 0.9786
-4.5568 1.5120 -2.4907 0.9786
-4.7503 0.6770 -2.4893 0.9786
-4.7904 0.2501 -2.4885 0.9786
-4.7921 -0.1786 -2.4878 0.9786
-4.7557 -0.6056 -2.4871 0.9786
-4.6813 -1.0275 -2.4864 0.9786
-3.7723 -2.9465 -2.4832 0.9787
-3.1869 -3.5691 -2.4823 0.9787
-2.8550 -3.8387 -2.4818 0.9787
-2.5005 -4.0777 -2.4815 0.9787
-2.0379 -4.1064 -2.3783 0.9796
-0.4714 -4.5590 -2.3777 0.9796
0.7537 -4.5213 -2.3779 0.9796
1.1545 -4.4364 -2.3782 0.9796
1.5462 -4.3160 -2.3784 0.9796
1.9256 -4.1613 -2.3787 0.9795
2.2899 -3.9734 -2.3791 0.9795
2.6360 -3.7537 -2.3795 0.9795
3.0686 -3.6312 -2.4663 0.9788
3.6920 -3.0493 -2.4841 0.9787
4.1776 -2.3453 -2.4854 0.9786
4.6537 -1.1552 -2.4875 0.9786
4.7396 -0.7353 -2.4882 0.9786
4.7877 -0.3093 -2.4889 0.9786
4.5983 1.3878 -2.4918 0.9786
4.2804 2.1847 -2.4931 0.9786
4.0693 2.5588 -2.4937 0.9786
3.8254 2.9126 -2.4943 0.9786
3.2477 3.5480 -2.4953 0.9786
2.5656 4.0703 -2.4961 0.9786
2.1923 4.2837 -2.4964 0.9785
1.3378 4.4153 -2.3934 0.9794
0.9383 4.5173 -2.3935 0.9794
-0.2924 4.6044 -2.3935 0.9794
-0.7023 4.5597 -2.3934 0.9794
-1.5018 4.3612 -2.3929 0.9794
-1.8927 4.2264 -2.4024 0.9793
-2.2529 4.0234 -2.3922 0.9794
-4.5184 1.6242 -2.4909 0.9786
-4.6440 1.2139 -2.4902 0.9786
-4.7325 0.7942 -2.4895 0.9786
-4.7696 -0.4880 -2.4873 0.9786
-4.7056 -0.9116 -2.4866 0.9786
-4.6041 -1.3278 -2.4859 0.9786
-4.4660 -1.7331 -2.4852 0.9786
-3.8442 -2.8526 -2.4834 0.9787
-3.5734 -3.1838 -2.4829 0.9787
-3.2742 -3.4894 -2.4824 0.9787
-2.9490 -3.7672 -2.4820 0.9787
-2.6005 -4.0149 -2.4816 0.9787
-0.9875 -4.4758 -2.3778 0.9796
-0.5839 -4.5459 -2.3777 0.9796
0.2340 -4.5774 -2.3778 0.9796
1.8222 -4.2074 -2.3786 0.9796
2.5423 -3.8175 -2.3794 0.9795
3.3198 -3.4488 -2.4834 0.9787
3.8821 -2.8047 -2.4846 0.9786
4.4902 -1.6770 -2.4866 0.9786
4.7809 0.4296 -2.4902 0.9786
4.3328 2.0782 -2.4929 0.9786
4.1310 2.4574 -2.4936 0.9786
3.8960 2.8171 -2.4941 0.9786
3.6296 3.1543 -2.4947 0.9786
3.3341 3.4665 -2.4952 0.9786
3.0118 3.7510 -2.4956 0.9786
2.6653 4.0056 -2.4960 0.9786
2.2973 4.2281 -2.4963 0.9785
1.8794 4.3443 -2.4556 0.9789
1.0496 4.4928 -2.3935 0.9794
-0.1786 4.6103 -2.3935 0.9794
-0.9957 4.5045 -2.3932 0.9794
-1.3937 4.3971 -2.3930 0.9794
-2.9658 3.7855 -2.4948 0.9786
-3.2913 3.5049 -2.4943 0.9786
-3.8604 2.8622 -2.4931 0.9786
-4.3056 2.1289 -2.4918 0.9786
-4.6130 1.3284 -2.4904 0.9786
-4.7729 0.4864 -2.4889 0.9786
-4.7959 0.0583 -2.4882 0.9786
-4.7805 -0.3701 -2.4875 0.9786
-4.6359 -1.2138 -2.4861 0.9786
-4.3438 -2.0179 -2.4847 0.9786
-3.9137 -2.7570 -2.4835 0.9787
-3.3596 -3.4077 -2.4825 0.9787
-3.0413 -3.6934 -2.4821 0.9787
-2.6990 -3.9496 -2.4817 0.9787
-2.2777 -4.0714 -2.4203 0.9792
-1.8720 -4.1845 -2.3781 0.9796
-1.4907 -4.3345 -2.3779 0.9796
-1.0977 -4.4501 -2.3778 0.9796
-0.6960 -4.5302 -2.3777 0.9796
-0.2887 -4.5742 -2.3777 0.9796
1.3311 -4.3868 -2.3783 0.9796
1.7176 -4.2510 -2.3785 0.9796
3.2334 -3.5296 -2.4832 0.9787
3.8114 -2.8996 -2.4844 0.9787
4.2686 -2.1765 -2.4857 0.9786
4.4471 -1.7872 -2.4864 0.9786
4.5902 -1.3834 -2.4871 0.9786
4.6967 -0.9683 -2.4878 0.9786
4.7658 -0.5452 -2.4885 0.9786
4.7896 0.3113 -2.4900 0.9786
4.6606 1.1589 -2.4914 0.9786
4.3825 1.9704 -2.4928 0.9786
3.9641 2.7198 -2.4940 0.9786
3.7062 3.0636 -2.4945 0.9786
2.7633 3.9384 -2.4959 0.9786
1.5542 4.3437 -2.3933 0.9794
1.1634 4.4777 -2.4001 0.9794
0.7569 4.5513 -2.3935 0.9794
0.3475 4.6008 -2.3936 0.9794
-0.4764 4.5889 -2.3934 0.9794
-1.2847 4.4304 -2.3931 0.9794
-1.6750 4.2974 -2.3928 0.9794
-4.2521 2.2347 -2.4920 0.9786
-4.4334 1.8456 -2.4913 0.9786
-4.5792 1.4420 -2.4906 0.9786
-4.7599 0.6042 -2.4891 0.9786
-4.7934 0.1767 -2.4884 0.9786
-4.7886 -0.2519 -2.4877 0.9786
-4.7456 -0.6783 -2.4870 0.9786
-4.2034 -2.2941 -2.4843 0.9787
-3.9808 -2.6596 -2.4837 0.9787
-3.7266 -3.0038 -2.4831 0.9787
-2.7958 -3.8819 -2.4818 0.9787
-2.4172 -4.0809 -2.4606 0.9789
-1.5974 -4.2965 -2.3780 0.9796
-0.8076 -4.5116 -2.3777 0.9796
0.0077 -4.5833 -2.3777 0.9796
0.8228 -4.5093 -2.3780 0.9796
1.9892 -4.1314 -2.3788 0.9795
3.7383 -2.9926 -2.4842 0.9787
3.9916 -2.6475 -2.4849 0.9786
4.2132 -2.2811 -2.4855 0.9786
4.4013 -1.8963 -2.4862 0.9786
4.7505 -0.6627 -2.4883 0.9786
4.7955 0.1929 -2.4898 0.9786
4.6874 1.0434 -2.4912 0.9786
3.5009 3.2973 -2.4949 0.9786
3.1931 3.5974 -2.4954 0.9786
2.8596 3.8688 -2.4958 0.9786
1.6729 4.3351 -2.4106 0.9793
1.2701 4.4353 -2.3934 0.9794
0.8690 4.5312 -2.3935 0.9794
0.4610 4.5908 -2.3936 0.9794
0.0493 4.6136 -2.3936 0.9794
-0.3629 4.5994 -2.3935 0.9794
-1.1750 4.4609 -2.3931 0.9794
-1.5684 4.3376 -2.3929 0.9794
-2.7756 3.9278 -2.4951 0.9786
-3.1146 3.6635 -2.4946 0.9786
-3.4285 3.3701 -2.4940 0.9786
-3.9713 2.7053 -2.4928 0.9786
-4.1959 2.3392 -2.4922 0.9786
-4.5425 1.5548 -2.4908 0.9786
-4.6619 1.1426 -2.4901 0.9786
-4.5831 -1.3980 -2.4858 0.9786
-4.2591 -2.1897 -2.4845 0.9787
-4.0456 -2.5607 -2.4839 0.9787
-3.7999 -2.9110 -2.4833 0.9787
-3.5241 -3.2380 -2.4828 0.9787
-2.8909 -3.8118 -2.4819 0.9787
-2.0764 -4.0871 -2.3783 0.9796
-1.7030 -4.2558 -2.3780 0.9796
-1.3161 -4.3906 -2.3779 0.9796
-0.5142 -4.5543 -2.3777 0.9796
0.3040 -4.5734 -2.3778 0.9796
0.7112 -4.5282 -2.3779 0.9796
1.8864 -4.1791 -2.3787 0.9796
2.6005 -3.7782 -2.3795 0.9795
3.0143 -3.6356 -2.4500 0.9789
3.3723 -3.3977 -2.4835 0.9787
3.9247 -2.7451 -2.4847 0.9786
4.1553 -2.3843 -2.4853 0.9786
4.3528 -2.0043 -2.4860 0.9786
4.5156 -1.6081 -2.4867 0.9786
4.6425 -1.1988 -2.4874 0.9786
4.7323 -0.7798 -2.4881 0.9786
4.7845 -0.3542 -2.4889 0.9786
4.7740 0.5027 -2.4903 0.9786
4.7113 0.9272 -2.4910 0.9786
4.4738 1.7514 -2.4924 0.9786
4.0930 2.5204 -2.4937 0.9786
3.8525 2.8765 -2.4942 0.9786
3.2808 3.5173 -2.4952 0.9786
2.9542 3.7968 -2.4957 0.9786
0.5742 4.5780 -2.3936 0.9794
-0.2492 4.6070 -2.3935 0.9794
-0.6595 4.5661 -2.3934 0.9794
-2.2151 4.0445 -2.3923 0.9794
-3.3444 3.4539 -2.4942 0.9786
-3.6386 3.1408 -2.4936 0.9786
-4.1371 2.4423 -2.4924 0.9786
-4.5031 1.6666 -2.4910 0.9786
-4.6326 1.2575 -2.4903 0.9786
-4.7250 0.8386 -2.4895 0.9786
-4.7960 -0.0151 -2.4881 0.9786
-4.7141 -0.8674 -2.4866 0.9786
-3.6032 -3.1502 -2.4829 0.9787
-3.3069 -3.4586 -2.4824 0.9787
-2.9844 -3.7394 -2.4820 0.9787
-1.8077 -4.2126 -2.3781 0.9796
0.1910 -4.5794 -2.3778 0.9796
0.5992 -4.5443 -2.3779 0.9796
1.0026 -4.4730 -2.3781 0.9796
1.7826 -4.2243 -2.3786 0.9796
2.1529 -4.0488 -2.3790 0.9795
3.5856 -3.1731 -2.4839 0.9787
3.8555 -2.8410 -2.4845 0.9787
4.3016 -2.1110 -2.4858 0.9786
4.7325 0.8105 -2.4908 0.9786
4.6425 1.2302 -2.4915 0.9786
4.5154 1.6402 -2.4922 0.9786
4.1537 2.4184 -2.4935 0.9786
3.9221 2.7803 -2.4941 0.9786
3.6590 3.1200 -2.4946 0.9786
3.3664 3.4350 -2.4951 0.9786
3.0469 3.7225 -2.4956 0.9786
2.7028 3.9803 -2.4959 0.9786
1.4875 4.3671 -2.3933 0.9794
1.0917 4.4827 -2.3935 0.9794
0.2770 4.6055 -2.3936 0.9794
-2.1147 4.0981 -2.3924 0.9794
-2.5293 3.9829 -2.4476 0.9790
-2.9302 3.8133 -2.4949 0.9786
-3.5602 3.2299 -2.4938 0.9786
-3.8334 2.8985 -2.4932 0.9786
-4.0759 2.5439 -2.4925 0.9786
-4.2856 2.1693 -2.4919 0.9786
-4.4609 1.7774 -2.4912 0.9786
-4.7032 0.9551 -2.4897 0.9786
-4.7839 -0.3252 -2.4875 0.9786
-4.6472 -1.1702 -2.4861 0.9786
-4.3626 -1.9770 -2.4848 0.9786
-3.9395 -2.7202 -2.4836 0.9787
-3.6801 -3.0604 -2.4831 0.9787
-2.7360 -3.9241 -2.4817 0.9787
-0.7385 -4.5234 -2.3777 0.9796
0.0779 -4.5827 -2.3777 0.9796
0.4867 -4.5576 -2.3778 0.9796
2.0522 -4.1006 -2.3789 0.9795
2.4106 -3.9016 -2.3792 0.9795
2.7498 -3.6715 -2.3797 0.9795
3.2000 -3.5597 -2.4832 0.9787
4.0319 -2.5862 -2.4850 0.9786
4.2478 -2.2164 -2.4856 0.9786
4.4300 -1.8288 -2.4863 0.9786
4.5769 -1.4264 -2.4870 0.9786
4.7604 -0.5899 -2.4885 0.9786
4.7954 -0.1626 -2.4892 0.9786
4.7922 0.2663 -2.4899 0.9786
4.7506 0.6933 -2.4906 0.9786
4.5541 1.5281 -2.4920 0.9786
3.7347 3.0286 -2.4945 0.9786
3.1377 3.6460 -2.4954 0.9786
2.8001 3.9122 -2.4958 0.9786
2.4400 4.1471 -2.4962 0.9786
2.0602 4.3489 -2.4965 0.9785
0.7996 4.5440 -2.3935 0.9794
0.3906 4.5973 -2.3936 0.9794
-0.4332 4.5932 -2.3935 0.9794
-0.8416 4.5359 -2.3933 0.9794
-1.6346 4.3130 -2.3928 0.9794
-2.8353 3.8847 -2.4950 0.9786
-3.1702 3.6153 -2.4945 0.9786
-3.4796 3.3171 -2.4939 0.9786
-3.7609 2.9924 -2.4933 0.9786
-4.2310 2.2746 -2.4921 0.9786
-4.4160 1.8872 -2.4914 0.9786
-4.5656 1.4850 -2.4907 0.9786
-4.6786 1.0711 -2.4899 0.9786
-4.7519 -0.6337 -2.4870 0.9786
-4.0057 -2.6222 -2.4838 0.9787
-3.4740 -3.2914 -2.4827 0.9787
-2.8322 -3.8555 -2.4818 0.9787
-2.4720 -4.0854 -2.4772 0.9787
-1.6377 -4.2813 -2.3780 0.9796
-0.8500 -4.5039 -2.3777 0.9796
-0.4444 -4.5617 -2.3777 0.9796
-0.0354 -4.5832 -2.3777 0.9796
0.3740 -4.5682 -2.3778 0.9796
1.9503 -4.1499 -2.3788 0.9795
2.3134 -3.9598 -2.3791 0.9795
3.1032 -3.6284 -2.4768 0.9787
4.3831 -1.9375 -2.4861 0.9786
4.5399 -1.5389 -2.4868 0.9786
4.6605 -1.1277 -2.4875 0.9786
4.7896 -0.2809 -2.4890 0.9786
4.7969 0.1479 -2.4897 0.9786
4.6968 0.9993 -2.4912 0.9786
4.5902 1.4150 -2.4919 0.9786
4.2675 2.2101 -2.4932 0.9786
3.8082 2.9352 -2.4943 0.9786
2.5415 4.0855 -2.4961 0.9786
0.9115 4.5229 -2.3935 0.9794
0.5041 4.5862 -2.3936 0.9794
0.0925 4.6129 -2.3936 0.9794
-0.3197 4.6026 -2.3935 0.9794
-0.7293 4.5554 -2.3933 0.9794
-1.1330 4.4717 -2.3931 0.9794
-1.9099 4.1979 -2.3926 0.9794
-2.7386 3.9538 -2.4951 0.9786
-3.0801 3.6927 -2.4946 0.9786
-4.6510 1.1864 -2.4901 0.9786
-4.7949 -0.0886 -2.4880 0.9786
-4.7665 -0.5162 -2.4872 0.9786
-4.4555 -1.7595 -2.4852 0.9786
-4.2796 -2.1497 -2.4845 0.9787
-3.2534 -3.5087 -2.4824 0.9787
-2.9267 -3.7846 -2.4819 0.9787
-2.5767 -4.0302 -2.4816 0.9787
-1.6716 4.0618 -2.4057 0.9802
-2.0913 4.0187 -2.4813 0.9796
-3.0974 3.3378 -2.4940 0.9794
-3.3824 3.0473 -2.4935 0.9795
-3.6401 2.7325 -2.4929 0.9795
-4.3618 1.2840 -2.4903 0.9795
-4.4578 0.8892 -2.4897 0.9795
-4.5423 0.0821 -2.4883 0.9795
-4.4821 -0.7267 -2.4869 0.9795
-4.2791 -1.5115 -2.4856 0.9795
-4.1260 -1.8871 -2.4850 0.9795
-3.7229 -2.5897 -2.4838 0.9795
-3.4761 -2.9112 -2.4833 0.9795
-3.2016 -3.2093 -2.4829 0.9795
-2.9018 -3.4818 -2.4824 0.9795
-2.2356 -3.9413 -2.4818 0.9795
-1.8331 -4.0334 -2.4266 0.9800
-1.4366 -4.0979 -2.3784 0.9804
-0.6847 -4.2877 -2.3781 0.9804
-0.2991 -4.3316 -2.3781 0.9804
0.0888 -4.3411 -2.3782 0.9804
0.4761 -4.3161 -2.3783 0.9804
1.2363 -4.1632 -2.3786 0.9804
1.6033 -4.0366 -2.3789 0.9804
1.9576 -3.8779 -2.3792 0.9804
2.7303 -3.6192 -2.4830 0.9795
3.0431 -3.3616 -2.4835 0.9795
3.3318 -3.0771 -2.4840 0.9795
3.8278 -2.4366 -2.4852 0.9795
4.4432 -0.9435 -2.4878 0.9795
4.5381 0.2680 -2.4899 0.9795
4.4973 0.6723 -2.4906 0.9795
4.4206 1.0715 -2.4912 0.9795
4.3083 1.4623 -2.4919 0.9795
3.9815 2.2063 -2.4931 0.9795
3.5271 2.8806 -2.4942 0.9794
3.2565 3.1846 -2.4947 0.9794
2.9596 3.4632 -2.4951 0.9794
1.9368 4.1254 -2.4961 0.9794
1.1409 4.2869 -2.4297 0.9800
0.7423 4.3059 -2.3931 0.9803
0.3549 4.3550 -2.3932 0.9803
-0.0355 4.3796 -2.3988 0.9802
-1.5622 4.0792 -2.3924 0.9803
-1.9716 4.0286 -2.4565 0.9798
-2.3599 3.8966 -2.4951 0.9794
-3.0142 3.4135 -2.4942 0.9794
-3.3063 3.1301 -2.4936 0.9794
-3.5718 2.8217 -2.4931 0.9795
-3.8085 2.4909 -2.4925 0.9795
-4.0147 2.1404 -2.4919 0.9795
-4.1887 1.7729 -2.4912 0.9795
-4.5051 0.5990 -2.4892 0.9795
-4.4990 -0.6159 -2.4871 0.9795
-4.1716 -1.7847 -2.4852 0.9795
-3.9947 -2.1496 -2.4846 0.9795
-2.9871 -3.4092 -2.4826 0.9795
-2.6703 -3.6617 -2.4822 0.9795
-2.3324 -3.8850 -2.4818 0.9795
-1.1712 -4.1915 -2.3836 0.9803
-0.4060 -4.3230 -2.3781 0.9804
0.7542 -4.2764 -2.3784 0.9804
1.1331 -4.1923 -2.3786 0.9804
1.8689 -3.9411 -2.3889 0.9803
2.9590 -3.4355 -2.4834 0.9795
3.2546 -3.1583 -2.4839 0.9795
3.5244 -2.8557 -2.4844 0.9795
3.7662 -2.5302 -2.4850 0.9795
3.9780 -2.1844 -2.4856 0.9795
4.1583 -1.8209 -2.4863 0.9795
4.3054 -1.4427 -2.4869 0.9795
4.4182 -1.0529 -2.4876 0.9795
4.5375 -0.2504 -2.4890 0.9795
4.3428 1.3553 -2.4917 0.9795
4.2055 1.7381 -2.4923 0.9795
3.8311 2.4596 -2.4935 0.9795
3.5970 2.7924 -2.4941 0.9794
0.8484 4.2862 -2.3931 0.9803
0.4623 4.3449 -2.3932 0.9803
0.0728 4.3874 -2.4033 0.9802
-0.3179 4.3579 -2.3931 0.9803
-3.2281 3.2110 -2.4938 0.9794
-3.5012 2.9093 -2.4932 0.9795
-3.7461 2.5844 -2.4926 0.9795
-4.2937 1.4981 -2.4907 0.9795
-4.5132 -0.5046 -2.4873 0.9795
-4.4489 -0.9053 -2.4866 0.9795
-4.3491 -1.2986 -2.4860 0.9795
-4.2147 -1.6813 -2.4853 0.9795
-4.0468 -2.0504 -2.4847 0.9795
-3.8467 -2.4030 -2.4841 0.9795
-3.6160 -2.7363 -2.4836 0.9795
-3.3565 -3.0476 -2.4831 0.9795
-2.7600 -3.5948 -2.4823 0.9795
-2.4277 -3.8263 -2.4819 0.9795
-2.0761 -4.0273 -2.4816 0.9795
-0.5127 -4.3116 -2.3781 0.9804
-0.1256 -4.3402 -2.3781 0.9804
0.2624 -4.3342 -2.3782 0.9804
0.6484 -4.2937 -2.3783 0.9804
1.4020 -4.1106 -2.3787 0.9804
2.4994 -3.6778 -2.4355 0.9799
2.8731 -3.5074 -2.4832 0.9795
3.1754 -3.2375 -2.4837 0.9795
3.4525 -2.9417 -2.4843 0.9795
4.1117 -1.9229 -2.4861 0.9795
4.2681 -1.5485 -2.4868 0.9795
4.2469 1.6336 -2.4922 0.9795
3.6646 2.7026 -2.4939 0.9794
3.4094 3.0196 -2.4944 0.9794
2.8189 3.5791 -2.4953 0.9794
2.4885 3.8170 -2.4956 0.9794
2.1380 4.0245 -2.4959 0.9794
1.7703 4.1997 -2.4962 0.9794
1.3761 4.3030 -2.4743 0.9796
0.5695 4.3322 -2.3932 0.9803
0.1804 4.3657 -2.3932 0.9803
-0.9829 4.2568 -2.3928 0.9803
-1.7413 4.0536 -2.4163 0.9801
-2.5137 3.7988 -2.4949 0.9794
-3.1481 3.2899 -2.4939 0.9794
-3.4285 2.9950 -2.4934 0.9795
-3.6813 2.6763 -2.4928 0.9795
-3.9047 2.3364 -2.4922 0.9795
-4.3808 1.2171 -2.4902 0.9795
-4.4707 0.8208 -2.4895 0.9795
-4.5429 0.0125 -2.4882 0.9795
-4.4702 -0.7952 -2.4868 0.9795
-4.2553 -1.5768 -2.4855 0.9795
-4.0965 -1.9500 -2.4849 0.9795
-3.9051 -2.3074 -2.4843 0.9795
-2.5216 -3.7654 -2.4820 0.9795
-1.7584 -4.0318 -2.4091 0.9801
-1.3736 -4.1194 -2.3783 0.9804
-1.0003 -4.2254 -2.3782 0.9804
-0.6190 -4.2977 -2.3781 0.9804
1.3000 -4.1438 -2.3787 0.9804
2.3790 -3.6936 -2.4063 0.9802
3.0944 -3.3147 -2.4836 0.9795
4.0627 -2.0237 -2.4859 0.9795
4.2283 -1.6533 -2.4866 0.9795
4.3602 -1.2695 -2.4872 0.9795
4.5189 -0.4740 -2.4886 0.9795
4.5445 -0.0687 -2.4893 0.9795
4.5338 0.3375 -2.4900 0.9795
4.4038 1.1391 -2.4914 0.9795
4.1331 1.9052 -2.4926 0.9795
3.9474 2.2671 -2.4932 0.9795
3.4828 2.9343 -2.4943 0.9794
2.9063 3.5082 -2.4952 0.9794
2.5819 3.7543 -2.4955 0.9794
1.8734 4.1546 -2.4961 0.9794
1.0702 4.2838 -2.4183 0.9801
-0.4921 4.3433 -2.3941 0.9803
