ply
format ascii 1.0
element vertex 1595
property float32 x
property float32 y
property float32 z
property float32 I
end_header
-1.2386 -7.7913 -2.4265 0.9675
0.8340 -7.5212 -2.3275 0.9688
1.5028 -7.4215 -2.3290 0.9688
2.1609 -7.2637 -2.3309 0.9688
4.5887 -6.0790 -2.3427 0.9686
5.1213 -5.6545 -2.3465 0.9686
5.6155 -5.1841 -2.3507 0.9685
6.0672 -4.6711 -2.3551 0.9685
6.4728 -4.1192 -2.3599 0.9684
7.3803 -2.2723 -2.3752 0.9682
7.5707 -1.6081 -2.3805 0.9681
7.7713 -0.2378 -2.3914 0.9680
7.7791 0.4577 -2.3968 0.9679
7.7498 2.6273 -2.5169 0.9663
7.1875 3.9788 -2.5268 0.9662
6.8160 4.6126 -2.5314 0.9661
6.3877 5.2111 -2.5356 0.9661
4.7986 6.7442 -2.5459 0.9660
4.1818 7.1527 -2.5484 0.9659
3.5296 7.5033 -2.5505 0.9659
0.6538 7.9311 -2.4477 0.9672
-0.0566 7.9560 -2.4472 0.9673
-0.7661 7.9158 -2.4461 0.9673
-1.4685 7.8109 -2.4446 0.9673
-2.1579 7.6424 -2.4425 0.9673
-4.4177 6.0255 -2.2981 0.9692
-6.2027 4.0701 -2.2819 0.9694
-7.4131 2.3961 -2.3963 0.9679
-7.6860 1.0354 -2.3854 0.9681
-7.7302 0.3446 -2.3800 0.9681
-7.6342 -1.0305 -2.3694 0.9683
-7.4956 -1.7040 -2.3643 0.9683
-7.2984 -2.3612 -2.3594 0.9684
-7.3490 -3.1267 -2.4565 0.9671
-6.6519 -4.3674 -2.4475 0.9672
-6.2255 -4.9356 -2.4436 0.9673
-5.7516 -5.4633 -2.4400 0.9673
-5.2342 -5.9469 -2.4367 0.9674
-4.6772 -6.3830 -2.4339 0.9674
-3.4618 -7.1001 -2.4296 0.9675
-2.8127 -7.3763 -2.4281 0.9675
-0.7426 -7.6943 -2.3776 0.9682
0.5645 -6.8256 -2.1066 0.9717
1.2947 -7.4589 -2.3285 0.9688
4.4151 -6.2017 -2.3415 0.9686
6.3512 -4.2957 -2.3584 0.9684
7.0432 -3.1112 -2.3683 0.9683
7.3088 -2.4757 -2.3735 0.9682
7.6671 -1.1421 -2.3843 0.9681
7.7833 0.2402 -2.3951 0.9679
7.7482 0.9359 -2.4005 0.9679
7.8150 2.4083 -2.5153 0.9664
7.2915 3.7743 -2.5254 0.9662
6.5275 5.0282 -2.5343 0.9661
6.0621 5.5994 -2.5383 0.9661
4.9833 6.6053 -2.5450 0.9660
4.3786 7.0311 -2.5477 0.9659
3.0636 7.7093 -2.5516 0.9659
-2.6213 7.4904 -2.4409 0.9673
-4.2704 6.1792 -2.3103 0.9691
-7.5345 1.9335 -2.3925 0.9680
-7.6596 1.2505 -2.3871 0.9680
-7.2067 -2.8312 -2.3815 0.9681
-7.1339 -3.5673 -2.4533 0.9672
-6.7749 -4.1822 -2.4489 0.9672
-6.3640 -4.7622 -2.4448 0.9673
-5.9046 -5.3030 -2.4410 0.9673
-5.4003 -5.8008 -2.4377 0.9674
-4.2735 -6.6535 -2.4322 0.9674
-3.6596 -7.0023 -2.4302 0.9675
-2.3538 -7.5328 -2.4274 0.9675
-0.9768 -7.8284 -2.4265 0.9675
1.7511 -7.3690 -2.3297 0.9688
2.4039 -7.1897 -2.3317 0.9688
3.0392 -6.9540 -2.3342 0.9687
4.7927 -5.9254 -2.3441 0.9686
5.3113 -5.4833 -2.3480 0.9686
6.6123 -3.9031 -2.3617 0.9684
6.9489 -3.3044 -2.3667 0.9683
7.4585 -2.0254 -2.3772 0.9682
7.6268 -1.3547 -2.3826 0.9681
7.7348 -0.6702 -2.3880 0.9680
7.6878 1.4120 -2.4041 0.9678
7.8740 2.1877 -2.5136 0.9664
7.6633 2.8877 -2.5188 0.9663
7.3896 3.5671 -2.5238 0.9662
7.0550 4.2202 -2.5286 0.9662
5.7125 5.9669 -2.5408 0.9660
2.5687 7.8347 -2.5360 0.9661
1.7944 7.7524 -2.4475 0.9672
1.0955 7.8825 -2.4478 0.9672
-0.3231 7.9486 -2.4468 0.9673
-1.0306 7.8840 -2.4456 0.9673
-3.0739 7.3097 -2.4390 0.9674
-1.9828 3.7405 -1.3021 0.9824
-4.1240 6.3389 -2.3260 0.9688
-9.1269 9.6895 -4.0942 0.9458
-7.4829 2.1446 -2.3942 0.9679
-7.6271 1.4650 -2.3888 0.9680
-7.7308 0.0853 -2.3780 0.9682
-7.4284 -1.9526 -2.3624 0.9684
-7.2098 -2.6024 -2.3576 0.9684
-7.2350 -3.3687 -2.4547 0.9672
-6.8928 -3.9936 -2.4502 0.9672
-5.5625 -5.6501 -2.4387 0.9674
-3.8546 -6.8991 -2.4308 0.9675
-3.2212 -7.2104 -2.4290 0.9675
0.8760 -7.5167 -2.3276 0.9688
5.6450 -5.1533 -2.3510 0.9685
7.5806 -1.5661 -2.3809 0.9681
7.7076 -0.8853 -2.3863 0.9681
7.7736 -0.1944 -2.3917 0.9680
7.9268 1.9657 -2.5120 0.9664
6.7908 4.6511 -2.5317 0.9661
4.1420 7.1763 -2.5485 0.9659
2.0100 7.6986 -2.4473 0.9673
1.3152 7.8487 -2.4477 0.9672
0.6095 7.9346 -2.4477 0.9672
-0.1010 7.9554 -2.4471 0.9673
-0.8102 7.9112 -2.4460 0.9673
-2.2004 7.6298 -2.4424 0.9673
-2.8696 7.3953 -2.4399 0.9673
-1.8759 3.7909 -1.3009 0.9825
-6.2310 4.0391 -2.2840 0.9694
-6.6873 3.5306 -2.3259 0.9688
-7.5886 1.6785 -2.3905 0.9680
-7.7308 0.3014 -2.3796 0.9681
-7.7096 -0.3889 -2.3743 0.9682
-7.4850 -1.7456 -2.3640 0.9683
-7.2842 -2.4016 -2.3591 0.9684
-6.6267 -4.4040 -2.4473 0.9673
-4.6412 -6.4085 -2.4338 0.9674
-2.7713 -7.3917 -2.4281 0.9675
-0.6949 -7.6472 -2.3618 0.9684
-0.0096 -7.5634 -2.3263 0.9688
0.6657 -7.5370 -2.3272 0.9688
1.9977 -7.3085 -2.3304 0.9688
2.6444 -7.1079 -2.3326 0.9688
4.4501 -6.1775 -2.3417 0.9686
5.4958 -5.3058 -2.3496 0.9685
6.7446 -3.6823 -2.3635 0.9684
7.0614 -3.0722 -2.3686 0.9683
7.3236 -2.4352 -2.3738 0.9682
7.6744 -1.0994 -2.3846 0.9681
7.7596 -0.4111 -2.3900 0.9680
7.7830 0.2837 -2.3955 0.9679
6.0313 5.6337 -2.5385 0.9661
4.3395 7.0558 -2.5478 0.9659
3.6956 7.4213 -2.5500 0.9659
3.0206 7.7265 -2.5517 0.9659
1.5338 7.8087 -2.4477 0.9672
0.1212 7.9559 -2.4473 0.9672
-1.2939 7.8432 -2.4450 0.9673
-5.6005 9.7603 -3.4612 0.9540
-4.2994 6.1475 -2.3074 0.9691
-7.9955 9.4992 -3.8190 0.9494
-7.6654 1.2075 -2.3868 0.9680
-7.7228 -0.1736 -2.3760 0.9682
-7.5358 -1.5370 -2.3656 0.9683
-7.2618 -2.8998 -2.4050 0.9678
-4.8199 -6.2786 -2.4346 0.9674
-4.2360 -6.6768 -2.4321 0.9675
-2.9772 -7.3126 -2.4285 0.9675
-1.6286 -7.7198 -2.4267 0.9675
-0.9331 -7.8337 -2.4265 0.9675
-0.2208 -7.5595 -2.3261 0.9688
0.4549 -7.5516 -2.3269 0.9688
1.1276 -7.4847 -2.3281 0.9688
3.6897 -6.6433 -2.3373 0.9687
4.2738 -6.2964 -2.3406 0.9687
4.8262 -5.8991 -2.3443 0.9686
5.3425 -5.4542 -2.3483 0.9686
7.2477 -2.6368 -2.3722 0.9682
7.4708 -1.9840 -2.3775 0.9682
7.6353 -1.3123 -2.3829 0.9681
7.7396 -0.6272 -2.3883 0.9680
7.7628 0.7622 -2.3992 0.9679
7.6808 1.4551 -2.4045 0.9678
7.8627 2.2320 -2.5140 0.9664
6.1834 5.4605 -2.5373 0.9661
5.6796 5.9992 -2.5410 0.9660
3.9004 7.3134 -2.5494 0.9659
1.0515 7.8885 -2.4478 0.9672
0.3433 7.9500 -2.4475 0.9672
-0.3675 7.9464 -2.4468 0.9673
-2.4540 7.5490 -2.4415 0.9673
-4.6102 5.7984 -2.2785 0.9695
-9.2563 9.7175 -4.1279 0.9454
-7.4937 2.1025 -2.3939 0.9680
-7.7129 0.7335 -2.3830 0.9681
-7.7301 0.0422 -2.3776 0.9682
-7.5808 -1.3269 -2.3671 0.9683
-7.1942 -2.6423 -2.3573 0.9684
-5.5304 -5.6806 -2.4385 0.9674
-4.9951 -6.1438 -2.4355 0.9674
-3.8158 -6.9202 -2.4306 0.9675
-3.1808 -7.2280 -2.4289 0.9675
-1.8436 -7.6717 -2.4268 0.9675
0.9180 -7.5119 -2.3277 0.9688
1.5858 -7.4049 -2.3292 0.9688
2.2421 -7.2399 -2.3312 0.9688
3.5013 -6.7410 -2.3364 0.9687
4.0945 -6.4104 -2.3396 0.9687
4.6572 -6.0285 -2.3431 0.9686
5.1853 -5.5981 -2.3470 0.9686
5.6743 -5.1222 -2.3512 0.9685
6.1205 -4.6042 -2.3557 0.9685
6.8697 -3.4570 -2.3654 0.9683
7.1663 -2.8362 -2.3706 0.9683
7.7135 -0.8424 -2.3866 0.9680
7.7757 -0.1510 -2.3921 0.9680
7.7757 0.5447 -2.3975 0.9679
7.4638 3.3995 -2.5226 0.9663
6.7655 4.6895 -2.5319 0.9661
5.8424 5.8357 -2.5399 0.9660
5.3053 6.3423 -2.5433 0.9660
4.7236 6.7983 -2.5462 0.9659
4.1020 7.1997 -2.5487 0.9659
3.4459 7.5429 -2.5507 0.9659
2.7606 7.8249 -2.5522 0.9659
1.9670 7.7099 -2.4473 0.9672
1.2713 7.8560 -2.4478 0.9672
-0.1454 7.9545 -2.4471 0.9673
-1.5555 7.7933 -2.4443 0.9673
-2.9106 7.3787 -2.4397 0.9674
-1.8870 3.7604 -1.2941 0.9825
-6.0135 9.7111 -3.5132 0.9533
-7.1526 9.5306 -3.6651 0.9514
-8.6240 9.5754 -3.9636 0.9475
-6.2595 4.0080 -2.2861 0.9694
-7.4373 2.3125 -2.3956 0.9679
-7.7062 -0.4319 -2.3740 0.9682
-6.1688 -5.0038 -2.4431 0.9673
-4.6050 -6.4340 -2.4336 0.9674
-4.0086 -6.8127 -2.4313 0.9675
-2.7299 -7.4068 -2.4280 0.9675
-2.0572 -7.6179 -2.4270 0.9675
-1.3690 -7.7696 -2.4266 0.9675
-0.6481 -7.6018 -2.3466 0.9686
1.3780 -7.4446 -2.3287 0.9688
2.0386 -7.2976 -2.3305 0.9688
4.4849 -6.1532 -2.3420 0.9686
5.0243 -5.7377 -2.3458 0.9686
5.5259 -5.2756 -2.3499 0.9685
5.9859 -4.7704 -2.3543 0.9685
6.4004 -4.2255 -2.3590 0.9684
7.0795 -3.0332 -2.3689 0.9683
7.3381 -2.3946 -2.3742 0.9682
7.7629 -0.3678 -2.3904 0.9680
7.7823 0.3272 -2.3958 0.9679
7.7896 2.4961 -2.5159 0.9663
7.5512 3.1879 -2.5211 0.9663
6.4722 5.1018 -2.5348 0.9661
6.0003 5.6678 -2.5387 0.9660
4.3003 7.0804 -2.5480 0.9659
2.1813 7.6512 -2.4471 0.9673
-0.6334 7.9283 -2.4463 0.9673
-1.3376 7.8355 -2.4449 0.9673
-2.0299 7.6788 -2.4430 0.9673
-4.3284 6.1160 -2.3046 0.9691
-8.0929 9.5065 -3.8401 0.9491
-5.6659 4.6461 -2.2537 0.9698
-7.1365 3.1763 -2.4026 0.9678
-7.3751 2.5211 -2.3973 0.9679
-7.5535 1.8487 -2.3919 0.9680
-7.7206 -0.2167 -2.3756 0.9682
-7.6535 -0.9028 -2.3704 0.9683
-7.3300 -2.9745 -2.4331 0.9674
-7.0919 -3.6459 -2.4527 0.9672
-6.3092 -4.8319 -2.4443 0.9673
-5.8439 -5.3676 -2.4406 0.9673
-5.3344 -5.8598 -2.4373 0.9674
-3.5808 -7.0421 -2.4299 0.9675
-1.5854 -7.7286 -2.4267 0.9675
-0.1785 -7.5608 -2.3262 0.9688
0.4499 -6.8323 -2.1060 0.9718
1.1695 -7.4786 -2.3282 0.9688
1.8335 -7.3498 -2.3299 0.9688
2.4844 -7.1633 -2.3320 0.9688
4.3093 -6.2730 -2.3409 0.9687
5.8469 -4.9327 -2.3529 0.9685
6.6572 -3.8300 -2.3623 0.9684
6.9873 -3.2275 -2.3673 0.9683
7.2633 -2.5967 -2.3725 0.9682
7.4828 -1.9425 -2.3778 0.9682
7.6436 -1.2699 -2.3832 0.9681
7.7441 -0.5840 -2.3887 0.9680
7.3511 3.6503 -2.5245 0.9662
6.6087 4.9166 -2.5335 0.9661
5.6465 6.0314 -2.5412 0.9660
5.0922 6.5194 -2.5444 0.9660
3.8597 7.3354 -2.5495 0.9659
2.4247 7.6844 -2.4784 0.9668
1.7077 7.7721 -2.4476 0.9672
-1.8152 7.7345 -2.4436 0.9673
-4.1828 6.2748 -2.3195 0.9689
-4.6385 5.7675 -2.2765 0.9695
-9.3875 9.7458 -4.1620 0.9449
-6.4312 3.8204 -2.3008 0.9692
-7.3069 2.7280 -2.3990 0.9679
-7.6408 1.3792 -2.3881 0.9680
-7.7158 0.6903 -2.3827 0.9681
-7.6810 -0.6892 -2.3720 0.9682
-7.5723 -1.3690 -2.3668 0.9683
-7.4042 -2.0350 -2.3618 0.9684
-7.1784 -2.6821 -2.3570 0.9684
-6.8462 -4.0695 -2.4497 0.9672
-6.4448 -4.6563 -2.4455 0.9673
-5.9942 -5.2047 -2.4417 0.9673
-5.4981 -5.7109 -2.4383 0.9674
-3.1402 -7.2453 -2.4288 0.9675
-2.4798 -7.4928 -2.4276 0.9675
-1.8007 -7.6818 -2.4268 0.9675
-0.3896 -7.5523 -2.3260 0.9688
0.9600 -7.5070 -2.3278 0.9688
1.6272 -7.3963 -2.3293 0.9688
2.2827 -7.2277 -2.3313 0.9688
2.9216 -7.0024 -2.3337 0.9687
3.5392 -6.7219 -2.3366 0.9687
4.1306 -6.3880 -2.3398 0.9687
4.6913 -6.0030 -2.3434 0.9686
6.1469 -4.5705 -2.3560 0.9685
6.5434 -4.0118 -2.3608 0.9684
7.1830 -2.7966 -2.3709 0.9683
7.4204 -2.1491 -2.3762 0.9682
7.7192 -0.7994 -2.3870 0.9680
7.7071 1.2824 -2.4032 0.9678
7.4456 3.4416 -2.5229 0.9663
7.1223 4.1000 -2.5277 0.9662
6.7399 4.7277 -2.5322 0.9661
6.3014 5.3190 -2.5363 0.9661
5.8102 5.8688 -2.5401 0.9660
4.6859 6.8250 -2.5464 0.9659
3.4038 7.5624 -2.5508 0.9659
1.9240 7.7208 -2.4474 0.9672
-0.8985 7.9011 -2.4459 0.9673
-1.5989 7.7841 -2.4442 0.9673
-2.2853 7.6038 -2.4421 0.9673
-2.9516 7.3617 -2.4395 0.9674
-6.0830 9.7019 -3.5221 0.9532
-7.2272 9.5188 -3.6760 0.9512
-8.7473 9.6039 -3.9956 0.9471
-7.4491 2.2707 -2.3953 0.9679
-7.6047 1.5932 -2.3898 0.9680
-7.7026 -0.4748 -2.3736 0.9682
-5.9574 -0.9060 -1.8534 0.9751
-7.4630 -1.8286 -2.3634 0.9684
-7.2551 -2.4822 -2.3585 0.9684
-7.2930 -3.2482 -2.4556 0.9671
-6.9610 -3.8788 -2.4510 0.9672
-6.5757 -4.4768 -2.4468 0.9673
-6.1401 -5.0377 -2.4429 0.9673
-5.1326 -6.0324 -2.4362 0.9674
-4.5687 -6.4592 -2.4334 0.9674
-2.0146 -7.6291 -2.4270 0.9675
-0.6017 -7.5570 -2.3317 0.9688
0.0749 -7.5633 -2.3264 0.9688
0.7499 -7.5296 -2.3274 0.9688
2.7240 -7.0788 -2.3329 0.9688
5.0568 -5.7101 -2.3460 0.9686
6.4247 -4.1902 -2.3593 0.9684
7.5501 -1.6921 -2.3799 0.9681
7.9554 1.8318 -2.5109 0.9664
7.7766 2.5399 -2.5163 0.9663
7.5342 3.2304 -2.5214 0.9663
6.4443 5.1384 -2.5351 0.9661
5.9691 5.7017 -2.5390 0.9660
5.4439 6.2202 -2.5425 0.9660
4.2609 7.1047 -2.5481 0.9659
3.6129 7.4628 -2.5502 0.9659
2.9343 7.7603 -2.5518 0.9659
2.1386 7.6634 -2.4472 0.9673
1.4465 7.8254 -2.4477 0.9672
0.0298 7.3479 -2.4425 0.9695
-0.6258 7.3186 -2.4416 0.9695
-2.5364 6.8761 -2.4362 0.9696
-3.7097 6.3009 -2.4305 0.9696
-4.2512 5.9364 -2.4271 0.9697
-4.7567 5.5248 -2.4234 0.9697
-5.6437 4.5755 -2.4151 0.9698
-6.0183 4.0460 -2.4106 0.9699
-6.8337 2.2935 -2.3961 0.9701
-6.9965 1.6710 -2.3911 0.9701
-7.0795 -0.8752 -2.3712 0.9704
-6.8401 -2.8204 -2.4594 0.9693
-5.8200 -4.5092 -2.4473 0.9694
-3.8565 -6.2314 -2.4360 0.9696
-2.6837 -6.8086 -2.4327 0.9696
-0.1268 -7.0371 -2.3396 0.9708
1.7376 -6.8033 -2.3341 0.9708
2.3398 -6.6268 -2.3361 0.9708
2.9249 -6.3981 -2.3384 0.9708
5.8356 -4.0426 -2.3598 0.9705
6.4864 -2.9523 -2.3689 0.9704
6.7377 -2.3664 -2.3738 0.9703
7.1999 0.1417 -2.3938 0.9701
7.1734 0.7853 -2.3987 0.9700
7.0412 2.7889 -2.5174 0.9686
6.4560 4.0103 -2.5263 0.9685
6.0820 4.5777 -2.5304 0.9684
5.6575 5.1097 -2.5340 0.9684
5.1857 5.6015 -2.5374 0.9683
4.6705 6.0490 -2.5403 0.9683
0.2350 7.3448 -2.4427 0.9695
-0.4213 7.3342 -2.4419 0.9695
-1.7164 7.1340 -2.4390 0.9695
-2.9516 6.7025 -2.4344 0.9696
-3.5337 6.4046 -2.4315 0.9696
-5.0812 5.2165 -2.4206 0.9698
-5.5169 4.7339 -2.4164 0.9698
-6.2470 3.6640 -2.4073 0.9699
-6.5360 3.0857 -2.4025 0.9700
-6.7714 2.4850 -2.3976 0.9701
-6.9516 1.8669 -2.3926 0.9701
-7.1057 -0.6776 -2.3727 0.9704
-7.0027 -1.3064 -2.3679 0.9704
-6.9201 -2.6298 -2.4608 0.9693
-6.3205 -3.8049 -2.4523 0.9694
-5.0651 -5.3203 -2.4418 0.9695
-4.5649 -5.7445 -2.4390 0.9695
-4.0301 -6.1230 -2.4366 0.9696
-3.4648 -6.4530 -2.4346 0.9696
-2.2599 -6.9584 -2.4320 0.9696
-0.9865 -7.2466 -2.4310 0.9696
-0.3332 -7.2475 -2.4117 0.9699
2.7442 -6.4751 -2.3377 0.9708
4.3780 -5.5381 -2.3466 0.9707
4.8624 -5.1333 -2.3503 0.9706
5.7172 -4.2016 -2.3584 0.9705
6.0807 -3.6815 -2.3629 0.9705
6.6647 -2.5520 -2.3722 0.9704
7.0414 -1.3321 -2.3821 0.9702
7.1963 -0.0593 -2.3922 0.9701
7.3008 1.9409 -2.5111 0.9687
6.5620 3.8265 -2.5250 0.9685
6.2044 4.4040 -2.5291 0.9684
5.7954 4.9475 -2.5329 0.9684
4.8359 5.9142 -2.5395 0.9683
4.2933 6.3288 -2.5421 0.9683
2.4688 7.2551 -2.5474 0.9682
1.0929 7.2677 -2.4430 0.9695
-0.8705 7.2921 -2.4412 0.9695
-2.1499 7.0111 -2.4376 0.9696
-3.9167 6.1699 -2.4293 0.9697
-4.9362 5.3591 -2.4219 0.9698
-6.1460 3.8393 -2.4088 0.9699
-6.4513 3.2690 -2.4041 0.9700
-6.7037 2.6748 -2.3992 0.9700
-6.9013 2.0616 -2.3942 0.9701
-7.0429 1.4345 -2.3892 0.9702
-7.1278 0.7986 -2.3841 0.9702
-7.1556 0.1589 -2.3791 0.9703
-5.9628 -0.9409 -2.0066 0.9749
-6.7759 -2.3606 -2.3851 0.9702
-6.4275 -3.6288 -2.4535 0.9694
-5.6626 -4.6991 -2.4460 0.9695
-5.2137 -5.1788 -2.4427 0.9695
-4.7251 -5.6167 -2.4398 0.9695
-4.2007 -6.0098 -2.4373 0.9696
-3.6445 -6.3552 -2.4352 0.9696
-1.1885 -7.2163 -2.4311 0.9696
-0.5398 -7.2938 -2.4311 0.9696
0.7342 -6.9760 -2.3317 0.9709
1.3545 -6.8866 -2.3330 0.9708
1.9652 -6.7433 -2.3348 0.9708
2.5615 -6.5471 -2.3369 0.9708
3.1389 -6.2992 -2.3394 0.9708
3.6931 -6.0013 -2.3423 0.9707
5.1742 -4.8305 -2.3530 0.9706
5.5945 -4.3571 -2.3571 0.9706
6.3037 -3.3056 -2.3660 0.9704
6.5867 -2.7353 -2.3707 0.9704
6.8184 -2.1410 -2.3756 0.9703
6.9969 -1.5272 -2.3806 0.9703
7.1202 -0.8985 -2.3856 0.9702
7.1871 -0.2601 -2.3906 0.9701
7.1774 2.3886 -2.5145 0.9686
5.9285 4.7816 -2.5318 0.9684
4.9974 5.7747 -2.5385 0.9683
4.4670 6.2045 -2.5413 0.9683
3.2984 6.9114 -2.5456 0.9682
2.6700 7.1823 -2.5471 0.9682
1.9597 7.1769 -2.4730 0.9691
-0.6667 7.3147 -2.4415 0.9695
-1.3160 7.2219 -2.4401 0.9695
-1.9538 7.0703 -2.4383 0.9696
-2.5746 6.8614 -2.4360 0.9696
-3.1732 6.5970 -2.4334 0.9696
-3.7445 6.2796 -2.4303 0.9697
-5.2498 5.0400 -2.4191 0.9698
-5.6685 4.5433 -2.4148 0.9698
-7.0048 1.6317 -2.3908 0.9701
-7.1530 0.3589 -2.3807 0.9703
-6.7717 -2.1491 -2.3616 0.9705
-6.5298 -3.4497 -2.4548 0.9694
-5.3584 -5.0332 -2.4437 0.9695
-4.8818 -5.4845 -2.4407 0.9695
-4.3682 -5.8920 -2.4381 0.9696
-3.8214 -6.2525 -2.4358 0.9696
-3.2458 -6.5637 -2.4340 0.9696
-2.6456 -6.8233 -2.4326 0.9696
-2.0253 -7.0294 -2.4316 0.9696
-1.3896 -7.1805 -2.4311 0.9696
-0.7432 -7.2757 -2.4311 0.9696
1.1615 -6.9204 -2.3326 0.9709
2.3770 -6.6140 -2.3362 0.9708
4.0584 -5.7686 -2.3445 0.9707
5.0347 -4.9705 -2.3517 0.9706
6.2051 -3.4783 -2.3646 0.9705
7.0263 2.8285 -2.5177 0.9686
6.7581 3.4505 -2.5223 0.9685
6.4341 4.0467 -2.5266 0.9685
6.0569 4.6121 -2.5306 0.9684
4.6370 6.0754 -2.5405 0.9683
2.8690 7.1038 -2.5467 0.9682
2.2246 7.3348 -2.5478 0.9682
1.4969 7.1950 -2.4429 0.9695
0.1939 7.3459 -2.4427 0.9695
-0.4622 7.3315 -2.4419 0.9695
-1.1141 7.2573 -2.4406 0.9695
-3.5692 6.3843 -2.4313 0.9696
-4.1190 6.0321 -2.4280 0.9697
-4.6339 5.6319 -2.4243 0.9697
-5.1097 5.1874 -2.4204 0.9698
-5.5426 4.7025 -2.4162 0.9698
-6.2666 3.6286 -2.4071 0.9699
-6.9611 1.8278 -2.3923 0.9701
-7.0815 1.1968 -2.3873 0.9702
-6.6271 -3.2678 -2.4561 0.9693
-6.2985 -3.8397 -2.4520 0.9694
-5.9215 -4.3797 -2.4482 0.9694
-5.4992 -4.8837 -2.4447 0.9695
-5.0349 -5.3481 -2.4416 0.9695
-3.9956 -6.1451 -2.4365 0.9696
-2.2210 -6.9708 -2.4319 0.9696
2.7805 -6.4600 -2.3378 0.9708
3.8941 -5.8771 -2.3435 0.9707
4.4093 -5.5141 -2.3469 0.9707
4.8915 -5.1066 -2.3505 0.9706
5.3366 -4.6575 -2.3545 0.9706
6.1019 -3.6479 -2.3631 0.9705
6.6797 -2.5150 -2.3725 0.9704
7.1975 -0.0192 -2.3925 0.9701
7.0984 2.6296 -2.5163 0.9686
6.8480 3.2586 -2.5209 0.9685
6.1804 4.4390 -2.5294 0.9684
5.7682 4.9803 -2.5332 0.9684
5.3079 5.4825 -2.5366 0.9683
-0.9112 7.2869 -2.4411 0.9695
-1.5569 7.1719 -2.4395 0.9695
-3.9508 6.1474 -2.4290 0.9697
-4.9655 5.3309 -2.4216 0.9698
-5.8135 4.3479 -2.4131 0.9699
-6.1666 3.8044 -2.4085 0.9699
-6.4687 3.2326 -2.4038 0.9700
-6.7177 2.6370 -2.3989 0.9700
-6.9118 2.0228 -2.3939 0.9701
-7.1554 0.1190 -2.3788 0.9703
-7.0337 -1.1503 -2.3691 0.9704
-6.8232 -2.4199 -2.4065 0.9699
-6.7194 -3.0831 -2.4575 0.9693
-5.6358 -4.7303 -2.4458 0.9695
-5.1843 -5.2074 -2.4425 0.9695
-4.6934 -5.6427 -2.4397 0.9695
-4.1668 -6.0328 -2.4372 0.9696
-1.7884 -7.0926 -2.4314 0.9696
0.7731 -6.9720 -2.3317 0.9709
3.1743 -6.2820 -2.3396 0.9708
3.7269 -5.9811 -2.3425 0.9707
4.2517 -5.6324 -2.3458 0.9707
5.2017 -4.8021 -2.3532 0.9706
5.6193 -4.3263 -2.3574 0.9705
5.9941 -3.8146 -2.3617 0.9705
6.3228 -3.2708 -2.3663 0.9704
6.6027 -2.6989 -2.3710 0.9704
7.3387 1.7764 -2.5099 0.9687
6.6430 3.6774 -2.5239 0.9685
6.2988 4.2626 -2.5281 0.9684
5.9023 4.8151 -2.5320 0.9684
2.6299 7.1973 -2.5471 0.9682
1.9019 7.1216 -2.4502 0.9694
-1.3563 7.2142 -2.4400 0.9695
-1.9932 7.0589 -2.4382 0.9696
-2.6127 6.8464 -2.4359 0.9696
-3.2097 6.5786 -2.4332 0.9696
-5.6931 4.5111 -2.4145 0.9698
-6.0616 3.9775 -2.4100 0.9699
-6.3799 3.4141 -2.4053 0.9700
-6.6457 2.8254 -2.4004 0.9700
-7.1119 0.9581 -2.3854 0.9702
-7.0675 -0.9540 -2.3706 0.9704
-6.9403 -1.5778 -2.3659 0.9704
-6.5097 -3.4857 -2.4546 0.9694
-5.7682 -4.5731 -2.4469 0.9694
-5.3298 -5.0627 -2.4435 0.9695
-3.2089 -6.5815 -2.4339 0.9696
-1.9859 -7.0404 -2.4316 0.9696
-0.7026 -7.2798 -2.4311 0.9696
1.2001 -6.9141 -2.3326 0.9709
2.4140 -6.6010 -2.3363 0.9708
2.9966 -6.3659 -2.3388 0.9708
4.5942 -5.3663 -2.3482 0.9707
5.4933 -4.4790 -2.3560 0.9706
6.2252 -3.4439 -2.3649 0.9705
6.5206 -2.8803 -2.3695 0.9704
7.0946 -1.0568 -2.3843 0.9702
7.1997 0.2222 -2.3944 0.9701
7.1660 0.8656 -2.3993 0.9700
6.7395 3.4885 -2.5226 0.9685
6.4121 4.0830 -2.5268 0.9685
6.0316 4.6462 -2.5308 0.9684
5.6010 5.1734 -2.5345 0.9684
4.6033 6.1016 -2.5407 0.9683
4.0444 6.4944 -2.5431 0.9683
3.4514 6.8348 -2.5452 0.9682
2.8294 7.1200 -2.5467 0.9682
2.1837 7.3472 -2.5478 0.9682
1.4567 7.2033 -2.4429 0.9695
-0.5032 7.3286 -2.4418 0.9695
-1.1546 7.2507 -2.4405 0.9695
-1.7958 7.1137 -2.4388 0.9695
-2.4213 6.9189 -2.4366 0.9696
-3.6045 6.3637 -2.4311 0.9696
-4.1523 6.0084 -2.4278 0.9697
-4.6649 5.6054 -2.4241 0.9697
-5.1381 5.1583 -2.4201 0.9698
-5.5682 4.6710 -2.4159 0.9698
-5.9517 4.1478 -2.4114 0.9699
-6.5684 3.0117 -2.4019 0.9700
-6.9702 1.7887 -2.3920 0.9701
-7.0871 1.1570 -2.3870 0.9702
-7.0959 -0.7567 -2.3721 0.9704
-6.8212 -1.9983 -2.3627 0.9705
-6.2763 -3.8744 -2.4518 0.9694
-5.4713 -4.9139 -2.4445 0.9695
-5.0046 -5.3757 -2.4414 0.9695
-3.9610 -6.1670 -2.4363 0.9696
-2.1820 -6.9830 -2.4318 0.9696
-0.9055 -7.2572 -2.4310 0.9696
0.3826 -7.0024 -2.3311 0.9709
1.0065 -6.9436 -2.3322 0.9709
2.2281 -6.6639 -2.3357 0.9708
2.8167 -6.4449 -2.3380 0.9708
3.9271 -5.8558 -2.3437 0.9707
4.4404 -5.4899 -2.3471 0.9707
5.7651 -4.1384 -2.3590 0.9705
6.1229 -3.6142 -2.3634 0.9705
7.1984 0.0210 -2.3928 0.9701
7.2011 0.6664 -2.4039 0.9700
7.2804 2.0228 -2.5117 0.9687
5.7408 5.0128 -2.5334 0.9684
4.2229 6.3771 -2.5424 0.9683
3.0266 7.0370 -2.5463 0.9682
1.6571 7.1594 -2.4427 0.9695
1.0117 7.2795 -2.4430 0.9695
0.3580 7.3401 -2.4428 0.9695
-2.2278 6.9858 -2.4374 0.9696
-2.8395 6.7524 -2.4349 0.9696
-1.9819 3.7388 -1.4066 0.9823
-4.9947 5.3025 -2.4214 0.9698
-5.4386 4.8273 -2.4172 0.9698
-6.1870 3.7695 -2.4082 0.9699
-6.4858 3.1960 -2.4035 0.9700
-6.7314 2.5991 -2.3986 0.9700
-7.0567 1.3554 -2.3885 0.9702
-6.8785 -1.8081 -2.3641 0.9705
-6.8804 -2.4835 -2.4315 0.9696
-6.7014 -3.1203 -2.4572 0.9693
-6.3853 -3.6996 -2.4530 0.9694
-6.0201 -4.2479 -2.4491 0.9694
-5.6088 -4.7612 -2.4456 0.9695
-5.1547 -5.2359 -2.4423 0.9695
-4.6614 -5.6684 -2.4395 0.9695
-4.1328 -6.0556 -2.4370 0.9696
-2.9859 -6.6838 -2.4333 0.9696
-2.3764 -6.9201 -2.4321 0.9696
-1.7488 -7.1023 -2.4314 0.9696
-1.1078 -7.2291 -2.4310 0.9696
-0.4583 -7.2995 -2.4312 0.9696
0.1869 -7.0096 -2.3308 0.9709
1.4315 -6.8717 -2.3332 0.9708
2.0406 -6.7217 -2.3350 0.9708
2.6348 -6.5188 -2.3372 0.9708
3.2095 -6.2646 -2.3398 0.9708
3.7605 -5.9606 -2.3427 0.9707
4.2834 -5.6091 -2.3460 0.9707
4.7742 -5.2124 -2.3496 0.9706
5.2290 -4.7735 -2.3535 0.9706
5.6440 -4.2953 -2.3576 0.9705
6.0160 -3.7815 -2.3620 0.9705
6.8437 -2.0653 -2.3762 0.9703
7.3461 1.1383 -2.4710 0.9692
6.6231 3.7148 -2.5242 0.9685
5.8758 4.8484 -2.5322 0.9684
5.4273 5.3609 -2.5358 0.9684
3.8257 6.6283 -2.5440 0.9683
3.2213 6.9484 -2.5458 0.9682
0.5629 7.3276 -2.4429 0.9695
-0.0933 7.3470 -2.4424 0.9695
-0.7483 7.3064 -2.4414 0.9695
-1.3965 7.2062 -2.4399 0.9695
-2.0324 7.0473 -2.4380 0.9696
-2.6507 6.8313 -2.4357 0.9696
-3.8138 6.2363 -2.4299 0.9697
-4.3489 5.8627 -2.4264 0.9697
-4.8472 5.4427 -2.4226 0.9697
-5.3046 4.9800 -2.4186 0.9698
-6.3981 3.3779 -2.4050 0.9700
-6.8685 2.1778 -2.3951 0.9701
-7.0207 1.5529 -2.3901 0.9701
-7.1547 0.2789 -2.3801 0.9703
-6.4895 -3.5217 -2.4543 0.9694
-5.7421 -4.6048 -2.4466 0.9695
-5.3010 -5.0919 -2.4433 0.9695
-4.8196 -5.5380 -2.4403 0.9695
-3.7510 -6.2942 -2.4356 0.9696
-3.1720 -6.5990 -2.4338 0.9696
-0.6619 -7.2836 -2.4311 0.9696
0.6171 -6.9867 -2.3315 0.9709
2.4510 -6.5878 -2.3365 0.9708
3.5912 -6.0608 -2.3418 0.9707
4.6245 -5.3411 -2.3484 0.9707
5.0910 -4.9150 -2.3522 0.9706
6.2451 -3.4095 -2.3651 0.9705
6.5374 -2.8442 -2.3698 0.9704
6.7790 -2.2541 -2.3747 0.9703
7.1014 -1.0173 -2.3846 0.9702
7.1789 -0.3803 -2.3897 0.9702
7.1993 0.2624 -2.3947 0.9701
7.3728 1.6112 -2.5086 0.9687
6.9959 2.9075 -2.5183 0.9686
6.3898 4.1192 -2.5271 0.9685
6.0062 4.6803 -2.5311 0.9684
5.5725 5.2051 -2.5347 0.9684
4.5694 6.1276 -2.5408 0.9683
4.0082 6.5172 -2.5433 0.9683
3.4133 6.8543 -2.5453 0.9682
0.7672 7.3092 -2.4430 0.9695
-1.1950 7.2438 -2.4404 0.9695
-1.8354 7.1032 -2.4387 0.9695
-2.4597 6.9048 -2.4365 0.9696
-4.6956 5.5787 -2.4239 0.9697
-6.3052 3.5575 -2.4065 0.9699
-6.9792 1.7495 -2.3917 0.9701
-7.1488 0.4789 -2.3816 0.9703
-7.1481 -0.1607 -2.3767 0.9703
-6.8092 -2.0361 -2.3624 0.9705
-6.8727 -2.7444 -2.4599 0.9693
-6.5888 -3.3409 -2.4556 0.9693
-5.8711 -4.4447 -2.4478 0.9694
-4.4671 -5.8191 -2.4385 0.9696
-1.5097 -7.1564 -2.4312 0.9696
0.4217 -7.0003 -2.3312 0.9709
1.0452 -6.9381 -2.3323 0.9709
1.6613 -6.8217 -2.3338 0.9708
2.2654 -6.6517 -2.3358 0.9708
2.8528 -6.4294 -2.3381 0.9708
3.9601 -5.8343 -2.3439 0.9707
4.4715 -5.4655 -2.3473 0.9707
4.9492 -5.0526 -2.3510 0.9706
5.3895 -4.5986 -2.3550 0.9706
5.7887 -4.1066 -2.3592 0.9705
6.1437 -3.5804 -2.3637 0.9705
6.7091 -2.4409 -2.3732 0.9704
6.9145 -1.8363 -2.3781 0.9703
7.0655 -1.2144 -2.3831 0.9702
7.1799 0.7049 -2.3981 0.9700
7.4103 1.4039 -2.5070 0.9687
7.2699 2.0637 -2.5120 0.9686
6.8127 3.3356 -2.5214 0.9685
6.4990 3.9371 -2.5258 0.9685
5.2471 5.5424 -2.5370 0.9683
4.7372 5.9956 -2.5400 0.9683
4.1875 6.4009 -2.5426 0.9683
3.6025 6.7548 -2.5447 0.9682
2.3470 7.2959 -2.5476 0.9682
1.6171 7.1686 -2.4428 0.9695
0.9711 7.2850 -2.4430 0.9695
0.3170 7.3419 -2.4428 0.9695
-0.3393 7.3388 -2.4421 0.9695
-0.9925 7.2758 -2.4409 0.9695
-1.6367 7.1534 -2.4393 0.9695
-2.2667 6.9729 -2.4372 0.9696
-2.8770 6.7359 -2.4347 0.9696
-3.4625 6.4447 -2.4319 0.9696
-4.5403 5.7104 -2.4250 0.9697
-5.0237 5.2740 -2.4211 0.9698
-5.4649 4.7963 -2.4170 0.9698
-5.8604 4.2817 -2.4126 0.9699
-6.2072 3.7344 -2.4079 0.9699
-6.5028 3.1593 -2.4032 0.9700
-6.7450 2.5612 -2.3983 0.9700
-6.9322 1.9450 -2.3933 0.9701
-7.1544 0.0390 -2.3782 0.9703
-7.0186 -1.2284 -2.3685 0.9704
-6.9402 -2.5490 -2.4576 0.9693
-6.6831 -3.1573 -2.4569 0.9693
-6.3639 -3.7348 -2.4528 0.9694
-5.9957 -4.2810 -2.4489 0.9694
-4.6294 -5.6940 -2.4393 0.9695
-4.0987 -6.0783 -2.4369 0.9696
-3.5370 -6.4145 -2.4349 0.9696
-2.9485 -6.7001 -2.4333 0.9696
-2.3376 -6.9331 -2.4321 0.9696
-0.4175 -7.3020 -2.4312 0.9696
0.2261 -7.0086 -2.3309 0.9709
1.4699 -6.8638 -2.3333 0.9708
2.0782 -6.7105 -2.3351 0.9708
3.2447 -6.2470 -2.3400 0.9708
3.7941 -5.9400 -2.3429 0.9707
4.8038 -5.1862 -2.3498 0.9706
6.0377 -3.7483 -2.3623 0.9705
6.3605 -3.2008 -2.3669 0.9704
7.0243 -1.4103 -2.3815 0.9703
7.1371 -0.7794 -2.3865 0.9702
7.1389 2.5095 -2.5154 0.9686
4.3632 6.2796 -2.5418 0.9683
3.7888 6.6500 -2.5441 0.9683
3.1826 6.9665 -2.5459 0.9682
2.5495 7.2266 -2.5473 0.9682
1.1740 7.2550 -2.4430 0.9695
0.5219 7.3306 -2.4429 0.9695
-2.0717 7.0354 -2.4379 0.9696
-2.6886 6.8159 -2.4356 0.9696
-1.8866 3.7596 -1.3982 0.9824
-4.3812 5.8378 -2.4262 0.9697
-4.8770 5.4150 -2.4224 0.9697
-6.1042 3.9086 -2.4094 0.9699
-6.4160 3.3418 -2.4047 0.9700
-6.8797 2.1391 -2.3948 0.9701
-7.1203 0.8784 -2.3848 0.9702
-7.1552 0.2389 -2.3798 0.9703
-5.9513 -0.8711 -1.9993 0.9750
-6.7324 -2.2614 -2.3608 0.9705
-6.7724 -2.9711 -2.4583 0.9693
-6.4690 -3.5575 -2.4540 0.9694
-3.7156 -6.3147 -2.4355 0.9696
-2.5306 -6.8660 -2.4324 0.9696
-1.2691 -7.2027 -2.4311 0.9696
-0.6212 -7.2872 -2.4311 0.9696
0.0303 -7.0115 -2.3307 0.9709
0.6561 -6.9833 -2.3315 0.9709
1.2774 -6.9008 -2.3328 0.9709
2.4879 -6.5744 -2.3366 0.9708
3.6252 -6.0412 -2.3419 0.9707
4.1556 -5.7013 -2.3451 0.9707
5.1189 -4.8870 -2.3525 0.9706
5.5442 -4.4184 -2.3566 0.9706
6.5540 -2.8081 -2.3701 0.9704
6.7923 -2.2165 -2.3750 0.9703
6.9775 -1.6048 -2.3799 0.9703
7.1987 0.3027 -2.3950 0.9701
7.3647 1.6526 -2.5089 0.9687
7.2019 2.3078 -2.5139 0.9686
6.9803 2.9469 -2.5186 0.9686
6.7015 3.5644 -2.5231 0.9685
5.5438 5.2366 -2.5349 0.9684
1.3761 7.2192 -2.4429 0.9695
-0.5849 7.3222 -2.4417 0.9695
-1.2354 7.2367 -2.4403 0.9695
-2.4981 6.8906 -2.4363 0.9696
-3.0997 6.6330 -2.4337 0.9696
-3.6747 6.3220 -2.4307 0.9696
-4.2184 5.9606 -2.4273 0.9697
-4.7263 5.5518 -2.4236 0.9697
-5.1942 5.0995 -2.4196 0.9698
-5.6187 4.6075 -2.4153 0.9698
-5.9963 4.0800 -2.4108 0.9699
-6.5999 2.9375 -2.4013 0.9700
-6.8217 2.3319 -2.3964 0.9701
-6.9879 1.7102 -2.3914 0.9701
-7.0977 1.0775 -2.3863 0.9702
-6.8565 -2.7824 -2.4597 0.9693
-6.5693 -3.3773 -2.4553 0.9693
-5.8457 -4.4770 -2.4475 0.9694
-4.9435 -5.4305 -2.4411 0.9695
-4.4343 -5.8436 -2.4384 0.9696
-3.8915 -6.2101 -2.4361 0.9696
-3.3192 -6.5276 -2.4342 0.9696
-0.1671 -7.0760 -2.3528 0.9706
1.0841 -6.9324 -2.3324 0.9709
2.8889 -6.4138 -2.3383 0.9708
3.4538 -6.1376 -2.3410 0.9708
3.9930 -5.8126 -2.3441 0.9707
5.8123 -4.0747 -2.3595 0.9705
6.1644 -3.5465 -2.3640 0.9705
6.7235 -2.4037 -2.3735 0.9704
6.9255 -1.7979 -2.3784 0.9703
7.0731 -1.1751 -2.3834 0.9702
7.1996 0.1015 -2.3934 0.9701
7.4033 1.4454 -2.5074 0.9687
7.2591 2.1045 -2.5123 0.9686
6.7947 3.3740 -2.5217 0.9685
6.4776 3.9737 -2.5261 0.9685
6.1069 4.5432 -2.5301 0.9684
5.2165 5.5721 -2.5372 0.9683
3.5649 6.7751 -2.5448 0.9682
2.9480 7.0708 -2.5465 0.9682
0.2760 7.3435 -2.4427 0.9695
-1.0330 7.2698 -2.4408 0.9695
-1.6766 7.1438 -2.4392 0.9695
-2.3054 6.9597 -2.4371 0.9696
-2.9143 6.7193 -2.4346 0.9696
-4.0521 6.0788 -2.4284 0.9697
-4.5717 5.6844 -2.4248 0.9697
-5.4909 4.7652 -2.4167 0.9698
-6.5195 3.1226 -2.4029 0.9700
-6.9420 1.9060 -2.3930 0.9701
-7.1401 0.6388 -2.3829 0.9702
-7.1536 -0.0009 -2.3779 0.9703
-7.1103 -0.6380 -2.3730 0.9704
-6.8562 -1.8843 -2.3636 0.9705
-6.6646 -3.1942 -2.4567 0.9693
-6.3423 -3.7699 -2.4525 0.9694
-5.9711 -4.3141 -2.4487 0.9694
-4.0644 -6.1007 -2.4368 0.9696
-3.5009 -6.4338 -2.4347 0.9696
-2.2988 -6.9459 -2.4320 0.9696
-0.3763 -7.2947 -2.4280 0.9697
0.2652 -7.0074 -2.3309 0.9709
0.8899 -6.9588 -2.3320 0.9709
1.5083 -6.8558 -2.3334 0.9708
2.7078 -6.4899 -2.3375 0.9708
3.2798 -6.2293 -2.3401 0.9708
4.3466 -5.5620 -2.3464 0.9707
5.2831 -4.7158 -2.3540 0.9706
5.6930 -4.2330 -2.3582 0.9705
6.0593 -3.7150 -2.3626 0.9705
6.3791 -3.1656 -2.3672 0.9704
7.1423 -0.7397 -2.3868 0.9702
7.1901 0.5441 -2.3969 0.9701
7.4361 1.2373 -2.5058 0.9687
7.3106 1.8998 -2.5108 0.9687
6.5826 3.7893 -2.5247 0.9685
6.2283 4.3688 -2.5289 0.9684
5.8224 4.9146 -2.5327 0.9684
3.7518 6.6713 -2.5442 0.9683
2.5091 7.2410 -2.5474 0.9682
-0.1754 7.3452 -2.4423 0.9695
-0.8298 7.2971 -2.4412 0.9695
-1.9025 3.7390 -1.3945 0.9825
-3.8825 6.1923 -2.4295 0.9697
-5.3587 4.9194 -2.4180 0.9698
-5.7659 4.4136 -2.4137 0.9699
-7.1555 0.1990 -2.3795 0.9703
-5.9497 -0.9049 -2.0005 0.9750
-6.9104 -1.6932 -2.3650 0.9705
-6.7294 -2.3024 -2.3642 0.9705
-6.7549 -3.0085 -2.4580 0.9693
-6.4484 -3.5932 -2.4538 0.9694
-6.0922 -4.1476 -2.4498 0.9694
-5.6893 -4.6679 -2.4462 0.9695
-4.7568 -5.5907 -2.4400 0.9695
-4.2344 -5.9866 -2.4375 0.9696
-3.0979 -6.6335 -2.4336 0.9696
-2.4922 -6.8799 -2.4323 0.9696
-1.8676 -7.0724 -2.4315 0.9696
0.6951 -6.9798 -2.3316 0.9709
1.9274 -6.7538 -2.3346 0.9708
2.5247 -6.5608 -2.3368 0.9708
3.1035 -6.3161 -2.3393 0.9708
3.6592 -6.0213 -2.3421 0.9707
5.9497 -3.8804 -2.3612 0.9705
6.8055 -2.1788 -2.3753 0.9703
7.1846 -0.3002 -2.3903 0.9701
7.1978 0.3429 -2.3953 0.9701
7.2245 0.9958 -2.4242 0.9697
6.9646 2.9861 -2.5189 0.9686
6.6822 3.6021 -2.5234 0.9685
6.3447 4.1911 -2.5276 0.9685
5.5149 5.2679 -2.5351 0.9684
5.0292 5.7463 -2.5383 0.9683
3.9356 6.5623 -2.5436 0.9683
3.3368 6.8926 -2.5455 0.9682
2.7100 7.1671 -2.5470 0.9682
2.0189 7.2345 -2.4967 0.9688
0.0276 6.8186 -2.4384 0.9714
-1.7767 6.5721 -2.4346 0.9715
-2.3541 6.3819 -2.4325 0.9715
-2.9113 6.1401 -2.4301 0.9715
-3.4437 5.8490 -2.4273 0.9716
-3.9468 5.5112 -2.4241 0.9716
-5.2414 4.2493 -2.4129 0.9717
-6.1463 2.6945 -2.3999 0.9719
-6.3501 2.1312 -2.3953 0.9719
-6.5023 1.5530 -2.3907 0.9720
-6.6020 0.9646 -2.3860 0.9721
-6.6487 0.3708 -2.3813 0.9721
-6.6424 -0.2235 -2.3767 0.9722
-6.5833 -0.8139 -2.3722 0.9722
-6.4424 -2.0051 -2.4129 0.9717
-6.0938 -3.1760 -2.4574 0.9712
-5.7772 -3.7014 -2.4536 0.9713
-4.0970 -5.4621 -2.4417 0.9714
-1.3311 -6.6781 -2.4351 0.9715
-0.7298 -6.7700 -2.4350 0.9715
0.4654 -6.5129 -2.3350 0.9726
1.0453 -6.4484 -2.3361 0.9726
1.6176 -6.3334 -2.3376 0.9726
2.7225 -5.9554 -2.3417 0.9726
5.7525 -3.2669 -2.3657 0.9723
6.2650 -2.2004 -2.3746 0.9722
6.5818 -1.0557 -2.3838 0.9721
6.6628 -0.4650 -2.3885 0.9720
6.7113 0.1321 -2.4005 0.9719
6.9537 0.7613 -2.5016 0.9707
6.8711 1.3814 -2.5063 0.9707
5.9946 3.7237 -2.5236 0.9705
4.8136 5.1996 -2.5339 0.9703
4.3350 5.6144 -2.5366 0.9703
3.8202 5.9844 -2.5389 0.9703
2.6991 6.5772 -2.5424 0.9703
1.4262 6.6686 -2.4387 0.9714
0.8255 6.7698 -2.4388 0.9714
0.2180 6.8157 -2.4386 0.9714
-0.3910 6.8059 -2.4379 0.9715
-0.9963 6.7408 -2.4367 0.9715
-1.5929 6.6207 -2.4352 0.9715
-2.7396 6.2211 -2.4309 0.9715
-3.2802 5.9451 -2.4282 0.9716
-3.7929 5.6216 -2.4251 0.9716
-5.1234 4.3963 -2.4142 0.9717
-5.8030 3.4036 -2.4058 0.9718
-6.2919 2.3090 -2.3968 0.9719
-6.6398 0.5567 -2.3828 0.9721
-6.6074 -0.6301 -2.3736 0.9722
-6.5126 -1.2150 -2.3691 0.9722
-5.5336 -4.0452 -2.4512 0.9713
-5.1437 -4.5168 -2.4480 0.9713
-4.2492 -5.3472 -2.4424 0.9714
-3.7516 -5.6999 -2.4402 0.9714
-3.2255 -6.0074 -2.4384 0.9714
-2.6749 -6.2675 -2.4369 0.9715
-2.1040 -6.4784 -2.4359 0.9715
-0.3128 -6.8025 -2.4352 0.9715
0.8647 -6.4740 -2.3357 0.9726
2.5544 -6.0272 -2.3409 0.9726
3.0853 -5.7813 -2.3434 0.9725
4.0742 -5.1536 -2.3493 0.9725
5.9497 -2.9112 -2.3687 0.9723
6.1974 -2.3731 -2.3732 0.9722
6.5458 -1.2383 -2.3823 0.9721
6.6432 -0.6505 -2.3870 0.9720
6.6878 -0.0551 -2.3917 0.9720
6.8116 0.5537 -2.4439 0.9714
6.9029 1.1883 -2.5048 0.9707
6.6058 2.4053 -2.5140 0.9706
6.3757 2.9903 -2.5183 0.9705
5.7606 4.0889 -2.5262 0.9704
4.9551 5.0613 -2.5329 0.9704
3.9847 5.8738 -2.5383 0.9703
2.8812 6.4981 -2.5420 0.9703
1.0142 6.7441 -2.4388 0.9714
-0.2008 6.8150 -2.4381 0.9715
-1.4077 6.6641 -2.4357 0.9715
-1.9953 6.5069 -2.4339 0.9715
-3.6360 5.7277 -2.4261 0.9716
-4.1270 5.3731 -2.4228 0.9716
-5.0012 4.5400 -2.4155 0.9717
-5.3774 4.0687 -2.4114 0.9718
-5.9934 3.0370 -2.4027 0.9719
-6.2287 2.4853 -2.3982 0.9719
-6.5458 1.3333 -2.3889 0.9720
-6.6257 0.7423 -2.3842 0.9721
-6.6525 0.1478 -2.3796 0.9721
-6.4176 -1.6105 -2.3661 0.9723
-6.5068 -2.2669 -2.4640 0.9712
-6.2679 -2.8337 -2.4599 0.9712
-5.9805 -3.3764 -2.4560 0.9712
-5.6469 -3.8908 -2.4523 0.9713
-5.2699 -4.3732 -2.4489 0.9713
-4.8525 -4.8201 -2.4459 0.9714
-3.9103 -5.5944 -2.4409 0.9714
-0.5026 -6.7908 -2.4351 0.9715
1.2610 -6.4112 -2.3366 0.9726
2.3844 -6.0943 -2.3402 0.9726
2.9217 -5.8631 -2.3426 0.9726
4.3872 -4.8986 -2.3516 0.9725
5.5550 -3.5789 -2.3631 0.9723
5.8628 -3.0744 -2.3673 0.9723
6.3397 -1.9907 -2.3763 0.9722
6.6184 -0.8352 -2.3856 0.9721
6.9293 0.9945 -2.5034 0.9707
6.4533 2.8097 -2.5170 0.9705
5.8698 3.9247 -2.5251 0.9704
5.0925 4.9191 -2.5320 0.9704
4.6386 5.3602 -2.5349 0.9703
3.6187 6.1109 -2.5397 0.9703
1.8737 6.8620 -2.5437 0.9702
1.2021 6.7130 -2.4388 0.9714
0.5982 6.7935 -2.4388 0.9714
-0.0104 6.8185 -2.4384 0.9714
-1.8133 6.5618 -2.4345 0.9715
-2.3896 6.3683 -2.4324 0.9715
-3.4760 5.8293 -2.4271 0.9716
-4.8749 4.6802 -2.4167 0.9717
-5.9097 3.2050 -2.4041 0.9718
-6.1606 2.6598 -2.3996 0.9719
-6.3611 2.0954 -2.3950 0.9719
-6.6065 0.9276 -2.3857 0.9721
-6.5779 -0.8505 -2.3719 0.9722
-6.4637 -1.4315 -2.3675 0.9723
-6.3479 -2.6590 -2.4612 0.9712
-5.3922 -4.2261 -2.4500 0.9713
-3.0217 -6.1106 -2.4378 0.9715
-1.8856 -6.5445 -2.4356 0.9715
-1.2937 -6.6853 -2.4351 0.9715
-0.0847 -6.8097 -2.4354 0.9715
1.0813 -6.4427 -2.3362 0.9726
1.6530 -6.3246 -2.3377 0.9726
2.2126 -6.1568 -2.3396 0.9726
3.7769 -5.3685 -2.3473 0.9725
4.6845 -4.6248 -2.3541 0.9724
6.4586 -1.5998 -2.3794 0.9721
6.5884 -1.0191 -2.3841 0.9721
6.8640 1.4199 -2.5066 0.9707
6.5257 2.6270 -2.5156 0.9706
6.2758 3.2042 -2.5199 0.9705
5.9742 3.7575 -2.5239 0.9705
5.6234 4.2819 -2.5276 0.9704
4.7848 5.2268 -2.5341 0.9703
3.7869 6.0060 -2.5391 0.9703
3.2382 6.3247 -2.5410 0.9703
2.6625 6.5923 -2.5425 0.9702
1.3890 6.6766 -2.4387 0.9714
0.7877 6.7743 -2.4388 0.9714
0.1800 6.8167 -2.4385 0.9714
-1.0339 6.7349 -2.4366 0.9715
-1.6298 6.6114 -2.4351 0.9715
-2.2114 6.4344 -2.4331 0.9715
-2.7742 6.2053 -2.4307 0.9715
-3.3131 5.9263 -2.4280 0.9716
-3.8240 5.5999 -2.4249 0.9716
-5.1473 4.3672 -2.4140 0.9717
-6.4691 1.6987 -2.3918 0.9720
-6.5820 1.1124 -2.3872 0.9720
-6.6489 -0.0752 -2.3778 0.9721
-6.5049 -1.2512 -2.3688 0.9723
-6.3558 -1.8234 -2.3646 0.9723
-5.8607 -3.5728 -2.4546 0.9713
-5.1179 -4.5451 -2.4478 0.9713
-4.2190 -5.3705 -2.4423 0.9714
-2.6398 -6.2822 -2.4368 0.9715
-2.0678 -6.4899 -2.4358 0.9715
-1.4800 -6.6469 -2.4352 0.9715
-0.8808 -6.7519 -2.4350 0.9715
-0.2748 -6.8042 -2.4352 0.9715
0.9008 -6.4693 -2.3358 0.9726
1.4755 -6.3669 -2.3372 0.9726
2.0393 -6.2145 -2.3390 0.9726
2.5881 -6.0132 -2.3411 0.9726
4.5514 -4.7515 -2.3529 0.9724
5.6756 -3.3931 -2.3647 0.9723
6.4075 -1.7784 -2.3780 0.9721
6.6475 -0.6134 -2.3873 0.9720
6.8488 0.5953 -2.4584 0.9712
6.7725 1.8410 -2.5098 0.9706
6.5929 2.4424 -2.5143 0.9706
6.3595 3.0262 -2.5186 0.9705
6.0739 3.5874 -2.5226 0.9705
5.7381 4.1214 -2.5264 0.9704
5.3549 4.6234 -2.5300 0.9704
4.4582 5.5148 -2.5360 0.9703
3.9521 5.8963 -2.5384 0.9703
3.4128 6.2305 -2.5404 0.9703
2.2533 6.7454 -2.5432 0.9702
0.9765 6.7496 -2.4388 0.9714
0.3703 6.8094 -2.4387 0.9714
-0.8456 6.7622 -2.4371 0.9715
-2.0315 6.4954 -2.4337 0.9715
-2.6006 6.2824 -2.4315 0.9715
-3.6676 5.7068 -2.4259 0.9716
-5.0260 4.5115 -2.4152 0.9717
-5.3994 4.0382 -2.4111 0.9718
-6.0095 3.0031 -2.4025 0.9719
-6.2417 2.4502 -2.3979 0.9719
-6.4231 1.8798 -2.3933 0.9720
-6.5524 1.2965 -2.3886 0.9720
-6.5411 -1.0697 -2.3702 0.9722
-6.4078 -1.6462 -2.3659 0.9723
-6.4933 -2.3029 -2.4638 0.9712
-6.2514 -2.8684 -2.4596 0.9712
-5.6246 -3.9220 -2.4521 0.9713
-5.2450 -4.4022 -2.4487 0.9713
-4.8252 -4.8467 -2.4457 0.9714
-4.3686 -5.2523 -2.4430 0.9714
-2.8147 -6.2070 -2.4372 0.9715
-2.2484 -6.4304 -2.4361 0.9715
-1.6651 -6.6034 -2.4353 0.9715
-1.0690 -6.7248 -2.4350 0.9715
0.1418 -6.7287 -2.4068 0.9718
1.2968 -6.4043 -2.3367 0.9726
1.8645 -6.2674 -2.3384 0.9726
2.4185 -6.0813 -2.3404 0.9726
2.9546 -5.8471 -2.3428 0.9726
3.4686 -5.5666 -2.3455 0.9725
4.4149 -4.8745 -2.3518 0.9724
4.8397 -4.4679 -2.3554 0.9724
5.2276 -4.0247 -2.3593 0.9724
6.5133 -1.3835 -2.3812 0.9721
6.9244 1.0333 -2.5037 0.9707
6.8173 1.6502 -2.5083 0.9706
6.1687 3.4148 -2.5214 0.9705
5.8483 3.9578 -2.5253 0.9704
5.4796 4.4702 -2.5289 0.9704
4.6089 5.3864 -2.5351 0.9703
4.1140 5.7820 -2.5377 0.9703
3.5846 6.1313 -2.5398 0.9703
2.4405 6.6790 -2.5429 0.9702
1.1646 6.7196 -2.4388 0.9714
-0.0485 6.8182 -2.4383 0.9715
-1.2587 6.6949 -2.4361 0.9715
-1.8498 6.5512 -2.4344 0.9715
-3.5082 5.8093 -2.4269 0.9716
-4.0074 5.4659 -2.4237 0.9716
-4.9005 4.6524 -2.4164 0.9717
-5.9268 3.1716 -2.4038 0.9718
-6.1746 2.6251 -2.3993 0.9719
-6.6508 0.2965 -2.3807 0.9721
-6.6378 -0.2977 -2.3761 0.9722
-6.5723 -0.8871 -2.3716 0.9722
-6.4549 -1.4674 -2.3672 0.9723
-6.3323 -2.6941 -2.4609 0.9712
-6.0568 -3.2432 -2.4569 0.9712
-2.4274 -6.3659 -2.4364 0.9715
-0.6541 -6.7777 -2.4350 0.9715
-0.0467 -6.8101 -2.4354 0.9715
1.6884 -6.3155 -2.3378 0.9726
2.7892 -5.9254 -2.3420 0.9726
3.3106 -5.6591 -2.3446 0.9725
3.8071 -5.3478 -2.3475 0.9725
4.7107 -4.5990 -2.3543 0.9724
5.4713 -3.7005 -2.3621 0.9723
5.7900 -3.2032 -2.3663 0.9723
6.2906 -2.1308 -2.3751 0.9722
6.4682 -1.5639 -2.3797 0.9721
6.6905 0.2065 -2.3937 0.9720
6.7116 2.0683 -2.5115 0.9706
6.5117 2.6637 -2.5159 0.9706
5.9537 3.7911 -2.5241 0.9705
5.5998 4.3136 -2.5278 0.9704
4.7559 5.2538 -2.5342 0.9703
4.2725 5.6632 -2.5369 0.9703
3.2030 6.3430 -2.5411 0.9703
2.0264 6.8180 -2.5436 0.9702
0.7498 6.7785 -2.4388 0.9714
0.1419 6.8175 -2.4385 0.9714
-0.4669 6.8008 -2.4377 0.9715
-1.0715 6.7287 -2.4366 0.9715
-1.6666 6.6019 -2.4350 0.9715
-2.2473 6.4216 -2.4329 0.9715
-3.3459 5.9073 -2.4278 0.9716
-4.3312 5.2044 -2.4213 0.9716
-4.7711 4.7898 -2.4176 0.9717
-5.1711 4.3379 -2.4137 0.9717
-5.8393 3.3377 -2.4052 0.9718
-6.3158 2.2381 -2.3962 0.9719
-6.4777 1.6623 -2.3915 0.9720
-6.5873 1.0755 -2.3869 0.9720
-6.6440 0.4824 -2.3822 0.9721
-6.6476 -0.1123 -2.3776 0.9722
-6.3448 -1.8587 -2.3643 0.9723
-5.8401 -3.6051 -2.4543 0.9713
-5.4871 -4.1060 -2.4508 0.9713
-5.0921 -4.5733 -2.4476 0.9713
-4.1887 -5.3936 -2.4421 0.9714
-3.6873 -5.7408 -2.4399 0.9714
-2.0315 -6.5012 -2.4358 0.9715
-1.4428 -6.6550 -2.4352 0.9715
-0.8431 -6.7567 -2.4350 0.9715
-0.2368 -6.8057 -2.4352 0.9715
0.9370 -6.4644 -2.3359 0.9726
1.5111 -6.3588 -2.3373 0.9726
2.0741 -6.2034 -2.3391 0.9726
3.1501 -5.7473 -2.3437 0.9725
4.5783 -4.7265 -2.3532 0.9724
5.9833 -2.8452 -2.3693 0.9722
6.2250 -2.3043 -2.3737 0.9722
6.6517 -0.5764 -2.3876 0.9720
6.6896 0.0196 -2.3923 0.9720
6.8875 0.6374 -2.4736 0.9710
6.7629 1.8790 -2.5101 0.9706
6.5799 2.4795 -2.5145 0.9706
6.3432 3.0620 -2.5188 0.9705
6.0544 3.6217 -2.5229 0.9705
5.7156 4.1538 -2.5267 0.9704
3.9193 5.9186 -2.5385 0.9703
3.3782 6.2497 -2.5405 0.9703
2.8087 6.5304 -2.5421 0.9703
1.5598 6.7387 -2.4735 0.9710
0.9388 6.7550 -2.4389 0.9714
0.3322 6.8113 -2.4387 0.9714
-0.2769 6.8120 -2.4380 0.9715
-0.8833 6.7572 -2.4370 0.9715
-1.9810 3.7370 -1.5125 0.9822
-3.6991 5.6858 -2.4257 0.9716
-4.1860 5.3257 -2.4224 0.9716
-6.2546 2.4150 -2.3976 0.9719
-6.5587 1.2598 -2.3883 0.9720
-6.6194 -0.5195 -2.3744 0.9722
-6.4096 -1.6848 -2.3700 0.9722
-4.7977 -4.8733 -2.4455 0.9714
-3.3261 -5.9533 -2.4387 0.9714
-2.2124 -6.4427 -2.4360 0.9715
-1.6282 -6.6125 -2.4353 0.9715
0.7560 -6.4870 -2.3355 0.9726
2.9874 -5.8309 -2.3429 0.9726
3.9862 -5.2199 -2.3487 0.9725
4.8650 -4.4412 -2.3557 0.9724
5.2506 -3.9959 -2.3595 0.9724
5.5959 -3.5174 -2.3636 0.9723
6.5217 -1.3473 -2.3815 0.9721
6.6835 -0.1671 -2.3908 0.9720
6.7134 0.4327 -2.4057 0.9718
6.6429 2.2935 -2.5132 0.9706
6.4229 2.8822 -2.5175 0.9705
5.4550 4.5011 -2.5291 0.9704
5.0380 4.9764 -2.5324 0.9704
4.5791 5.4124 -2.5353 0.9703
4.0819 5.8052 -2.5378 0.9703
3.5505 6.1516 -2.5400 0.9703
2.9894 6.4482 -2.5417 0.9703
2.4033 6.6927 -2.5430 0.9702
1.7970 6.8828 -2.5438 0.9702
1.1270 6.7260 -2.4388 0.9714
-0.6944 6.7803 -2.4374 0.9715
-1.2960 6.6875 -2.4360 0.9715
-1.8863 6.5405 -2.4342 0.9715
-1.8750 3.7892 -1.5119 0.9822
-4.5006 5.0536 -2.4200 0.9717
-5.3101 4.1595 -2.4122 0.9718
-6.5250 1.4433 -2.3898 0.9720
-6.4459 -1.5033 -2.3669 0.9723
-6.0380 -3.2767 -2.4567 0.9712
-5.7128 -3.7967 -2.4530 0.9713
-5.3438 -4.2854 -2.4495 0.9713
-4.4860 -5.1547 -2.4437 0.9714
-1.8123 -6.5649 -2.4355 0.9715
-1.2190 -6.6993 -2.4351 0.9715
-0.0086 -6.8104 -2.4354 0.9715
1.1533 -6.4307 -2.3364 0.9726
1.7237 -6.3063 -2.3379 0.9726
2.2815 -6.1324 -2.3398 0.9726
3.8373 -5.3269 -2.3477 0.9725
4.3033 -4.9701 -2.3510 0.9725
5.1343 -4.1388 -2.3583 0.9724
5.4925 -3.6703 -2.3623 0.9723
5.8084 -3.1712 -2.3665 0.9723
6.0795 -2.6450 -2.3709 0.9722
6.3032 -2.0959 -2.3754 0.9722
6.4776 -1.5280 -2.3800 0.9721
6.6010 -0.9457 -2.3847 0.9721
6.6721 -0.3535 -2.3894 0.9720
6.6901 0.2438 -2.3940 0.9720
6.9425 0.8780 -2.5025 0.9707
6.7007 2.1060 -2.5118 0.9706
6.2409 3.2748 -2.5204 0.9705
5.9330 3.8247 -2.5243 0.9705
5.1730 4.8320 -2.5314 0.9704
4.2411 5.6873 -2.5371 0.9703
3.1677 6.3610 -2.5412 0.9703
2.5888 6.6221 -2.5426 0.9702
0.1038 6.8181 -2.4385 0.9714
-0.5049 6.7979 -2.4377 0.9715
-2.8429 6.1731 -2.4304 0.9715
-4.3598 5.1797 -2.4211 0.9716
-4.7973 4.7626 -2.4174 0.9717
-5.1947 4.3085 -2.4135 0.9717
-6.1173 2.7637 -2.4005 0.9719
-6.4861 1.6259 -2.3912 0.9720
-6.5924 1.0385 -2.3866 0.9720
-6.6461 -0.1494 -2.3773 0.9722
-6.5936 -0.7405 -2.3727 0.9722
-6.4891 -1.3235 -2.3683 0.9723
-6.3607 -1.9019 -2.3741 0.9722
-6.1301 -3.1083 -2.4579 0.9712
-5.8193 -3.6374 -2.4541 0.9713
-5.4636 -4.1362 -2.4506 0.9713
-4.6298 -5.0291 -2.4445 0.9714
-3.1240 -6.0598 -2.4380 0.9715
-2.5693 -6.3108 -2.4367 0.9715
0.3926 -6.5174 -2.3349 0.9726
0.9731 -6.4593 -2.3359 0.9726
1.5466 -6.3506 -2.3374 0.9726
3.1824 -5.7300 -2.3439 0.9725
3.6855 -5.4298 -2.3468 0.9725
4.1610 -5.0860 -2.3499 0.9725
5.3849 -3.8202 -2.3611 0.9723
5.9997 -2.8121 -2.3695 0.9722
6.4285 -1.7072 -2.3786 0.9721
6.5680 -1.1289 -2.3832 0.9721
6.6902 0.0569 -2.3926 0.9720
6.9267 0.6801 -2.4889 0.9709
6.7530 1.9170 -2.5104 0.9706
6.3267 3.0977 -2.5191 0.9705
6.0346 3.6558 -2.5231 0.9705
5.6928 4.1859 -2.5269 0.9704
4.3969 5.5650 -2.5363 0.9703
3.8864 5.9408 -2.5387 0.9703
3.3433 6.2688 -2.5407 0.9703
2.7722 6.5462 -2.5422 0.9703
1.5093 6.6907 -2.4528 0.9713
0.9011 6.7601 -2.4389 0.9714
-1.5190 6.6387 -2.4354 0.9715
-3.2141 5.9823 -2.4285 0.9716
-3.7305 5.6646 -2.4255 0.9716
-4.2153 5.3018 -2.4222 0.9716
-5.4430 3.9767 -2.4106 0.9718
-6.0413 2.9351 -2.4019 0.9719
-6.5649 1.2230 -2.3880 0.9720
-6.6348 0.6310 -2.3834 0.9721
-6.6516 0.0363 -2.3787 0.9721
-6.3875 -1.7173 -2.3653 0.9723
-6.4658 -2.3748 -2.4632 0.9712
-5.1946 -4.4598 -2.4483 0.9713
-4.7701 -4.8996 -2.4454 0.9714
-3.8154 -5.6582 -2.4405 0.9714
-2.7450 -6.2376 -2.4371 0.9715
-2.1763 -6.4548 -2.4360 0.9715
-1.5912 -6.6214 -2.4353 0.9715
-0.9938 -6.7362 -2.4350 0.9715
-0.3887 -6.7984 -2.4351 0.9715
0.2145 -6.6507 -2.3796 0.9721
2.4866 -6.0546 -2.3407 0.9726
3.0201 -5.8146 -2.3431 0.9725
4.0156 -5.1980 -2.3489 0.9725
4.8902 -4.4144 -2.3559 0.9724
5.2733 -3.9669 -2.3598 0.9724
5.6160 -3.4865 -2.3639 0.9723
5.9155 -2.9768 -2.3682 0.9723
6.1690 -2.4415 -2.3726 0.9722
6.3745 -1.8849 -2.3771 0.9722
6.6851 -0.1298 -2.3911 0.9720
6.9141 1.1109 -2.5042 0.9707
6.6308 2.3309 -2.5134 0.9706
5.8048 4.0236 -2.5258 0.9704
5.4302 4.5319 -2.5293 0.9704
5.0105 5.0048 -2.5326 0.9704
4.5491 5.4382 -2.5355 0.9703
4.0496 5.8283 -2.5380 0.9703
2.3659 6.7062 -2.5430 0.9702
0.4843 6.8024 -2.4387 0.9714
-0.7322 6.7761 -2.4373 0.9715
-2.4955 6.3262 -2.4319 0.9715
-1.8862 3.7588 -1.5039 0.9823
-3.5723 5.7689 -2.4265 0.9716
-4.9512 4.5965 -2.4159 0.9717
-5.3327 4.1294 -2.4119 0.9718
-6.2021 2.5553 -2.3988 0.9719
-6.3930 1.9878 -2.3942 0.9720
-6.6325 -0.3717 -2.3756 0.9722
-6.4367 -1.5391 -2.3667 0.9723
-6.5331 -2.1945 -2.4646 0.9711
-6.0190 -3.3100 -2.4564 0.9712
-5.6910 -3.8282 -2.4527 0.9713
-5.3193 -4.3148 -2.4493 0.9713
-4.4569 -5.1793 -2.4435 0.9714
-3.4589 -5.8785 -2.4391 0.9714
-2.3560 -6.3923 -2.4363 0.9715
-1.7756 -6.5749 -2.4354 0.9715
-0.5784 -6.7847 -2.4351 0.9715
0.0294 -6.8105 -2.4355 0.9715
0.6132 -6.5263 -2.3441 0.9725
1.1892 -6.4244 -2.3364 0.9726
1.7590 -6.2969 -2.3380 0.9726
2.3159 -6.1199 -2.3400 0.9726
2.8556 -5.8946 -2.3423 0.9726
3.3741 -5.6226 -2.3449 0.9725
4.3314 -4.9464 -2.3512 0.9725
5.1578 -4.1105 -2.3586 0.9724
5.5135 -3.6400 -2.3626 0.9723
6.0949 -2.6113 -2.3712 0.9722
6.4868 -1.4920 -2.3803 0.9721
6.6748 -0.3162 -2.3896 0.9720
6.6894 0.2813 -2.3943 0.9720
6.9383 0.9168 -2.5028 0.9707
6.6895 2.1436 -2.5120 0.9706
5.5523 4.3767 -2.5282 0.9704
4.6976 5.3073 -2.5346 0.9703
3.1322 6.3789 -2.5413 0.9703
2.5519 6.6366 -2.5427 0.9702
1.9502 6.8404 -2.5437 0.9702
1.2793 6.7114 -2.4433 0.9714
0.6741 6.7865 -2.4388 0.9714
0.0658 6.8184 -2.4384 0.9714
-1.1465 6.7159 -2.4364 0.9715
-1.7401 6.5823 -2.4347 0.9715
-2.3185 6.3953 -2.4327 0.9715
-2.8772 6.1567 -2.4302 0.9715
-4.3882 5.1547 -2.4209 0.9717
-4.8233 4.7353 -2.4172 0.9717
-5.5695 3.7896 -2.4090 0.9718
-5.8749 3.2716 -2.4047 0.9718
-6.1319 2.7292 -2.4002 0.9719
-6.3389 2.1669 -2.3956 0.9719
-6.4943 1.5894 -2.3910 0.9720
-6.5973 1.0015 -2.3863 0.9721
-6.6473 0.4081 -2.3816 0.9721
-6.4808 -1.3595 -2.3680 0.9723
-6.4012 -1.9530 -2.3933 0.9720
-6.1121 -3.1422 -2.4576 0.9712
-5.4400 -4.1663 -2.4504 0.9713
-5.0399 -4.6292 -2.4472 0.9713
-4.6013 -5.0546 -2.4443 0.9714
-4.1276 -5.4395 -2.4418 0.9714
-3.0900 -6.0769 -2.4380 0.9715
-2.5340 -6.3249 -2.4366 0.9715
-1.3684 -6.6706 -2.4351 0.9715
-0.7676 -6.7658 -2.4350 0.9715
1.0092 -6.4540 -2.3360 0.9726
1.5821 -6.3421 -2.3375 0.9726
2.1435 -6.1805 -2.3393 0.9726
3.7161 -5.4095 -2.3470 0.9725
5.0385 -4.2507 -2.3573 0.9724
5.4067 -3.7904 -2.3613 0.9723
6.0161 -2.7789 -2.3698 0.9722
6.2518 -2.2351 -2.3743 0.9722
6.4387 -1.6715 -2.3789 0.9721
6.6906 0.0943 -2.3929 0.9720
6.9571 0.7223 -2.5013 0.9707
6.3099 3.1333 -2.5194 0.9705
5.6698 4.2181 -2.5271 0.9704
5.2780 4.7137 -2.5306 0.9704
4.8422 5.1723 -2.5337 0.9704
3.3084 6.2876 -2.5408 0.9703
0.8633 6.7650 -2.4389 0.9714
-0.3529 6.8082 -2.4379 0.9715
-1.5559 6.6298 -2.4353 0.9715
-2.1397 6.4594 -2.4334 0.9715
-3.2472 5.9638 -2.4284 0.9716
-4.2445 5.2777 -2.4220 0.9716
-5.0992 4.4253 -2.4145 0.9717
-5.4645 3.9458 -2.4104 0.9718
-6.0569 2.9010 -2.4016 0.9719
-6.2797 2.3444 -2.3970 0.9719
-6.5708 1.1861 -2.3877 0.9720
-6.6116 -0.5933 -2.3739 0.9722
-6.3772 -1.7527 -2.3651 0.9723
-6.4518 -2.4106 -2.4630 0.9712
-5.5566 -4.0146 -2.4514 0.9713
-5.1693 -4.4884 -2.4481 0.9713
-4.7423 -4.9258 -2.4452 0.9714
-3.7836 -5.6791 -2.4403 0.9714
-2.1402 -6.4667 -2.4359 0.9715
-1.5542 -6.6301 -2.4352 0.9715
-0.9562 -6.7417 -2.4350 0.9715
1.4041 -6.3824 -2.3370 0.9726
1.9695 -6.2363 -2.3387 0.9726
2.5205 -6.0410 -2.3408 0.9726
3.5622 -5.5090 -2.3460 0.9725
4.4972 -4.8012 -2.3525 0.9724
4.9153 -4.3875 -2.3562 0.9724
5.6360 -3.4555 -2.3641 0.9723
5.9327 -2.9441 -2.3684 0.9723
6.1833 -2.4074 -2.3729 0.9722
6.3857 -1.8494 -2.3774 0.9722
6.6386 -0.6875 -2.3867 0.9720
6.6866 -0.0925 -2.3914 0.9720
6.7786 0.5130 -2.4310 0.9715
6.7911 1.7648 -2.5092 0.9706
6.6184 2.3681 -2.5137 0.9706
5.4053 4.5626 -2.5295 0.9704
4.9829 5.0332 -2.5328 0.9704
4.5190 5.4639 -2.5356 0.9703
4.0173 5.8511 -2.5381 0.9703
2.9174 6.4817 -2.5419 0.9703
1.7201 6.9026 -2.5439 0.9702
1.0519 6.7383 -2.4388 0.9714
0.4463 6.8050 -2.4387 0.9714
-0.7700 6.7717 -2.4372 0.9715
-1.3705 6.6721 -2.4358 0.9715
-1.9590 6.5183 -2.4340 0.9715
-3.6042 5.7484 -2.4263 0.9716
-4.0973 5.3966 -2.4231 0.9716
-4.9762 4.5683 -2.4157 0.9717
-6.2155 2.5204 -2.3985 0.9719
-6.5391 1.3700 -2.3892 0.9720
-6.6223 0.7794 -2.3845 0.9721
-6.6524 0.1850 -2.3799 0.9721
-5.9494 -0.9048 -2.1520 0.9748
-5.9998 -3.3432 -2.4562 0.9712
-5.6690 -3.8596 -2.4525 0.9713
-5.2947 -4.3441 -2.4491 0.9713
-3.4259 -5.8975 -2.4390 0.9714
-2.8840 -6.1756 -2.4374 0.9715
-1.7388 -6.5846 -2.4354 0.9715
1.2252 -6.4179 -2.3365 0.9726
2.8887 -5.8790 -2.3424 0.9726
3.4057 -5.6041 -2.3451 0.9725
4.3593 -4.9226 -2.3514 0.9725
4.7885 -4.5208 -2.3550 0.9724
5.1813 -4.0820 -2.3588 0.9724
5.5343 -3.6095 -2.3628 0.9723
6.1100 -2.5776 -2.3715 0.9722
6.4959 -1.4558 -2.3806 0.9721
