ply
format ascii 1.0
element vertex 1592
property float32 x
property float32 y
property float32 z
property float32 I
end_header
10.1209 -1.1625 -2.3943 0.9590
10.1934 -0.2549 -2.3964 0.9590
10.1842 0.6563 -2.3985 0.9589
10.0931 1.5639 -2.4004 0.9589
9.6685 3.3381 -2.4040 0.9588
8.4535 5.7898 -2.4081 0.9588
7.2952 7.2059 -2.4099 0.9587
5.3506 9.2703 -2.5156 0.9570
4.5019 9.7108 -2.5156 0.9570
3.6170 10.0730 -2.5154 0.9570
1.7680 10.5510 -2.5143 0.9570
-0.1357 10.6891 -2.5124 0.9570
-1.9474 10.0491 -2.4057 0.9588
-4.5302 9.1551 -2.4007 0.9589
-7.4993 10.1098 -2.9584 0.9496
-8.5907 9.6462 -3.0358 0.9483
-5.4646 4.2806 -1.6314 0.9719
-12.7881 5.3526 -3.2582 0.9446
-14.3566 4.5521 -3.5397 0.9400
-6.0432 -3.2795 -1.6159 0.9721
-5.7501 -3.8215 -1.6226 0.9720
-5.7713 -4.6283 -1.7387 0.9701
-5.8625 -8.0950 -2.3490 0.9598
-3.5249 -9.4016 -2.3598 0.9596
-1.8759 -10.3095 -2.4628 0.9579
-0.9486 -10.4392 -2.4636 0.9578
0.9231 -10.4507 -2.4657 0.9578
1.8530 -10.3323 -2.4671 0.9578
3.6651 -9.8512 -2.4703 0.9577
6.1582 -8.5487 -2.4762 0.9576
6.6161 -7.6412 -2.3755 0.9593
7.8837 -6.3551 -2.3799 0.9592
8.9050 -4.8617 -2.3845 0.9592
9.3124 -4.0515 -2.3868 0.9591
9.9033 -2.3360 -2.3914 0.9591
9.9834 2.1817 -2.4017 0.9589
9.0668 4.7577 -2.4065 0.9588
8.6106 5.5507 -2.4077 0.9588
6.8403 7.6417 -2.4104 0.9587
6.3977 8.5793 -2.5152 0.9570
5.6072 9.1171 -2.5155 0.9570
2.9914 10.2749 -2.5151 0.9570
2.0621 10.4984 -2.5145 0.9570
1.1166 10.6372 -2.5137 0.9570
0.1628 10.6902 -2.5127 0.9570
-1.6664 10.1015 -2.4062 0.9588
-3.4311 9.6318 -2.4030 0.9589
-5.4377 5.3984 -1.8008 0.9690
-5.4698 3.7667 -1.5609 0.9731
-11.5533 6.5186 -3.1177 0.9470
-12.4171 5.6098 -3.2023 0.9456
-5.8284 -3.6430 -1.6154 0.9722
-5.7879 -5.2569 -1.8376 0.9684
-5.8157 -6.3174 -2.0181 0.9653
-5.8500 -7.6205 -2.2579 0.9613
-5.3788 -8.4781 -2.3597 0.9596
-4.6005 -8.9239 -2.3596 0.9596
-2.0732 -9.8275 -2.3605 0.9596
-0.3060 -10.4805 -2.4642 0.9578
0.6308 -10.4708 -2.4653 0.9578
1.5635 -10.3782 -2.4666 0.9578
2.4849 -10.2033 -2.4681 0.9578
3.3878 -9.9475 -2.4697 0.9577
5.1099 -9.2005 -2.4735 0.9577
5.9155 -8.7150 -2.4755 0.9576
6.3984 -7.8208 -2.3748 0.9593
7.0772 -7.2251 -2.3770 0.9593
7.7009 -6.5709 -2.3792 0.9593
9.1928 -4.3087 -2.3861 0.9591
9.8313 -2.6109 -2.3907 0.9591
10.0345 -1.7247 -2.3929 0.9590
10.1596 0.9975 -2.3992 0.9589
9.8355 2.7920 -2.4029 0.9589
9.5536 3.6611 -2.4045 0.9588
9.1945 4.5018 -2.4060 0.9588
8.7608 5.3073 -2.4074 0.9588
7.6845 6.7860 -2.4094 0.9587
7.0504 7.4471 -2.4102 0.9587
6.6074 8.3627 -2.5049 0.9572
5.0370 9.4445 -2.5156 0.9570
2.3546 10.4376 -2.5147 0.9570
0.4613 10.6829 -2.5131 0.9570
-1.4001 10.2640 -2.4346 0.9583
-3.1616 9.7260 -2.4036 0.9588
-7.9201 9.9615 -2.9910 0.9491
-9.6634 8.4813 -3.0218 0.9485
-11.3077 6.8030 -3.1015 0.9472
-12.0839 5.8709 -3.1575 0.9463
-15.7071 4.4070 -3.8341 0.9352
-5.9288 -3.4794 -1.6156 0.9721
-5.7577 -4.1111 -1.6627 0.9713
-5.7801 -4.9625 -1.7904 0.9692
-5.8385 -7.1811 -2.1751 0.9627
-5.6136 -8.3248 -2.3598 0.9596
-4.0440 -9.1897 -2.3597 0.9596
-3.2081 -9.5149 -2.3599 0.9596
-2.3467 -9.7651 -2.3604 0.9596
-1.5296 -10.3678 -2.4630 0.9579
-0.5985 -10.4666 -2.4639 0.9578
4.8498 -9.3373 -2.4728 0.9577
6.2200 -8.0513 -2.3911 0.9591
8.0951 -6.0896 -2.3807 0.9592
8.6145 -5.3480 -2.3830 0.9592
6.6425 -3.3426 -1.7476 0.9699
9.4463 -3.7386 -2.3877 0.9591
10.1809 0.7132 -2.3986 0.9589
9.9074 2.5157 -2.4024 0.9589
9.3149 4.2425 -2.4056 0.9588
8.9042 5.0598 -2.4070 0.9588
8.4213 5.8371 -2.4082 0.9588
6.1070 8.7893 -2.5154 0.9570
5.2987 9.3001 -2.5156 0.9570
3.5607 10.0929 -2.5154 0.9570
1.7090 10.5605 -2.5142 0.9570
-2.0035 10.0377 -2.4056 0.9588
-5.3731 8.6768 -2.3986 0.9589
-8.6469 9.6009 -3.0367 0.9483
-5.4663 4.2328 -1.6248 0.9720
-11.0823 7.0962 -3.0928 0.9474
-11.8431 6.1684 -3.1383 0.9466
-12.8647 5.3004 -3.2701 0.9444
-14.5948 4.5380 -3.5921 0.9391
-5.8277 -6.7724 -2.0998 0.9640
-5.8440 -8.1652 -2.3599 0.9596
-5.0916 -8.6533 -2.3597 0.9596
-4.2990 -9.0731 -2.3596 0.9596
-1.8183 -10.3201 -2.4628 0.9579
-0.8904 -10.4446 -2.4636 0.9578
0.0453 -10.4866 -2.4646 0.9578
1.9107 -10.3222 -2.4672 0.9578
2.8261 -10.1168 -2.4687 0.9578
7.3179 -6.9864 -2.3778 0.9593
7.9195 -6.3114 -2.3800 0.9592
8.4593 -5.5848 -2.3823 0.9592
8.9326 -4.8122 -2.3846 0.9592
9.6644 -3.1537 -2.3892 0.9591
10.0901 -1.3880 -2.3937 0.9590
10.1829 -0.4824 -2.3959 0.9590
10.1941 0.4287 -2.3980 0.9589
9.4279 3.9801 -2.4051 0.9588
9.0404 4.8084 -2.4065 0.9588
6.8042 7.6873 -2.4128 0.9587
5.5562 9.1483 -2.5156 0.9570
4.7177 9.6079 -2.5156 0.9570
3.8413 9.9899 -2.5155 0.9570
2.0034 10.5096 -2.5145 0.9570
1.0571 10.6430 -2.5137 0.9570
0.1031 10.6906 -2.5127 0.9570
-2.6148 9.8915 -2.4046 0.9588
-3.4847 9.6121 -2.4029 0.9589
-4.3254 9.2558 -2.4011 0.9589
-2.1661 3.0607 -0.8813 0.9847
-9.9603 8.1677 -3.0273 0.9484
-5.4709 3.7225 -1.5552 0.9732
-11.6018 6.4607 -3.1210 0.9469
-12.4908 5.5593 -3.2133 0.9454
-5.3314 -8.5079 -2.3597 0.9596
-2.0184 -9.8391 -2.3606 0.9596
-0.2475 -10.4824 -2.4643 0.9578
0.6893 -10.4674 -2.4654 0.9578
1.6216 -10.3696 -2.4667 0.9578
2.5420 -10.1897 -2.4682 0.9578
4.3190 -9.5888 -2.4716 0.9577
5.1615 -9.1723 -2.4736 0.9577
5.9643 -8.6823 -2.4756 0.9576
6.4423 -7.7854 -2.3750 0.9593
7.7380 -6.5281 -2.3793 0.9593
8.2975 -5.8171 -2.3816 0.9592
8.7920 -5.0582 -2.3839 0.9592
9.2173 -4.2575 -2.3862 0.9591
9.8463 -2.5561 -2.3908 0.9591
10.1626 -0.7663 -2.3952 0.9590
10.1544 1.0542 -2.3993 0.9589
9.8202 2.8470 -2.4030 0.9589
9.5334 3.7146 -2.4046 0.9588
6.5875 8.4339 -2.5151 0.9570
5.8094 8.9894 -2.5155 0.9570
4.9842 9.4724 -2.5156 0.9570
4.1188 9.8791 -2.5155 0.9570
3.2204 10.2060 -2.5152 0.9570
2.2963 10.4504 -2.5147 0.9570
1.3541 10.6105 -2.5139 0.9570
0.4016 10.6850 -2.5130 0.9570
-1.4405 10.1376 -2.4065 0.9588
-2.3381 9.9626 -2.4051 0.9588
-4.0662 9.3752 -2.4017 0.9589
-4.8828 8.9679 -2.3998 0.9589
-7.9908 9.9359 -2.9967 0.9490
-8.9772 9.3197 -3.0412 0.9482
-9.7047 8.4220 -3.0200 0.9486
-11.3572 6.7467 -3.1047 0.9472
-13.3868 4.9978 -3.3583 0.9430
-15.8800 4.3599 -3.8703 0.9346
-3.1550 -9.5328 -2.3599 0.9596
-2.2921 -9.7782 -2.3604 0.9596
-1.4717 -10.3763 -2.4631 0.9579
-0.5400 -10.4700 -2.4640 0.9578
1.3311 -10.4091 -2.4663 0.9578
3.1642 -10.0189 -2.4693 0.9577
4.9021 -9.3105 -2.4730 0.9577
7.5505 -6.7396 -2.3786 0.9593
8.1295 -6.0446 -2.3809 0.9592
9.4676 -3.6860 -2.3878 0.9591
9.7682 -2.8291 -2.3901 0.9591
10.1967 -0.1411 -2.3967 0.9590
10.1773 0.7702 -2.3987 0.9589
10.0761 1.6766 -2.4007 0.9589
9.8937 2.5711 -2.4025 0.9589
9.2914 4.2947 -2.4057 0.9588
8.3888 5.8842 -2.4082 0.9588
7.8334 6.6121 -2.4092 0.9588
7.2145 7.2873 -2.4100 0.9587
6.0579 8.8233 -2.5154 0.9570
5.2467 9.3295 -2.5156 0.9570
4.3931 9.7604 -2.5156 0.9570
2.5874 10.3830 -2.5149 0.9570
1.6500 10.5697 -2.5142 0.9570
0.6999 10.6710 -2.5133 0.9570
-0.2551 10.6862 -2.5122 0.9570
-1.2071 10.6155 -2.5110 0.9570
-2.0594 10.0260 -2.4055 0.9588
-2.9440 9.7959 -2.4040 0.9588
-4.6317 9.1030 -2.4004 0.9589
-11.8918 6.1095 -3.1421 0.9465
-12.9504 5.2514 -3.2844 0.9442
-14.8392 4.5234 -3.6460 0.9382
-6.0058 -3.3466 -1.6158 0.9721
-5.7526 -3.9165 -1.6356 0.9718
-5.7742 -4.7375 -1.7554 0.9698
-5.8298 -6.8518 -2.1143 0.9637
-5.0431 -8.6816 -2.3597 0.9596
-3.4198 -9.4405 -2.3598 0.9596
-2.5640 -9.7097 -2.3602 0.9596
-1.7607 -10.3302 -2.4629 0.9579
-0.8321 -10.4496 -2.4637 0.9578
0.1038 -10.4864 -2.4647 0.9578
1.0398 -10.4404 -2.4659 0.9578
2.8826 -10.1013 -2.4688 0.9578
5.4676 -8.9970 -2.4743 0.9577
6.2028 -8.4110 -2.4562 0.9580
7.3572 -6.9458 -2.3779 0.9593
8.4909 -5.5377 -2.3825 0.9592
8.9598 -4.7626 -2.3848 0.9592
9.6825 -3.0998 -2.3894 0.9591
9.9299 -2.2255 -2.3917 0.9590
10.1860 -0.4256 -2.3960 0.9590
9.9593 2.2933 -2.4019 0.9589
9.4059 4.0328 -2.4052 0.9588
9.0137 4.8590 -2.4066 0.9588
8.5486 5.6469 -2.4079 0.9588
6.7547 7.7179 -2.4105 0.9587
6.3017 8.6504 -2.5153 0.9570
5.5051 9.1792 -2.5156 0.9570
4.6640 9.6341 -2.5156 0.9570
3.7854 10.0112 -2.5154 0.9570
1.9447 10.5204 -2.5144 0.9570
0.9977 10.6486 -2.5136 0.9570
0.0393 9.6954 -2.5103 0.9607
-0.8257 9.6560 -2.5092 0.9607
-2.4217 8.9581 -2.4027 0.9624
-3.2095 8.7008 -2.4012 0.9624
-3.9705 8.3740 -2.3996 0.9624
-7.7034 8.9473 -3.0570 0.9524
-5.4407 5.2820 -1.9634 0.9692
-5.4542 4.4218 -1.8180 0.9714
-10.1082 6.7956 -3.1537 0.9509
-5.4953 3.0201 -1.6235 0.9744
-12.8507 4.3129 -3.5097 0.9455
-5.7783 -2.3826 -1.6183 0.9745
-5.7284 -2.9855 -1.6725 0.9737
-5.8199 -6.4654 -2.2523 0.9647
-4.8008 -7.7573 -2.3620 0.9630
-3.3454 -8.4874 -2.3621 0.9630
-1.8610 -9.3367 -2.4650 0.9614
-1.0206 -9.4681 -2.4657 0.9614
-0.1716 -9.5248 -2.4665 0.9614
1.5257 -9.4122 -2.4688 0.9614
2.3609 -9.2435 -2.4701 0.9613
3.1783 -9.0014 -2.4716 0.9613
3.9716 -8.6877 -2.4733 0.9613
4.7344 -8.3044 -2.4750 0.9613
6.4997 -6.4889 -2.3780 0.9628
8.0070 -4.5472 -2.3841 0.9627
8.3882 -3.8179 -2.3862 0.9626
9.1235 -1.4634 -2.3924 0.9625
9.2533 0.1821 -2.3963 0.9625
9.2071 1.0079 -2.3981 0.9625
9.0869 1.8269 -2.3998 0.9624
8.8936 2.6323 -2.4014 0.9624
7.8917 4.9021 -2.4054 0.9623
6.8998 6.2318 -2.4073 0.9623
5.9309 7.6813 -2.5127 0.9607
4.4716 8.6146 -2.5131 0.9607
3.6848 8.9790 -2.5130 0.9607
2.8685 9.2709 -2.5127 0.9607
1.1741 9.6287 -2.5115 0.9607
-1.4121 9.5542 -2.5006 0.9609
-2.1711 9.0240 -2.4031 0.9624
-3.7359 8.4835 -2.4001 0.9624
-4.4749 8.1104 -2.3984 0.9624
-7.4413 9.1475 -3.0532 0.9524
-9.0155 7.7361 -3.0759 0.9521
-9.8532 7.0314 -3.1342 0.9512
-5.4983 2.5958 -1.5743 0.9752
-12.4575 4.5717 -3.4358 0.9466
-14.1726 3.8061 -3.7996 0.9412
-5.7407 -3.4559 -1.7349 0.9727
-5.0157 -7.6204 -2.3621 0.9630
-4.3154 -8.0372 -2.3620 0.9630
-3.5810 -8.3904 -2.3620 0.9630
-2.8182 -8.6774 -2.3623 0.9630
-2.0476 -8.9599 -2.3797 0.9627
-1.2845 -9.4350 -2.4654 0.9614
-0.4375 -9.5152 -2.4662 0.9614
0.4136 -9.5200 -2.4672 0.9614
1.2621 -9.4496 -2.4684 0.9614
2.9252 -9.0848 -2.4712 0.9613
3.7266 -8.7933 -2.4728 0.9613
7.4114 -5.4467 -2.3814 0.9627
8.6120 -3.2977 -2.3877 0.9626
8.8796 -2.5181 -2.3898 0.9626
9.0767 -1.7171 -2.3918 0.9625
9.2014 -0.9010 -2.3938 0.9625
9.2525 -0.0763 -2.3957 0.9625
9.2295 0.7503 -2.3976 0.9625
8.7189 3.1747 -2.4025 0.9624
8.4056 3.9424 -2.4038 0.9624
8.0243 4.6792 -2.4051 0.9623
7.0704 6.0360 -2.4070 0.9623
6.1427 7.5123 -2.5125 0.9607
3.9342 8.8728 -2.5130 0.9607
3.1264 9.1876 -2.5128 0.9607
0.5806 9.6804 -2.5109 0.9607
-0.2855 9.6897 -2.5099 0.9607
-1.1485 9.6211 -2.5088 0.9608
-2.7199 8.8700 -2.4021 0.9624
-3.4983 8.5863 -2.4006 0.9624
-4.2477 8.2341 -2.3989 0.9624
-4.9619 7.8163 -2.3971 0.9625
-8.7824 7.9725 -3.0711 0.9522
-10.3751 6.4812 -3.1674 0.9507
-5.5009 2.7874 -1.5967 0.9748
-5.5174 2.2015 -1.5381 0.9758
-13.3341 3.9833 -3.6032 0.9441
-5.7350 -3.2378 -1.7052 0.9732
-5.8014 -5.7626 -2.1172 0.9668
-4.5381 -7.9136 -2.3620 0.9630
-3.8138 -8.2871 -2.3620 0.9630
-3.0593 -8.5950 -2.3622 0.9630
-1.5473 -9.3947 -2.4652 0.9614
0.9976 -9.4797 -2.4680 0.9614
2.6698 -9.1613 -2.4707 0.9613
3.4789 -8.8920 -2.4722 0.9613
5.0114 -8.1434 -2.4757 0.9613
6.2390 -6.9663 -2.4213 0.9621
6.7155 -6.2695 -2.3787 0.9628
8.8035 -2.7643 -2.3891 0.9626
9.0228 -1.9693 -2.3912 0.9626
9.1703 -1.1572 -2.3932 0.9625
9.2445 -0.3346 -2.3951 0.9625
9.2447 0.4922 -2.3970 0.9625
8.8025 2.9295 -2.4020 0.9624
8.5109 3.7055 -2.4034 0.9624
7.7243 5.1646 -2.4058 0.9623
7.2354 5.8356 -2.4068 0.9623
6.6879 6.4601 -2.4075 0.9623
4.9454 8.3515 -2.5130 0.9607
3.3818 9.0971 -2.5129 0.9607
2.5561 9.3612 -2.5125 0.9607
1.7101 9.5498 -2.5120 0.9607
-0.0148 9.6952 -2.5103 0.9607
-4.0170 8.3514 -2.3994 0.9624
-5.3840 7.4302 -2.3758 0.9628
-5.4180 6.2222 -2.1362 0.9665
-5.4421 5.2246 -1.9533 0.9693
-5.4554 4.3725 -1.8102 0.9715
-5.4962 2.9807 -1.6189 0.9745
-5.5036 2.3762 -1.5521 0.9755
-12.9304 4.2594 -3.5249 0.9453
-5.7647 -2.4147 -1.6182 0.9745
-5.7687 -4.5212 -1.8977 0.9702
-5.7929 -5.4413 -2.0578 0.9677
-4.0437 -8.1773 -2.3620 0.9630
-3.2980 -8.5060 -2.3621 0.9630
1.5783 -9.4038 -2.4689 0.9614
2.4126 -9.2305 -2.4702 0.9613
3.2287 -8.9839 -2.4717 0.9613
4.7809 -8.2782 -2.4752 0.9613
6.5361 -6.4528 -2.3781 0.9628
7.5922 -5.1970 -2.3822 0.9627
9.1320 -1.4125 -2.3926 0.9625
9.2526 0.2338 -2.3964 0.9625
9.2018 1.0594 -2.3982 0.9625
7.8644 4.9463 -2.4055 0.9623
7.3947 5.6307 -2.4065 0.9623
5.8879 7.7144 -2.5127 0.9607
2.8166 9.2867 -2.5127 0.9607
1.9762 9.4991 -2.5122 0.9607
1.1203 9.6349 -2.5115 0.9607
0.2559 9.6931 -2.5106 0.9607
-0.6099 9.6731 -2.5095 0.9607
-1.4243 9.2781 -2.4304 0.9620
-3.7831 8.4621 -2.4000 0.9624
-4.5199 8.0849 -2.3983 0.9625
-8.3081 8.4345 -3.0654 0.9523
-9.9044 6.9848 -3.1380 0.9512
-10.6178 6.1480 -3.1768 0.9506
-5.4992 2.5587 -1.5704 0.9752
-14.4286 3.7886 -3.8625 0.9402
-5.7419 -3.5004 -1.7412 0.9726
-5.7619 -4.2616 -1.8556 0.9708
-5.7849 -5.1375 -2.0032 0.9685
-5.8122 -6.1737 -2.1954 0.9656
-4.9730 -7.6483 -2.3621 0.9630
-3.5341 -8.4104 -2.3620 0.9630
-2.7697 -8.6931 -2.3623 0.9630
-1.9833 -8.9073 -2.3627 0.9630
-1.2318 -9.4423 -2.4655 0.9614
-0.3843 -9.5177 -2.4663 0.9614
0.4667 -9.5178 -2.4673 0.9614
3.7759 -8.7727 -2.4729 0.9613
5.2829 -7.9732 -2.4764 0.9613
5.9780 -7.4758 -2.4784 0.9612
6.3518 -6.6311 -2.3775 0.9628
7.9017 -4.7239 -2.3836 0.9627
6.6909 -3.2277 -1.9234 0.9698
8.6307 -3.2496 -2.3878 0.9626
8.9487 2.4326 -2.4011 0.9624
8.7013 3.2235 -2.4026 0.9624
8.3837 3.9894 -2.4039 0.9624
7.9983 4.7240 -2.4051 0.9623
7.5481 5.4214 -2.4062 0.9623
6.5725 6.7887 -2.4465 0.9617
6.1007 7.5466 -2.5126 0.9607
5.4037 8.0620 -2.5129 0.9607
4.6629 8.5126 -2.5131 0.9607
3.0750 9.2049 -2.5128 0.9607
1.3890 9.6008 -2.5117 0.9607
0.5265 9.6833 -2.5109 0.9607
-1.9692 9.0715 -2.4035 0.9624
-3.5461 8.5662 -2.4005 0.9624
-5.0052 7.7881 -2.3970 0.9625
-8.0621 8.6554 -3.0626 0.9523
-5.5142 2.7555 -1.5961 0.9749
-5.5292 2.1705 -1.5380 0.9758
-5.8926 -2.0899 -1.6188 0.9745
-5.7189 -2.6241 -1.6291 0.9743
-5.7361 -3.2808 -1.7109 0.9731
-5.8031 -5.8290 -2.1296 0.9666
-5.8343 -7.0144 -2.3623 0.9630
-4.4939 -7.9388 -2.3620 0.9630
-3.0112 -8.6120 -2.3622 0.9630
-2.2310 -8.8479 -2.3626 0.9630
-1.4948 -9.4033 -2.4653 0.9614
0.2008 -9.5259 -2.4670 0.9614
1.0506 -9.4742 -2.4681 0.9614
1.8929 -9.3475 -2.4694 0.9614
2.7210 -9.1465 -2.4708 0.9613
3.5287 -8.8729 -2.4723 0.9613
5.0570 -8.1157 -2.4759 0.9613
5.7655 -7.6379 -2.4778 0.9612
6.2441 -6.8942 -2.4083 0.9623
7.7646 -4.9413 -2.3830 0.9627
8.1817 -4.2324 -2.3851 0.9627
8.8193 -2.7153 -2.3892 0.9626
9.2422 0.5438 -2.3971 0.9625
9.1636 1.3675 -2.3989 0.9624
9.0113 2.1813 -2.4006 0.9624
8.7863 2.9787 -2.4021 0.9624
6.6518 6.4975 -2.4076 0.9623
4.8987 8.3790 -2.5130 0.9607
4.1314 8.7828 -2.5131 0.9607
3.3309 9.1158 -2.5129 0.9607
1.6567 9.5591 -2.5119 0.9607
-1.7154 9.1245 -2.4039 0.9624
-3.3062 8.6637 -2.4010 0.9624
-5.4710 7.4621 -2.3957 0.9625
-10.8527 5.8075 -3.1870 0.9504
-5.5045 2.3402 -1.5487 0.9756
-13.0104 4.2053 -3.5402 0.9451
-16.8546 3.8269 -4.4750 0.9311
-5.9498 -1.9249 -1.6191 0.9745
-5.7305 -3.0685 -1.6831 0.9735
-5.7491 -3.7747 -1.7807 0.9720
-5.7701 -4.5746 -1.9065 0.9700
-5.7946 -5.5042 -2.0693 0.9675
-4.7139 -7.8104 -2.3620 0.9630
-3.9979 -8.1998 -2.3620 0.9630
-3.2504 -8.5243 -2.3621 0.9630
-0.9148 -9.4793 -2.4658 0.9614
-0.0653 -9.5266 -2.4667 0.9614
0.7855 -9.4985 -2.4677 0.9614
1.6308 -9.3951 -2.4689 0.9614
5.5486 -7.7940 -2.4772 0.9612
6.2270 -7.2735 -2.4791 0.9612
6.5724 -6.4165 -2.3782 0.9628
7.1249 -5.8093 -2.3802 0.9627
7.6215 -5.1548 -2.3823 0.9627
8.4313 -3.7243 -2.3865 0.9626
8.9747 -2.1700 -2.3907 0.9626
9.2329 -0.5408 -2.3947 0.9625
9.2516 0.2855 -2.3965 0.9625
9.1961 1.1108 -2.3984 0.9624
9.0667 1.9285 -2.4001 0.9624
8.8643 2.7317 -2.4016 0.9624
8.5903 3.5140 -2.4031 0.9624
8.2470 4.2689 -2.4044 0.9624
7.3633 5.6720 -2.4065 0.9623
5.1307 8.2388 -2.5130 0.9607
3.5843 9.0195 -2.5130 0.9607
0.2018 9.6941 -2.5105 0.9607
-1.4603 9.1704 -2.4043 0.9624
-2.2715 8.9985 -2.4030 0.9624
-3.0636 8.7545 -2.4015 0.9624
-8.3565 8.3894 -3.0659 0.9523
-5.5001 2.5219 -1.5666 0.9753
-12.6138 4.4698 -3.4649 0.9462
-14.6925 3.7703 -3.9274 0.9392
-5.8180 -2.2856 -1.6185 0.9745
-5.7251 -2.8629 -1.6573 0.9739
-5.7431 -3.5453 -1.7475 0.9725
-5.7632 -4.3127 -1.8637 0.9707
-5.7865 -5.1970 -2.0138 0.9684
-4.9302 -7.6759 -2.3621 0.9630
-4.2253 -8.0849 -2.3620 0.9630
-1.9335 -8.9183 -2.3628 0.9630
-1.1791 -9.4492 -2.4655 0.9614
0.5199 -9.5154 -2.4674 0.9614
2.2054 -9.2808 -2.4699 0.9614
3.0267 -9.0524 -2.4714 0.9613
4.5940 -8.3814 -2.4747 0.9613
5.3276 -7.9440 -2.4766 0.9612
7.4726 -5.3641 -2.3817 0.9627
8.3217 -3.9572 -2.3858 0.9626
8.6492 -3.2016 -2.3879 0.9626
9.2537 0.0270 -2.3960 0.9625
8.9353 2.4826 -2.4012 0.9624
7.9720 4.7687 -2.4052 0.9623
7.5179 5.4636 -2.4062 0.9623
6.5713 6.8639 -2.4603 0.9615
6.0586 7.5806 -2.5126 0.9607
5.3586 8.0921 -2.5129 0.9607
3.0235 9.2218 -2.5128 0.9607
0.4724 9.6858 -2.5108 0.9607
-2.0198 9.0600 -2.4034 0.9624
-2.8186 8.8384 -2.4020 0.9624
-5.4089 6.8816 -2.2663 0.9645
-8.1121 8.6120 -3.0633 0.9523
-10.4568 6.3710 -3.1704 0.9507
-12.2307 4.7225 -3.3946 0.9473
-13.5310 3.8780 -3.6445 0.9435
-5.8806 -2.1227 -1.6188 0.9745
-5.7566 -4.0620 -1.8242 0.9713
-5.7955 -7.0475 -2.3625 0.9630
-3.7210 -8.3292 -2.3620 0.9630
-2.1816 -8.8603 -2.3626 0.9630
-0.5968 -9.5058 -2.4661 0.9614
0.2540 -9.5249 -2.4670 0.9614
6.7858 -6.1947 -2.3790 0.9627
7.3179 -5.5692 -2.3810 0.9627
8.2057 -4.1869 -2.3852 0.9627
8.8348 -2.6661 -2.3894 0.9626
9.0452 -1.8687 -2.3914 0.9626
9.2395 0.5955 -2.3972 0.9625
8.9993 2.2317 -2.4007 0.9624
8.7698 3.0279 -2.4022 0.9624
7.6665 5.2508 -2.4059 0.9623
6.6156 6.5346 -2.4076 0.9623
4.0823 8.8057 -2.5131 0.9607
-0.9873 9.6399 -2.5090 0.9608
-1.7663 9.1145 -2.4038 0.9624
-4.1096 8.3052 -2.3992 0.9624
-4.8309 7.8995 -2.3975 0.9625
-7.8584 8.8239 -3.0594 0.9524
-8.6426 8.1137 -3.0693 0.9522
-9.4391 7.3938 -3.1045 0.9517
-5.4910 2.8990 -1.6077 0.9747
-13.0908 4.1507 -3.5557 0.9448
-17.4747 3.8652 -4.6339 0.9287
-5.9387 -1.9580 -1.6191 0.9745
-5.7369 -2.4787 -1.6181 0.9745
-5.7316 -3.1104 -1.6885 0.9734
-5.3514 -7.3892 -2.3622 0.9630
-3.9521 -8.2219 -2.3620 0.9630
-2.4280 -8.7954 -2.3625 0.9630
-0.8619 -9.4845 -2.4658 0.9614
3.3291 -8.9480 -2.4719 0.9613
4.1171 -8.6210 -2.4736 0.9613
4.8735 -8.2251 -2.4754 0.9613
6.6085 -6.3801 -2.3783 0.9628
7.6506 -5.1124 -2.3824 0.9627
8.0834 -4.4132 -2.3845 0.9627
8.7545 -2.9110 -2.3887 0.9626
9.1482 -1.3106 -2.3928 0.9625
9.2362 -0.4893 -2.3948 0.9625
9.2503 0.3371 -2.3967 0.9625
8.8493 2.7812 -2.4017 0.9624
8.5709 3.5620 -2.4032 0.9624
7.3317 5.7132 -2.4066 0.9623
6.7948 6.3468 -2.4074 0.9623
5.8015 7.7798 -2.5127 0.9607
5.0846 8.2674 -2.5130 0.9607
3.5338 9.0393 -2.5129 0.9607
1.8700 9.5203 -2.5121 0.9607
-0.7178 9.6652 -2.5094 0.9607
-1.5114 9.1618 -2.4042 0.9624
-3.8770 8.4186 -2.3998 0.9624
-4.6095 8.0332 -2.3980 0.9625
-2.1403 3.0603 -0.9669 0.9847
-8.4048 8.3441 -3.0665 0.9522
-9.1803 7.6141 -3.0881 0.9519
-14.9651 3.7513 -3.9946 0.9382
-5.9922 -1.7918 -1.6194 0.9745
-5.7262 -2.9035 -1.6623 0.9738
-4.8872 -7.7033 -2.3621 0.9630
-4.1801 -8.1084 -2.3620 0.9630
-2.6725 -8.7237 -2.3623 0.9630
-1.8837 -8.9291 -2.3628 0.9630
-0.2780 -9.5218 -2.4664 0.9614
0.5731 -9.5126 -2.4674 0.9614
1.4204 -9.4280 -2.4686 0.9614
3.8739 -8.7307 -2.4731 0.9613
6.0618 -7.4093 -2.4786 0.9612
6.4261 -6.5604 -2.3777 0.9628
6.9918 -5.9658 -2.3797 0.9627
7.9548 -4.6358 -2.3839 0.9627
8.6675 -3.1534 -2.3881 0.9626
8.9220 -2.3694 -2.3901 0.9626
9.1056 -1.5650 -2.3922 0.9625
9.2166 -0.7469 -2.3942 0.9625
9.2539 0.0787 -2.3961 0.9625
9.1060 1.7251 -2.3996 0.9624
8.6654 3.3207 -2.4027 0.9624
7.9455 4.8134 -2.4053 0.9623
7.4875 5.5056 -2.4063 0.9623
6.0162 7.6144 -2.5126 0.9607
5.3133 8.1220 -2.5129 0.9607
2.1352 9.4651 -2.5123 0.9607
-2.0703 9.0483 -2.4033 0.9624
-4.3844 8.1607 -2.3986 0.9624
-5.0913 7.7310 -2.3968 0.9625
-8.9202 7.8289 -3.0730 0.9521
-5.4717 3.9977 -1.7546 0.9724
-12.3026 4.6715 -3.4073 0.9471
-5.8685 -2.1554 -1.6187 0.9745
-5.7384 -3.3677 -1.7227 0.9729
-5.7579 -4.1113 -1.8319 0.9712
-5.8067 -5.9644 -2.1553 0.9662
-4.4049 -7.9885 -2.3620 0.9630
-2.1322 -8.8724 -2.3626 0.9630
0.3072 -9.5236 -2.4671 0.9614
3.6279 -8.8336 -2.4726 0.9613
5.1478 -8.0595 -2.4761 0.9613
5.8510 -7.5738 -2.4780 0.9612
6.8207 -6.1571 -2.3791 0.9627
7.3492 -5.5285 -2.3811 0.9627
6.6359 -3.3393 -1.9234 0.9698
8.8500 -2.6169 -2.3895 0.9626
9.1898 -1.0036 -2.3936 0.9625
9.2502 -0.1796 -2.3955 0.9625
9.2365 0.6471 -2.3973 0.9625
8.9871 2.2820 -2.4008 0.9624
8.4485 3.8479 -2.4037 0.9624
7.6373 5.2937 -2.4060 0.9623
7.1371 5.9564 -2.4069 0.9623
6.5791 6.5716 -2.4077 0.9623
4.0331 8.8283 -2.5130 0.9607
-0.1772 9.6929 -2.5101 0.9607
-1.0411 9.6340 -2.5089 0.9608
-1.8171 9.1042 -2.4037 0.9624
-2.6209 8.9005 -2.4023 0.9624
-3.4025 8.6256 -2.4008 0.9624
-4.1558 8.2818 -2.3991 0.9624
-7.9096 8.7822 -3.0602 0.9523
-8.6894 8.0669 -3.0699 0.9522
-5.4919 2.8604 -1.6033 0.9747
-5.5062 2.2686 -1.5419 0.9757
-18.1345 3.9050 -4.8030 0.9262
-5.7228 -2.5107 -1.6181 0.9745
-5.7516 -3.8689 -1.7947 0.9718
-5.7979 -5.6319 -2.0928 0.9672
-5.3099 -7.4189 -2.3622 0.9630
-3.9061 -8.2439 -2.3620 0.9630
-3.1550 -8.5602 -2.3621 0.9630
-1.6521 -9.3765 -2.4651 0.9614
-0.8089 -9.4894 -2.4659 0.9614
3.3791 -8.9296 -2.4720 0.9613
4.1654 -8.5982 -2.4737 0.9613
4.9196 -8.1981 -2.4755 0.9613
6.6444 -6.3434 -2.3785 0.9628
8.4733 -3.6303 -2.3868 0.9626
9.1558 -1.2595 -2.3929 0.9625
9.2393 -0.4377 -2.3949 0.9625
9.2487 0.3889 -2.3968 0.9625
9.1840 1.2135 -2.3986 0.9624
7.7811 5.0777 -2.4057 0.9623
6.4311 7.2658 -2.5123 0.9607
5.0384 8.2957 -2.5130 0.9607
2.6606 9.3323 -2.5126 0.9607
0.9587 9.6518 -2.5113 0.9607
-0.7717 9.6607 -2.5093 0.9607
-2.3718 8.9719 -2.4028 0.9624
-3.1609 8.7190 -2.4013 0.9624
-4.6541 8.0070 -2.3979 0.9625
-7.6514 8.9879 -3.0562 0.9524
-8.4528 8.2986 -3.0670 0.9522
-9.2295 7.5684 -3.0904 0.9519
-10.0574 6.8433 -3.1497 0.9510
-10.7362 5.9787 -3.1818 0.9505
-15.2466 3.7315 -4.0641 0.9372
-5.9819 -1.8251 -1.6193 0.9745
-5.7917 -2.3503 -1.6183 0.9745
-5.7273 -2.9444 -1.6674 0.9737
-5.7454 -3.6360 -1.7605 0.9723
-5.8179 -6.3910 -2.2377 0.9649
-5.5152 -7.2681 -2.3623 0.9630
-1.8642 -9.0875 -2.4019 0.9624
-0.2249 -9.5234 -2.4665 0.9614
0.6262 -9.5095 -2.4675 0.9614
2.3091 -9.2562 -2.4700 0.9613
3.9228 -8.7093 -2.4732 0.9613
4.6877 -8.3304 -2.4749 0.9613
6.4630 -6.5247 -2.3779 0.9628
7.5328 -5.2810 -2.3819 0.9627
8.3663 -3.8644 -2.3861 0.9626
8.9356 -2.3197 -2.3903 0.9626
9.2537 0.1304 -2.3962 0.9625
8.9078 2.5825 -2.4013 0.9624
8.6471 3.3692 -2.4028 0.9624
7.4567 5.5474 -2.4064 0.9623
6.9344 6.1930 -2.4072 0.9623
4.5196 8.5896 -2.5131 0.9607
3.7349 8.9583 -2.5130 0.9607
2.9203 9.2548 -2.5127 0.9607
2.0823 9.4767 -2.5122 0.9607
1.2279 9.6222 -2.5116 0.9607
-3.6886 8.5046 -2.4002 0.9624
-4.4297 8.1357 -2.3985 0.9624
-5.1342 7.7021 -2.3967 0.9625
-13.9517 3.8305 -3.7460 0.9420
-5.8561 -2.1881 -1.6186 0.9745
-5.7592 -4.1610 -1.8396 0.9711
-5.7818 -5.0203 -1.9826 0.9689
-5.8085 -6.0333 -2.1684 0.9660
-3.6278 -8.3703 -2.3620 0.9630
-2.8666 -8.6615 -2.3622 0.9630
-2.0825 -8.8843 -2.3627 0.9630
-1.3372 -9.4275 -2.4654 0.9614
-0.4906 -9.5123 -2.4662 0.9614
0.3604 -9.5220 -2.4672 0.9614
2.8742 -9.1007 -2.4711 0.9613
3.6773 -8.8136 -2.4727 0.9613
4.4523 -8.4561 -2.4744 0.9613
6.2766 -6.7009 -2.3772 0.9628
7.3804 -5.4877 -2.3813 0.9627
6.6246 -3.2874 -1.9148 0.9699
8.5930 -3.3455 -2.3875 0.9626
8.8650 -2.5675 -2.3896 0.9626
9.0665 -1.7677 -2.3917 0.9626
9.1957 -0.9523 -2.3937 0.9625
9.2515 -0.1280 -2.3956 0.9625
8.7362 3.1258 -2.4024 0.9624
8.0501 4.6341 -2.4050 0.9623
7.1039 5.9963 -2.4070 0.9623
6.5757 6.6420 -2.4200 0.9621
6.1845 7.4777 -2.5125 0.9607
5.4933 8.0010 -2.5129 0.9607
4.7577 8.4599 -2.5131 0.9607
3.1776 9.1701 -2.5128 0.9607
0.6347 9.6772 -2.5110 0.9607
-0.2314 9.6915 -2.5100 0.9607
-2.6704 8.8854 -2.4022 0.9624
-3.4505 8.6061 -2.4007 0.9624
-4.9183 7.8443 -2.3972 0.9625
-7.1206 9.3785 -3.0489 0.9525
-8.7360 8.0198 -3.0705 0.9522
-9.5432 7.3049 -3.1117 0.9516
-18.8635 3.9519 -4.9901 0.9235
-5.9160 -2.0241 -1.6189 0.9745
-5.7744 -4.7377 -1.9339 0.9696
-5.8300 -6.8521 -2.3294 0.9635
-5.2684 -7.4484 -2.3622 0.9630
-4.5823 -7.8882 -2.3620 0.9630
-3.8601 -8.2656 -2.3620 0.9630
-3.1072 -8.5777 -2.3622 0.9630
-1.5997 -9.3857 -2.4652 0.9614
-0.7560 -9.4939 -2.4659 0.9614
0.9446 -9.4848 -2.4679 0.9614
1.7882 -9.3674 -2.4692 0.9614
2.6185 -9.1757 -2.4706 0.9613
5.6792 -7.7011 -2.4775 0.9612
6.6800 -6.3066 -2.3786 0.9628
7.7081 -5.0272 -2.3827 0.9627
8.1330 -4.3231 -2.3848 0.9627
8.4939 -3.5831 -2.3869 0.9626
9.0343 2.0803 -2.4004 0.9624
8.8183 2.8801 -2.4019 0.9624
5.7144 7.8442 -2.5128 0.9607
4.9920 8.3237 -2.5130 0.9607
4.2293 8.7361 -2.5131 0.9607
1.7635 9.5403 -2.5120 0.9607
0.9048 9.6568 -2.5113 0.9607
-1.4747 8.3573 -2.4024 0.9653
-2.2135 8.1881 -2.4012 0.9654
-3.6295 7.6550 -2.3983 0.9654
-4.2954 7.2957 -2.3967 0.9654
-4.9258 6.8784 -2.3950 0.9654
-5.4544 4.4220 -1.9878 0.9712
-5.5294 1.3205 -1.6094 0.9766
-5.5539 0.3097 -1.5747 0.9771
-5.6967 -1.7730 -1.6890 0.9755
-5.7675 -4.4685 -2.0655 0.9701
-5.7915 -5.3795 -2.2377 0.9677
-5.5883 -6.2081 -2.3646 0.9659
-4.3945 -7.1008 -2.3640 0.9659
-3.7432 -7.4644 -2.3639 0.9659
-3.0622 -7.7690 -2.3640 0.9659
-1.7034 -8.5462 -2.4670 0.9644
-0.1571 -8.7179 -2.4684 0.9644
1.3964 -8.6141 -2.4704 0.9644
2.1606 -8.4594 -2.4717 0.9644
4.3321 -7.5987 -2.4762 0.9643
5.6218 -6.7171 -2.4797 0.9642
6.2035 -6.1932 -2.4815 0.9642
6.4572 -5.3861 -2.3804 0.9656
6.9175 -4.7922 -2.3823 0.9656
7.6716 -3.4917 -2.3861 0.9656
7.9589 -2.7954 -2.3881 0.9655
8.1831 -2.0756 -2.3899 0.9655
8.3422 -1.3380 -2.3918 0.9655
8.4347 -0.5887 -2.3936 0.9655
8.3065 1.6700 -2.3986 0.9654
7.8866 3.1237 -2.4014 0.9654
7.2125 4.4802 -2.4037 0.9653
6.7865 5.1079 -2.4046 0.9653
2.6213 8.4721 -2.5106 0.9638
1.8545 8.6707 -2.5101 0.9638
1.0730 8.7995 -2.5095 0.9638
-0.5080 8.8439 -2.5078 0.9638
-1.2947 8.7593 -2.5066 0.9639
-1.9844 8.2480 -2.4016 0.9653
-2.7110 8.0336 -2.4003 0.9654
-3.4151 7.7549 -2.3988 0.9654
-4.0908 7.4144 -2.3972 0.9654
-2.0947 3.1047 -1.0603 0.9846
-9.1810 6.5517 -3.1930 0.9542
-10.6885 5.0461 -3.3461 0.9521
-5.5326 1.4858 -1.6217 0.9765
-6.1062 -1.7150 -1.7955 0.9740
-5.7071 -2.1688 -1.7284 0.9749
-5.7232 -2.7825 -1.8015 0.9739
-5.7409 -3.4560 -1.8970 0.9725
-5.7836 -5.0788 -2.1790 0.9685
-5.1959 -6.5387 -2.3643 0.9659
-4.5912 -6.9754 -2.3640 0.9659
-3.2779 -7.6803 -2.3640 0.9659
-2.5797 -7.9429 -2.3642 0.9659
-1.8608 -8.1428 -2.3646 0.9659
1.9233 -8.5151 -2.4713 0.9644
2.6769 -8.3140 -2.4726 0.9643
3.4102 -8.0467 -2.4741 0.9643
4.1173 -7.7151 -2.4757 0.9643
4.7927 -7.3219 -2.4773 0.9643
5.4309 -6.8699 -2.4791 0.9642
6.0268 -6.3625 -2.4810 0.9642
6.7794 -4.9822 -2.3817 0.9656
6.6413 -3.2496 -2.0931 0.9697
8.1200 -2.3027 -2.3894 0.9655
8.4130 -0.8238 -2.3931 0.9655
8.4592 -0.0697 -2.3948 0.9654
8.4376 0.6859 -2.3965 0.9654
8.1918 2.1778 -2.3996 0.9654
7.6826 3.6033 -2.4022 0.9653
6.9257 4.9159 -2.4043 0.9653
6.5454 5.5879 -2.4363 0.9649
6.2025 6.3354 -2.5099 0.9638
5.6135 6.8651 -2.5104 0.9638
4.3045 7.7551 -2.5109 0.9638
2.8570 8.3960 -2.5107 0.9638
2.0960 8.6161 -2.5103 0.9638
1.3184 8.7668 -2.5097 0.9638
0.5306 8.8469 -2.5090 0.9638
-1.0497 8.7934 -2.5070 0.9639
-2.4861 8.1076 -2.4007 0.9654
-3.1978 7.8487 -2.3993 0.9654
-3.8830 7.5273 -2.3977 0.9654
-5.1521 6.7077 -2.3944 0.9654
-5.4258 5.8907 -2.2672 0.9673
-10.4252 5.2827 -3.3086 0.9526
-11.2950 4.5068 -3.4427 0.9507
-12.3870 3.7004 -3.6598 0.9477
-5.5584 0.1234 -1.5739 0.9772
-5.7023 -1.9866 -1.7094 0.9752
-5.7180 -2.5851 -1.7765 0.9742
-5.7352 -3.2379 -1.8645 0.9730
-5.7543 -3.9648 -1.9782 0.9714
-5.7761 -4.7933 -2.1249 0.9693
-5.3768 -6.3914 -2.3645 0.9659
-3.4910 -7.5857 -2.3640 0.9659
1.6845 -8.5641 -2.4709 0.9644
5.2357 -7.0172 -2.4785 0.9643
5.8454 -6.5268 -2.4804 0.9642
6.2653 -5.8491 -2.4265 0.9650
8.0505 -2.5279 -2.3888 0.9655
8.2505 -1.8008 -2.3906 0.9655
8.3847 -1.0581 -2.3925 0.9655
8.4516 0.4500 -2.3960 0.9654
7.7790 3.3869 -2.4018 0.9653
7.4493 4.0695 -2.4030 0.9653
6.6124 5.3331 -2.4049 0.9653
6.3764 6.1593 -2.5097 0.9638
5.8026 6.7053 -2.5103 0.9638
5.1819 7.1975 -2.5107 0.9638
3.8202 8.0048 -2.5109 0.9638
3.0904 8.3132 -2.5108 0.9638
2.3359 8.5547 -2.5104 0.9638
-0.0135 8.8606 -2.5084 0.9638
-1.5213 8.3487 -2.4024 0.9653
-2.2591 8.1753 -2.4011 0.9654
-3.6721 7.6343 -2.3982 0.9654
-4.9640 6.8505 -2.3949 0.9654
-10.1639 5.5122 -3.2733 0.9531
-14.1726 3.3013 -4.1196 0.9413
-19.0548 2.6754 -5.4472 0.9231
-5.5667 -0.2185 -1.5771 0.9771
-5.7296 -3.0270 -1.8345 0.9734
-5.7689 -4.5214 -2.0750 0.9700
-4.3548 -7.1252 -2.3640 0.9659
-2.3122 -8.0253 -2.3643 0.9659
-1.6557 -8.5557 -2.4670 0.9644
-0.8858 -8.6716 -2.4676 0.9644
1.4445 -8.6065 -2.4705 0.9644
2.9546 -8.2214 -2.4731 0.9643
5.0366 -7.1591 -2.4780 0.9643
6.2383 -6.1588 -2.4817 0.9642
7.3469 -4.1183 -2.3843 0.9656
7.6913 -3.4489 -2.3863 0.9656
8.3499 -1.2915 -2.3919 0.9655
8.2974 1.7164 -2.3987 0.9654
8.1160 2.4515 -2.4001 0.9654
7.5589 3.8594 -2.4027 0.9653
5.3806 7.0497 -2.5106 0.9638
4.7305 7.5025 -2.5109 0.9638
4.0422 7.8950 -2.5109 0.9638
2.5740 8.4866 -2.5106 0.9638
1.0238 8.8051 -2.5095 0.9638
0.2339 8.8585 -2.5087 0.9638
-0.5574 8.8406 -2.5077 0.9638
-1.3435 8.7517 -2.5066 0.9639
-2.7557 8.0180 -2.4002 0.9654
-2.1047 3.0822 -1.0566 0.9846
-5.3725 6.5295 -2.3937 0.9655
-7.6471 7.7634 -3.0849 0.9557
-9.2249 6.5056 -3.1956 0.9542
-9.9028 5.7341 -3.2395 0.9535
-5.5334 1.4529 -1.6196 0.9765
-5.9883 -1.7180 -1.7636 0.9744
-5.7081 -2.2057 -1.7324 0.9749
-5.7243 -2.8226 -1.8068 0.9738
-5.7421 -3.5005 -1.9038 0.9724
-2.5353 -7.9573 -2.3642 0.9659
-1.1275 -8.6427 -2.4674 0.9644
-0.3518 -8.7115 -2.4682 0.9644
2.7234 -8.2992 -2.4727 0.9643
3.4552 -8.0278 -2.4742 0.9643
4.1605 -7.6923 -2.4758 0.9643
6.0625 -6.3291 -2.4811 0.9642
6.3340 -5.5279 -2.3800 0.9657
6.8074 -4.9445 -2.3818 0.9656
6.6913 -3.2278 -2.1031 0.9696
7.8929 -2.9719 -2.3876 0.9655
8.1331 -2.2574 -2.3895 0.9655
8.3086 -1.5238 -2.3913 0.9655
8.4179 -0.7768 -2.3932 0.9655
8.4598 -0.0225 -2.3949 0.9654
8.4340 0.7331 -2.3966 0.9654
8.3404 1.4838 -2.3982 0.9654
7.9533 2.9463 -2.4011 0.9654
6.8983 4.9546 -2.4044 0.9653
6.5441 5.6502 -2.4476 0.9647
5.5751 6.8964 -2.5105 0.9638
4.9381 7.3673 -2.5108 0.9638
4.2611 7.7791 -2.5109 0.9638
3.5498 8.1281 -2.5109 0.9638
2.0478 8.6276 -2.5103 0.9638
1.2694 8.7739 -2.5097 0.9638
-0.3104 8.8539 -2.5080 0.9638
-2.5313 8.0933 -2.4006 0.9654
-3.2415 7.8305 -2.3992 0.9654
-3.9248 7.5051 -2.3976 0.9654
-7.4213 7.9674 -3.0824 0.9557
-9.0039 6.7339 -3.1830 0.9543
-10.4774 5.2358 -3.3158 0.9525
-11.3512 4.4559 -3.4522 0.9506
-12.4897 3.6552 -3.6841 0.9473
-5.7033 -2.0227 -1.7131 0.9752
-5.7190 -2.6241 -1.7813 0.9742
-5.8033 -5.8292 -2.3286 0.9664
-4.7459 -6.8713 -2.3641 0.9659
-4.1135 -7.2670 -2.3639 0.9659
-3.4486 -7.6051 -2.3640 0.9659
-2.7564 -7.8831 -2.3641 0.9659
0.1838 -8.7188 -2.4688 0.9644
0.9615 -8.6712 -2.4698 0.9644
1.7323 -8.5548 -2.4710 0.9644
2.4902 -8.3705 -2.4723 0.9643
3.2291 -8.1196 -2.4737 0.9643
3.9433 -7.8039 -2.4753 0.9643
4.6271 -7.4258 -2.4769 0.9643
6.2696 -5.7879 -2.4156 0.9651
6.6651 -5.1313 -2.3812 0.9656
7.4831 -3.8710 -2.3851 0.9656
8.2608 -1.7547 -2.3908 0.9655
8.3909 -1.0114 -2.3926 0.9655
8.4540 -0.2587 -2.3944 0.9654
8.3769 1.2501 -2.3977 0.9654
8.2372 1.9939 -2.3992 0.9654
8.0311 2.7227 -2.4006 0.9654
7.7602 3.4303 -2.4019 0.9653
6.5826 5.3701 -2.4049 0.9653
6.3420 6.1949 -2.5098 0.9638
4.4766 7.6570 -2.5109 0.9638
3.0439 8.3303 -2.5108 0.9638
1.5140 8.7357 -2.5099 0.9638
-0.0630 8.8602 -2.5083 0.9638
-1.5679 8.3398 -2.4023 0.9653
-3.7145 7.6134 -2.3981 0.9654
-4.3762 7.2466 -2.3965 0.9654
-7.9578 7.5550 -3.1064 0.9554
-8.7794 6.9566 -3.1711 0.9545
-11.0738 4.7079 -3.4065 0.9512
-12.0612 3.8985 -3.5884 0.9487
-19.0504 2.5663 -5.4418 0.9232
-5.5554 0.2476 -1.5743 0.9771
-5.5747 -0.2500 -1.5798 0.9771
-5.6986 -1.8436 -1.6955 0.9754
-5.7140 -2.4311 -1.7579 0.9745
-5.7307 -3.0686 -1.8403 0.9733
-5.7493 -3.7748 -1.9470 0.9718
-5.7703 -4.5747 -2.0846 0.9699
-5.5185 -6.2700 -2.3646 0.9659
-4.9361 -6.7363 -2.3642 0.9659
-4.3149 -7.1493 -2.3640 0.9659
-3.6596 -7.5058 -2.3639 0.9659
-2.9753 -7.8028 -2.3641 0.9659
-0.0597 -8.7195 -2.4685 0.9644
1.4926 -8.5985 -2.4706 0.9644
2.2551 -8.4353 -2.4718 0.9644
3.7231 -7.9094 -2.4748 0.9643
4.4170 -7.5505 -2.4764 0.9643
5.0768 -7.1312 -2.4781 0.9643
5.6971 -6.6545 -2.4799 0.9642
6.2583 -6.1099 -2.4760 0.9643
7.7109 -3.4061 -2.3864 0.9656
7.9905 -2.7066 -2.3883 0.9655
8.4415 -0.4945 -2.3938 0.9655
8.4581 0.2610 -2.3956 0.9654
8.2880 1.7628 -2.3988 0.9654
8.1025 2.4969 -2.4002 0.9654
7.5375 3.9016 -2.4027 0.9653
7.1624 4.5607 -2.4038 0.9653
6.7434 5.1945 -2.4097 0.9652
5.3412 7.0797 -2.5106 0.9638
4.6886 7.5288 -2.5109 0.9638
3.9981 7.9175 -2.5109 0.9638
1.7575 8.6907 -2.5101 0.9638
0.9746 8.8106 -2.5094 0.9638
-1.3923 8.7438 -2.5065 0.9639
-2.8004 8.0022 -2.4001 0.9654
-3.5012 7.7156 -2.3986 0.9654
-5.4086 6.4991 -2.3936 0.9655
-7.6916 7.7218 -3.0854 0.9557
-8.5416 7.1653 -3.1562 0.9547
-5.5074 2.5253 -1.7152 0.9751
-11.7144 4.1511 -3.5183 0.9496
-13.2335 3.3959 -3.8677 0.9448
-5.5816 -0.0943 -1.5803 0.9771
-5.7253 -2.8630 -1.8121 0.9737
-5.7634 -4.3128 -2.0378 0.9705
-5.6917 -6.1138 -2.3647 0.9659
-5.1225 -6.5962 -2.3643 0.9659
-4.5129 -7.0262 -2.3640 0.9659
-3.1919 -7.7165 -2.3640 0.9659
-1.8463 -8.5161 -2.4669 0.9644
-1.0792 -8.6490 -2.4675 0.9644
-0.3031 -8.7135 -2.4682 0.9644
0.4758 -8.7090 -2.4691 0.9644
2.7698 -8.2841 -2.4728 0.9643
3.5001 -8.0087 -2.4743 0.9643
4.2036 -7.6693 -2.4759 0.9643
5.5078 -6.8094 -2.4793 0.9642
6.8353 -4.9066 -2.3820 0.9656
7.2517 -4.2805 -2.3839 0.9656
7.6109 -3.6192 -2.3858 0.9656
7.9098 -2.9279 -2.3877 0.9655
8.1460 -2.2121 -2.3896 0.9655
8.4225 -0.7298 -2.3933 0.9655
8.4602 0.0247 -2.3950 0.9654
8.4301 0.7802 -2.3967 0.9654
6.8707 4.9932 -2.4044 0.9653
6.1315 6.4045 -2.5100 0.9638
4.2176 7.8027 -2.5109 0.9638
3.5044 8.1478 -2.5109 0.9638
2.7630 8.4272 -2.5106 0.9638
-1.1478 8.7806 -2.5069 0.9639
-2.5763 8.0787 -2.4005 0.9654
-3.9665 7.4828 -2.3975 0.9654
-5.4516 4.8388 -2.0636 0.9702
-9.0484 6.6887 -3.1854 0.9543
-9.7523 5.9418 -3.2329 0.9536
-11.4115 4.4062 -3.4630 0.9504
-12.5935 3.6093 -3.7087 0.9470
-18.0098 3.4592 -5.1917 0.9266
-5.7042 -2.0590 -1.7168 0.9751
-4.7075 -6.8977 -2.3641 0.9659
-3.4061 -7.6243 -2.3640 0.9659
-2.7123 -7.8985 -2.3642 0.9659
-0.5463 -8.7007 -2.4680 0.9644
1.0100 -8.6659 -2.4699 0.9644
1.7802 -8.5453 -2.4710 0.9644
3.2745 -8.1017 -2.4738 0.9643
3.9870 -7.7821 -2.4754 0.9643
4.6687 -7.4002 -2.4770 0.9643
5.3143 -6.9589 -2.4788 0.9643
7.1275 -4.4802 -2.3833 0.9656
7.5049 -3.8293 -2.3852 0.9656
7.8230 -3.1468 -2.3871 0.9656
8.0791 -2.4380 -2.3890 0.9655
8.2709 -1.7087 -2.3909 0.9655
8.3968 -0.9645 -2.3927 0.9655
8.3702 1.2969 -2.3978 0.9654
7.7412 3.4737 -2.4020 0.9653
7.0066 4.7988 -2.4041 0.9653
6.3075 6.2303 -2.5098 0.9638
5.7275 6.7698 -2.5104 0.9638
4.4338 7.6819 -2.5109 0.9638
2.9973 8.3471 -2.5107 0.9638
2.2402 8.5801 -2.5104 0.9638
1.4652 8.7439 -2.5098 0.9638
0.6788 8.8372 -2.5091 0.9638
-0.1125 8.8595 -2.5083 0.9638
-0.9023 8.8104 -2.5072 0.9639
-2.3501 8.1490 -2.4009 0.9654
-3.7568 7.5922 -2.3980 0.9654
-4.4164 7.2218 -2.3964 0.9654
-5.0397 6.7940 -2.3947 0.9654
-8.0111 7.5209 -3.1107 0.9553
-8.8246 6.9125 -3.1734 0.9545
-9.5475 6.1889 -3.2210 0.9538
-5.4911 2.8991 -1.7579 0.9745
-5.5389 1.2251 -1.6059 0.9767
-5.5562 0.2166 -1.5741 0.9771
-5.6995 -1.8791 -1.6989 0.9754
-5.7150 -2.4692 -1.7624 0.9745
-5.7717 -4.6286 -2.0944 0.9697
-5.7965 -5.5678 -2.2753 0.9671
-4.8984 -6.7638 -2.3642 0.9659
-2.9317 -7.8194 -2.3641 0.9659
-2.2225 -8.0508 -2.3644 0.9659
-1.5601 -8.5739 -2.4671 0.9644
-0.0110 -8.7199 -2.4685 0.9644
0.7675 -8.6896 -2.4695 0.9644
2.3023 -8.4229 -2.4719 0.9644
3.0465 -8.1885 -2.4733 0.9643
3.7674 -7.8888 -2.4749 0.9643
4.4593 -7.5260 -2.4765 0.9643
5.1167 -7.1030 -2.4782 0.9643
5.7344 -6.6229 -2.4800 0.9642
6.2599 -6.0435 -2.4632 0.9645
7.7302 -3.3632 -2.3865 0.9656
8.4445 -0.4474 -2.3939 0.9655
8.4569 0.3082 -2.3957 0.9654
8.4014 1.0625 -2.3973 0.9654
8.2784 1.8091 -2.3989 0.9654
8.0887 2.5422 -2.4003 0.9654
7.5158 3.9438 -2.4028 0.9653
7.1370 4.6008 -2.4038 0.9653
5.9140 6.6069 -2.5102 0.9638
3.9538 7.9397 -2.5109 0.9638
3.2293 8.2604 -2.5108 0.9638
0.9254 8.8157 -2.5094 0.9638
0.1349 8.8602 -2.5086 0.9638
-3.5441 7.6957 -2.3985 0.9654
-2.1399 3.0598 -1.0570 0.9846
-7.7444 7.6885 -3.0894 0.9556
-8.5944 7.1283 -3.1610 0.9546
-9.3160 6.4153 -3.2021 0.9541
-10.0072 5.6462 -3.2528 0.9534
-5.5717 -0.1253 -1.5777 0.9771
-5.7100 -2.2801 -1.7406 0.9748
-5.7648 -4.3642 -2.0469 0.9704
-5.7883 -5.2573 -2.2136 0.9680
-5.0855 -6.6246 -2.3643 0.9659
-1.0309 -8.6550 -2.4675 0.9644
0.5245 -8.7065 -2.4692 0.9644
1.2999 -8.6287 -2.4703 0.9644
2.0658 -8.4825 -2.4715 0.9644
2.8161 -8.2688 -2.4729 0.9643
3.5450 -7.9893 -2.4744 0.9643
4.9153 -7.2415 -2.4777 0.9643
6.1334 -6.2616 -2.4813 0.9642
6.3960 -5.4574 -2.3802 0.9657
6.8629 -4.8687 -2.3821 0.9656
7.2758 -4.2401 -2.3840 0.9656
7.6313 -3.5768 -2.3859 0.9656
7.9264 -2.8838 -2.3878 0.9655
8.1586 -2.1667 -2.3897 0.9655
8.3259 -1.4310 -2.3916 0.9655
8.4603 0.0720 -2.3951 0.9654
7.6219 3.7318 -2.4024 0.9653
7.2617 4.3991 -2.4035 0.9653
6.8429 5.0316 -2.4045 0.9653
6.5451 5.7799 -2.4719 0.9644
4.8555 7.4221 -2.5108 0.9638
3.4587 8.1672 -2.5109 0.9638
-1.1968 8.7738 -2.5068 0.9639
-4.0081 7.4602 -2.3974 0.9654
-8.3299 7.3109 -3.1376 0.9550
-9.0927 6.6432 -3.1879 0.9543
-10.5820 5.1412 -3.3305 0.9523
-11.4719 4.3560 -3.4739 0.9503
-12.6983 3.5628 -3.7336 0.9466
-18.6979 3.4832 -5.3843 0.9240
-5.6053 -1.5070 -1.6432 0.9762
-5.7052 -2.0954 -1.7206 0.9750
-5.7211 -2.7029 -1.7913 0.9740
-5.7581 -4.1114 -2.0030 0.9710
-5.7805 -4.9629 -2.1568 0.9688
-5.8069 -5.9646 -2.3566 0.9660
-3.3635 -7.6432 -2.3640 0.9659
-0.4977 -8.7038 -2.4680 0.9644
0.2812 -8.7166 -2.4689 0.9644
2.5837 -8.3428 -2.4724 0.9643
3.3199 -8.0836 -2.4739 0.9643
4.0305 -7.7600 -2.4755 0.9643
4.7102 -7.3743 -2.4771 0.9643
5.9547 -6.4288 -2.4807 0.9642
6.2781 -5.6672 -2.3943 0.9655
6.7226 -5.0571 -2.3815 0.9656
6.6354 -3.3391 -2.1029 0.9696
7.8409 -3.1032 -2.3872 0.9656
8.0930 -2.3930 -2.3891 0.9655
8.2807 -1.6626 -2.3910 0.9655
8.4571 -0.1642 -2.3946 0.9654
8.3631 1.3437 -2.3979 0.9654
7.7219 3.5170 -2.4021 0.9653
7.3807 4.1941 -2.4032 0.9653
5.6897 6.8018 -2.5104 0.9638
5.0607 7.2834 -2.5107 0.9638
4.3908 7.7065 -2.5109 0.9638
3.6856 8.0676 -2.5109 0.9638
2.1922 8.5924 -2.5104 0.9638
1.4163 8.7518 -2.5098 0.9638
-0.1620 8.8585 -2.5082 0.9638
-0.9515 8.8050 -2.5072 0.9639
-1.6609 8.3212 -2.4021 0.9653
-3.1102 7.8846 -2.3995 0.9654
-3.7990 7.5708 -2.3979 0.9654
-4.4565 7.1967 -2.3963 0.9654
-5.0773 6.7654 -2.3946 0.9654
-8.0643 7.4866 -3.1151 0.9553
-8.8696 6.8682 -3.1757 0.9544
-5.4836 3.5113 -1.8433 0.9733
-5.4921 2.8605 -1.7530 0.9746
-12.2028 3.7943 -3.6177 0.9483
-5.7329 -3.1527 -1.8522 0.9732
-5.7517 -3.8690 -1.9624 0.9716
-5.7732 -4.6829 -2.1044 0.9696
-5.4479 -6.3311 -2.3645 0.9659
-4.8605 -6.7910 -2.3641 0.9659
-4.2348 -7.1971 -2.3640 0.9659
-3.5755 -7.5462 -2.3639 0.9659
-2.8880 -7.8357 -2.3641 0.9659
-2.1775 -8.0632 -2.3644 0.9659
-1.5122 -8.5826 -2.4671 0.9644
-0.7404 -8.6857 -2.4678 0.9644
0.0377 -8.7201 -2.4686 0.9644
0.8161 -8.6854 -2.4696 0.9644
3.0923 -8.1716 -2.4734 0.9643
4.5014 -7.5013 -2.4766 0.9643
5.1565 -7.0746 -2.4783 0.9643
5.7716 -6.5911 -2.4801 0.9642
6.5771 -5.2416 -2.3809 0.9656
7.0242 -4.6374 -2.3828 0.9656
7.7492 -3.3201 -2.3866 0.9656
8.0210 -2.6174 -2.3885 0.9655
8.3716 -1.1516 -2.3923 0.9655
8.4473 -0.4002 -2.3941 0.9655
8.4554 0.3555 -2.3958 0.9654
8.0747 2.5875 -2.4004 0.9654
7.4939 3.9858 -2.4029 0.9653
7.1113 4.6407 -2.4039 0.9653
6.6713 5.2587 -2.4048 0.9653
6.4446 6.0875 -2.5097 0.9638
4.6042 7.5808 -2.5109 0.9638
3.9094 7.9616 -2.5109 0.9638
2.4314 8.5283 -2.5105 0.9638
1.6602 8.7095 -2.5100 0.9638
0.8761 8.8206 -2.5093 0.9638
0.0855 8.8606 -2.5085 0.9638
-0.7053 8.8294 -2.5075 0.9638
-1.4439 8.4585 -2.4292 0.9650
-2.1678 8.2006 -2.4013 0.9654
-2.8893 7.9698 -2.3999 0.9654
-4.2547 7.3199 -2.3968 0.9654
-7.7978 7.6555 -3.0936 0.9556
-8.6430 7.0874 -3.1642 0.9546
-5.4784 3.7276 -1.8759 0.9728
-10.0595 5.6018 -3.2596 0.9533
-5.5724 -0.1564 -1.5781 0.9771
-5.6031 -1.7096 -1.6584 0.9759
-5.7899 -5.3180 -2.2255 0.9678
-4.4341 -7.0761 -2.3640 0.9659
-3.1056 -7.7518 -2.3640 0.9659
-2.4017 -7.9989 -2.3643 0.9659
-1.7512 -8.5364 -2.4669 0.9644
-0.9826 -8.6608 -2.4675 0.9644
-0.2058 -8.7167 -2.4683 0.9644
0.5731 -8.7036 -2.4693 0.9644
2.1132 -8.4711 -2.4716 0.9644
2.8624 -8.2533 -2.4730 0.9643
3.5897 -7.9697 -2.4745 0.9643
5.5840 -6.7481 -2.4796 0.9642
6.4267 -5.4218 -2.3803 0.9656
7.2997 -4.1997 -2.3841 0.9656
7.6516 -3.5343 -2.3860 0.9656
7.9428 -2.8396 -2.3879 0.9655
8.1710 -2.1212 -2.3898 0.9655
8.4309 -0.6358 -2.3935 0.9655
8.4601 0.1192 -2.3952 0.9654
8.3154 1.6235 -2.3985 0.9654
7.6011 3.7744 -2.4025 0.9653
7.2372 4.4397 -2.4036 0.9653
6.8148 5.0699 -2.4045 0.9653
6.5467 5.8468 -2.4848 0.9642
6.0597 6.4728 -2.5101 0.9638
1.1222 8.7935 -2.5096 0.9638
-2.6662 8.0489 -2.4003 0.9654
-4.0495 7.4374 -2.3973 0.9654
-5.2997 6.5897 -2.3940 0.9655
-8.3829 7.2749 -3.1422 0.9549
-9.8272 5.8378 -3.2359 0.9536
-10.6343 5.0934 -3.3380 0.9522
-11.5323 4.3054 -3.4848 0.9501
-5.7061 -2.1320 -1.7244 0.9750
-5.7221 -2.7425 -1.7963 0.9740
-5.7594 -4.1611 -2.0115 0.9709
-5.7820 -5.0205 -2.1678 0.9687
-5.2325 -6.5096 -2.3644 0.9659
-3.9912 -7.3348 -2.3639 0.9659
-3.3208 -7.6619 -2.3640 0.9659
-2.6240 -7.9284 -2.3642 0.9659
-1.9062 -8.1322 -2.3646 0.9659
-1.2239 -8.6293 -2.4673 0.9644
-0.4491 -8.7066 -2.4681 0.9644
0.3298 -8.7152 -2.4690 0.9644
1.8756 -8.5254 -2.4712 0.9644
5.3921 -6.8998 -2.4790 0.9643
7.1778 -4.4008 -2.3835 0.9656
7.8585 -3.0596 -2.3873 0.9655
8.1066 -2.3479 -2.3892 0.9655
8.4079 -0.8707 -2.3929 0.9655
8.4583 -0.1170 -2.3947 0.9654
8.4409 0.6388 -2.3964 0.9654
8.2035 2.1319 -2.3995 0.9654
7.7024 3.5602 -2.4022 0.9653
7.3574 4.2353 -2.4033 0.9653
6.9529 4.8771 -2.4043 0.9653
4.3477 7.7309 -2.5109 0.9638
2.1441 8.6043 -2.5103 0.9638
1.3674 8.7594 -2.5098 0.9638
-0.2115 8.8572 -2.5081 0.9638
-1.0006 8.7993 -2.5071 0.9639
-1.7072 8.3115 -2.4021 0.9653
-3.1541 7.8668 -2.3994 0.9654
-5.4176 5.9481 -2.2776 0.9671
-8.9145 6.8237 -3.1781 0.9544
-12.2853 3.7449 -3.6359 0.9480
-15.8933 3.3297 -4.5970 0.9347
-5.5577 0.1545 -1.5739 0.9772
-5.7014 -1.9507 -1.7059 0.9753
-5.7340 -3.1951 -1.8583 0.9731
-5.7530 -3.9167 -1.9702 0.9715
-5.7746 -4.7379 -2.1146 0.9694
-4.8225 -6.8179 -2.3641 0.9659
-4.1944 -7.2206 -2.3640 0.9659
-2.1325 -8.0753 -2.3644 0.9659
-1.4642 -8.5911 -2.4671 0.9644
0.0864 -8.7199 -2.4687 0.9644
0.8646 -8.6809 -2.4697 0.9644
2.3963 -8.3972 -2.4721 0.9643
3.8556 -7.8468 -2.4751 0.9643
5.8085 -6.5590 -2.4803 0.9642
6.2631 -5.9129 -2.4383 0.9648
6.6067 -5.2050 -2.3810 0.9656
8.0359 -2.5727 -2.3886 0.9655
8.2399 -1.8467 -2.3905 0.9655
8.4498 -0.3531 -2.3942 0.9655
8.2583 1.9016 -2.3990 0.9654
8.0604 2.6326 -2.4005 0.9654
7.7975 3.3432 -2.4018 0.9653
7.0855 4.6804 -2.4040 0.9653
6.6420 5.2960 -2.4048 0.9653
6.4106 6.1235 -2.5097 0.9638
5.8399 6.6727 -2.5103 0.9638
4.5618 7.6064 -2.5109 0.9638
3.8649 7.9833 -2.5109 0.9638
3.1368 8.2959 -2.5108 0.9638
2.3837 8.5416 -2.5105 0.9638
1.6116 8.7185 -2.5100 0.9638
0.8269 8.8252 -2.5093 0.9638
-0.6941 8.1176 -2.5059 0.9665
-1.4152 8.0198 -2.5048 0.9665
-3.3391 7.0425 -2.3973 0.9679
-3.9519 6.7123 -2.3958 0.9679
-9.5583 5.2530 -3.3547 0.9554
-5.5661 -0.1874 -1.7130 0.9770
-5.7287 -2.9857 -1.9870 0.9733
-5.7470 -3.6821 -2.0993 0.9718
-5.7677 -4.4687 -2.2442 0.9699
-5.6379 -5.2368 -2.3668 0.9683
-5.1470 -5.7178 -2.3662 0.9683
-4.6155 -6.1534 -2.3659 0.9683
-4.0475 -6.5401 -2.3657 0.9683
-2.8205 -7.1556 -2.3657 0.9683
-2.1709 -7.3796 -2.3660 0.9683
-1.5689 -7.8712 -2.4686 0.9670
-0.1447 -8.0290 -2.4700 0.9670
0.5726 -8.0127 -2.4708 0.9669
2.6783 -7.5854 -2.4743 0.9669
5.1757 -6.1841 -2.4804 0.9668
5.7109 -5.7014 -2.4821 0.9668
6.2014 -5.1727 -2.4839 0.9668
6.7407 -3.8280 -2.3843 0.9681
7.0606 -3.2136 -2.3861 0.9681
7.7836 0.1532 -2.3945 0.9679
7.7438 0.8477 -2.3961 0.9679
7.6418 1.5364 -2.3975 0.9679
7.4784 2.2134 -2.3988 0.9679
6.9726 3.5111 -2.4012 0.9679
6.6342 4.1210 -2.4022 0.9678
6.5124 4.9016 -2.5070 0.9665
4.9849 6.4561 -2.5088 0.9664
4.3893 6.8759 -2.5090 0.9664
3.7583 7.2404 -2.5091 0.9664
1.7057 7.9749 -2.5084 0.9664
0.2606 8.1469 -2.5071 0.9665
-0.4673 8.1348 -2.5062 0.9665
-1.1909 8.0573 -2.5052 0.9665
-2.4940 7.3903 -2.3991 0.9679
-3.1418 7.1343 -2.3977 0.9679
-3.7637 6.8214 -2.3963 0.9679
-4.9100 6.0358 -2.3932 0.9680
-10.8892 3.9962 -3.5677 0.9526
-18.8097 1.5770 -5.8058 0.9240
-18.8998 -1.8024 -5.8396 0.9236
-6.1074 -1.7153 -1.9512 0.9738
-5.7073 -2.1689 -1.8779 0.9748
-5.7411 -3.4561 -2.0611 0.9723
-5.7609 -4.2114 -2.1949 0.9706
-5.7824 -5.0778 -2.3670 0.9683
-5.3049 -5.5722 -2.3664 0.9683
-4.2287 -6.4247 -2.3657 0.9683
-3.0191 -7.0739 -2.3657 0.9683
-1.7879 -7.8239 -2.4685 0.9670
0.3486 -8.0247 -2.4705 0.9669
1.0638 -7.9647 -2.4715 0.9669
3.7911 -7.1038 -2.4767 0.9669
4.4127 -6.7414 -2.4782 0.9668
5.5483 -5.8574 -2.4815 0.9668
6.0532 -5.3427 -2.4833 0.9668
6.3009 -4.6306 -2.4051 0.9678
6.6413 -3.2496 -2.2741 0.9695
7.2483 -2.7754 -2.3873 0.9680
7.6373 -1.4448 -2.3907 0.9680
7.7832 -0.0642 -2.3940 0.9680
7.7629 0.6311 -2.3956 0.9679
7.6803 1.3221 -2.3971 0.9679
6.7459 3.9337 -2.4019 0.9678
6.2005 5.2934 -2.5076 0.9665
3.9589 7.1326 -2.5091 0.9664
3.3066 7.4574 -2.5091 0.9664
1.9278 7.9246 -2.5085 0.9664
1.2126 8.0634 -2.5080 0.9665
0.4881 8.1372 -2.5073 0.9665
-0.9656 8.0885 -2.5055 0.9665
-4.1736 6.5746 -2.3952 0.9679
-4.7405 6.1718 -2.3937 0.9680
-5.4487 4.9462 -2.2635 0.9697
-9.8476 4.9900 -3.3956 0.9549
-11.6437 3.4783 -3.7378 0.9504
-13.8974 2.8306 -4.3623 0.9424
-18.7652 2.1023 -5.8079 0.9240
-5.7025 -1.9867 -1.8574 0.9750
-5.7182 -2.5852 -1.9302 0.9741
-5.7353 -3.2380 -2.0258 0.9728
-5.7545 -3.9650 -2.1494 0.9712
-5.7763 -4.7934 -2.3087 0.9691
-5.4588 -5.4223 -2.3666 0.9683
-4.9522 -5.8867 -2.3661 0.9683
-4.4065 -6.3043 -2.3658 0.9683
-3.8261 -6.6720 -2.3656 0.9683
-2.5792 -7.2463 -2.3658 0.9683
-0.5925 -8.0069 -2.4695 0.9670
0.1244 -8.0304 -2.4703 0.9669
2.9316 -7.4929 -2.4748 0.9669
4.2219 -6.8606 -2.4777 0.9668
4.8204 -6.4606 -2.4793 0.9668
5.3814 -6.0087 -2.4810 0.9668
5.9003 -5.5083 -2.4827 0.9668
6.5177 -4.1992 -2.3847 0.9681
6.8670 -3.6011 -2.3849 0.9681
7.1663 -2.9761 -2.3867 0.9680
7.4087 -2.3264 -2.3885 0.9680
7.5923 -1.6571 -2.3902 0.9680
7.7768 -0.2814 -2.3935 0.9680
7.7760 0.4140 -2.3951 0.9679
7.1557 3.1155 -2.4005 0.9679
6.5211 4.3602 -2.4128 0.9677
5.8648 5.6651 -2.5080 0.9665
4.7660 6.6197 -2.5089 0.9664
2.8424 7.6459 -2.5090 0.9664
2.1484 7.8681 -2.5087 0.9664
1.4374 8.0270 -2.5082 0.9664
0.7151 8.1211 -2.5076 0.9665
-0.0124 8.1500 -2.5068 0.9665
-1.4506 7.9603 -2.4887 0.9667
-2.0782 7.5205 -2.3998 0.9679
-2.7396 7.3012 -2.3986 0.9679
-3.3783 7.0235 -2.3972 0.9679
-3.9892 6.6899 -2.3957 0.9679
-5.1081 5.8664 -2.3925 0.9680
-5.4558 4.3728 -2.1506 0.9712
-10.3843 4.4834 -3.4790 0.9538
-18.9163 0.9491 -5.8256 0.9238
-5.5990 -1.2400 -1.7639 0.9763
-5.6978 -1.8083 -1.8387 0.9753
-5.7298 -3.0271 -1.9932 0.9732
-5.7482 -3.7283 -2.1074 0.9717
-5.7691 -4.5215 -2.2545 0.9698
-5.6085 -5.2681 -2.3667 0.9683
-5.1149 -5.7464 -2.3662 0.9683
-4.5810 -6.1790 -2.3659 0.9683
-3.4092 -6.8942 -2.3656 0.9683
-0.0998 -8.0299 -2.4700 0.9670
0.6174 -8.0096 -2.4709 0.9669
2.7207 -7.5706 -2.4743 0.9669
3.3874 -7.3016 -2.4757 0.9669
6.3923 -4.3756 -2.3826 0.9681
7.0788 -3.1743 -2.3862 0.9681
7.5414 -1.8680 -2.3897 0.9680
7.7392 0.8910 -2.3961 0.9679
7.6334 1.5791 -2.3976 0.9679
7.2388 2.9140 -2.4001 0.9679
4.3508 6.9003 -2.5090 0.9664
3.7178 7.2613 -2.5091 0.9664
2.3674 7.8054 -2.5088 0.9664
1.6611 7.9842 -2.5084 0.9664
0.2151 8.1480 -2.5070 0.9665
-1.2358 8.0503 -2.5051 0.9665
-2.5351 7.3761 -2.3990 0.9679
-3.1815 7.1164 -2.3976 0.9679
-2.1044 3.0818 -1.1478 0.9845
-5.4560 5.5390 -2.3914 0.9680
-8.6618 6.1085 -3.2601 0.9566
-9.3651 5.4227 -3.3285 0.9557
-12.2084 3.2056 -3.8823 0.9485
-5.5460 0.9372 -1.7300 0.9767
-18.8278 1.4727 -5.8087 0.9240
-5.9894 -1.7183 -1.9165 0.9743
-5.7082 -2.2058 -1.8823 0.9747
-5.7244 -2.8227 -1.9631 0.9736
-5.7422 -3.5006 -2.0685 0.9722
-5.7623 -4.2619 -2.2045 0.9705
-5.7539 -5.1099 -2.3669 0.9683
-4.1927 -6.4482 -2.3657 0.9683
-2.3351 -7.3290 -2.3659 0.9683
-1.7443 -7.8338 -2.4685 0.9670
-1.0384 -7.9600 -2.4691 0.9670
-0.3240 -8.0232 -2.4698 0.9670
0.3934 -8.0228 -2.4706 0.9669
1.8149 -7.8317 -2.4727 0.9669
2.5079 -7.6423 -2.4739 0.9669
3.8309 -7.0828 -2.4768 0.9669
5.5812 -5.8266 -2.4817 0.9668
6.6522 -3.9770 -2.3838 0.9681
7.6456 -1.4022 -2.3908 0.9680
7.3163 2.7104 -2.3998 0.9679
6.1709 5.3280 -2.5076 0.9665
4.5417 6.7759 -2.5090 0.9664
3.9190 7.1546 -2.5091 0.9664
3.2649 7.4757 -2.5091 0.9664
