ply
format ascii 1.0
element vertex 1595
property float32 x
property float32 y
property float32 z
property float32 I
end_header
3.6540 5.8675 -2.4719 0.9711
3.0317 6.0036 -2.4051 0.9718
1.3364 6.6084 -2.4110 0.9718
0.7418 6.7057 -2.4126 0.9717
-0.4626 6.7379 -2.4152 0.9717
-1.0625 6.6723 -2.4161 0.9717
-2.2328 6.3802 -2.4173 0.9717
-1.9013 4.1900 -1.6454 0.9806
-3.8429 5.5606 -2.4172 0.9717
-5.1735 4.3399 -2.4148 0.9717
-5.8561 3.3474 -2.4121 0.9718
-6.1272 2.8094 -2.4105 0.9718
-6.9889 0.5074 -2.5059 0.9707
-6.9992 -0.1182 -2.5033 0.9707
-6.9533 -0.7416 -2.5007 0.9707
-6.8519 -1.3577 -2.4979 0.9708
-6.6959 -1.9615 -2.4951 0.9708
-6.2264 -3.1135 -2.4895 0.9709
-5.9169 -3.6526 -2.4866 0.9709
-4.2464 -5.4680 -2.4758 0.9710
-1.9720 -6.3111 -2.3645 0.9723
-0.2294 -6.5949 -2.3598 0.9724
0.9458 -6.5249 -2.3577 0.9724
1.5238 -6.4126 -2.3570 0.9724
2.0896 -6.2498 -2.3566 0.9724
2.6387 -6.0377 -2.3563 0.9724
3.1671 -5.7782 -2.3563 0.9724
4.1451 -5.1247 -2.3571 0.9724
4.5872 -4.7357 -2.3578 0.9724
5.3608 -3.8482 -2.3598 0.9724
5.6861 -3.3564 -2.3612 0.9723
6.8034 -1.2085 -2.4710 0.9711
6.9233 0.0202 -2.4758 0.9710
6.9011 0.6387 -2.4784 0.9710
6.5070 2.4519 -2.4867 0.9709
5.9810 3.5778 -2.4923 0.9708
5.6443 4.1020 -2.4952 0.9708
4.8358 5.0512 -2.5007 0.9707
4.3704 5.4683 -2.5033 0.9707
3.8689 5.8425 -2.5059 0.9707
2.6589 6.1823 -2.4066 0.9718
2.0984 6.4003 -2.4087 0.9718
1.5200 6.5670 -2.4105 0.9718
-2.0537 6.4398 -2.4172 0.9717
-2.6205 6.2316 -2.4175 0.9717
-4.6326 4.9181 -2.4161 0.9717
-5.0510 4.4833 -2.4152 0.9717
-5.4283 4.0127 -2.4140 0.9717
-5.7614 3.5103 -2.4126 0.9717
-6.2848 2.4267 -2.4092 0.9718
-6.8902 1.3234 -2.5090 0.9706
-7.0020 0.0773 -2.5041 0.9707
-6.9737 -0.5473 -2.5015 0.9707
-6.8896 -1.1662 -2.4988 0.9708
-6.7504 -1.7744 -2.4960 0.9708
-6.0187 -3.4872 -2.4875 0.9709
-5.6771 -4.0058 -2.4847 0.9709
-5.2910 -4.4915 -2.4819 0.9709
-4.3988 -5.3491 -2.4766 0.9710
-3.9000 -5.7145 -2.4741 0.9710
-3.2314 -5.7837 -2.3692 0.9722
-2.6999 -6.0435 -2.3671 0.9723
-2.1480 -6.2551 -2.3651 0.9723
-1.5800 -6.4169 -2.3633 0.9723
-1.0004 -6.5278 -2.3617 0.9723
-0.4136 -6.5871 -2.3602 0.9724
4.4528 -4.8614 -2.3575 0.9724
5.2504 -3.9957 -2.3595 0.9724
5.5891 -3.5132 -2.3608 0.9723
6.1329 -2.4670 -2.3640 0.9723
6.3336 -1.9113 -2.3658 0.9723
6.8692 -0.7890 -2.4726 0.9711
6.8539 1.0620 -2.4802 0.9710
6.7392 1.6712 -2.4830 0.9709
6.5705 2.2685 -2.4858 0.9709
5.7546 3.9414 -2.4943 0.9708
5.3859 4.4442 -2.4971 0.9708
4.9733 4.9125 -2.4998 0.9707
4.5199 5.3425 -2.5025 0.9707
4.0292 5.7304 -2.5051 0.9707
2.2757 6.3375 -2.4080 0.9718
1.7024 6.5205 -2.4099 0.9718
1.1145 6.6512 -2.4117 0.9718
-0.0857 6.7513 -2.4145 0.9717
-1.2856 6.6338 -2.4164 0.9717
-1.8729 6.4942 -2.4170 0.9717
-2.4454 6.3021 -2.4174 0.9717
-2.9982 6.0590 -2.4175 0.9717
-4.0267 5.4284 -2.4170 0.9717
-5.6623 3.6704 -2.4131 0.9717
-5.9634 3.1485 -2.4115 0.9718
-6.4184 2.0351 -2.4079 0.9718
-6.9539 0.8973 -2.5074 0.9707
-6.9993 0.2728 -2.5049 0.9707
-6.9885 -0.3525 -2.5023 0.9707
-6.9217 -0.9737 -2.4996 0.9707
-6.6236 -2.1838 -2.4941 0.9708
-6.1159 -3.3190 -2.4884 0.9709
-5.7887 -3.8471 -2.4856 0.9709
-4.5479 -5.2258 -2.4774 0.9710
-4.0593 -5.6051 -2.4749 0.9710
-3.3926 -5.6929 -2.3699 0.9722
-2.8684 -5.9674 -2.3677 0.9723
-1.7590 -6.3718 -2.3638 0.9723
-1.1825 -6.4987 -2.3621 0.9723
-0.0084 -6.5977 -2.3594 0.9724
0.5802 -6.5691 -2.3583 0.9724
2.8396 -5.9459 -2.3563 0.9724
3.3590 -5.6690 -2.3564 0.9724
3.8520 -5.3473 -2.3567 0.9724
4.3149 -4.9834 -2.3573 0.9724
5.1360 -4.1401 -2.3591 0.9724
5.4878 -3.6672 -2.3603 0.9724
5.7967 -3.1648 -2.3618 0.9723
6.0602 -2.6367 -2.3634 0.9723
6.6987 -1.5801 -2.4613 0.9712
6.8424 -0.9802 -2.4719 0.9711
6.9093 -0.3660 -2.4743 0.9710
6.6290 2.0834 -2.4849 0.9709
6.4239 2.6697 -2.4877 0.9709
6.1671 3.2361 -2.4906 0.9708
5.1068 4.7701 -2.4990 0.9708
4.6658 5.2124 -2.5017 0.9707
2.9983 6.0208 -2.4053 0.9718
1.8833 6.4689 -2.4094 0.9718
0.7043 6.7100 -2.4127 0.9717
-1.6908 6.5436 -2.4169 0.9717
-3.3644 5.8634 -2.4175 0.9717
-3.8738 5.5390 -2.4171 0.9717
-4.3517 5.1700 -2.4166 0.9717
-6.9912 0.4683 -2.5057 0.9707
-6.8437 -1.3958 -2.4978 0.9708
-6.6844 -1.9987 -2.4950 0.9708
-6.4720 -2.5844 -2.4921 0.9708
-5.5373 -4.1921 -2.4836 0.9709
-5.1355 -4.6643 -2.4809 0.9710
-4.6937 -5.0985 -2.4782 0.9710
-4.2155 -5.4913 -2.4756 0.9710
-3.0347 -5.8867 -2.3684 0.9723
-2.4951 -6.1286 -2.3663 0.9723
-1.3638 -6.4645 -2.3626 0.9723
-0.7809 -6.5562 -2.3611 0.9723
0.3966 -6.5836 -2.3586 0.9724
1.5596 -6.4039 -2.3570 0.9724
2.1245 -6.2379 -2.3566 0.9724
2.6724 -6.0229 -2.3563 0.9724
3.1993 -5.7604 -2.3563 0.9724
3.7010 -5.4525 -2.3566 0.9724
4.1737 -5.1015 -2.3571 0.9724
4.6137 -4.7101 -2.3578 0.9724
5.0176 -4.2813 -2.3588 0.9724
5.3823 -3.8183 -2.3599 0.9724
5.9829 -2.8042 -2.3629 0.9723
6.4191 -1.7047 -2.3751 0.9722
6.8104 -1.1705 -2.4712 0.9711
6.8943 -0.5587 -2.4735 0.9710
6.8978 0.6772 -2.4786 0.9710
6.8173 1.2915 -2.4813 0.9710
6.2528 3.0615 -2.4897 0.9709
5.2362 4.6240 -2.4981 0.9708
4.3401 5.4930 -2.5035 0.9707
3.8364 5.8644 -2.5060 0.9707
2.6245 6.1974 -2.4068 0.9718
2.0627 6.4122 -2.4088 0.9718
1.4834 6.5757 -2.4106 0.9718
-1.5073 6.5877 -2.4167 0.9717
-3.7178 5.6453 -2.4173 0.9717
-4.2059 5.2900 -2.4168 0.9717
-5.4505 3.9822 -2.4139 0.9717
-5.7808 3.4779 -2.4125 0.9717
-6.9775 0.6636 -2.5065 0.9707
-4.3686 -5.3732 -2.4764 0.9710
-3.8678 -5.7358 -2.4739 0.9710
-3.1989 -5.8013 -2.3691 0.9722
-2.1129 -6.2667 -2.3650 0.9723
-0.9638 -6.5331 -2.3616 0.9723
-0.3767 -6.5891 -2.3601 0.9724
0.2127 -6.5930 -2.3589 0.9724
1.9496 -6.2951 -2.3567 0.9724
2.5033 -6.0953 -2.3564 0.9724
3.0371 -5.8474 -2.3563 0.9724
3.5471 -5.5535 -2.3565 0.9724
4.8954 -4.4192 -2.3584 0.9724
5.6088 -3.4820 -2.3608 0.9723
5.9010 -2.9695 -2.3624 0.9723
6.3445 -1.8760 -2.3660 0.9723
6.9203 -0.1344 -2.4752 0.9710
6.7302 1.7090 -2.4832 0.9709
6.5582 2.3054 -2.4859 0.9709
6.0578 3.4423 -2.4916 0.9708
5.3614 4.4745 -2.4973 0.9708
4.9462 4.9405 -2.5000 0.9707
4.4903 5.3680 -2.5027 0.9707
3.9974 5.7532 -2.5053 0.9707
3.3277 5.8407 -2.4039 0.9718
2.7958 6.1200 -2.4061 0.9718
1.6661 6.5302 -2.4101 0.9718
0.4793 6.7314 -2.4133 0.9717
-0.1234 6.7509 -2.4146 0.9717
-0.7257 6.7159 -2.4156 0.9717
-1.9092 6.4837 -2.4171 0.9717
-2.4805 6.2884 -2.4174 0.9717
-4.0569 5.4057 -2.4170 0.9717
-4.5219 5.0208 -2.4163 0.9717
-4.9501 4.5955 -2.4154 0.9717
-5.3380 4.1335 -2.4143 0.9717
-5.6825 3.6386 -2.4130 0.9717
-6.2303 2.5670 -2.4097 0.9718
-7.0003 0.2338 -2.5048 0.9707
-6.9860 -0.3915 -2.5022 0.9707
-6.6108 -2.2206 -2.4939 0.9708
-6.3790 -2.7985 -2.4911 0.9708
-5.7668 -3.8791 -2.4854 0.9709
-5.3915 -4.3734 -2.4826 0.9709
-4.0276 -5.6274 -2.4747 0.9710
-2.8349 -5.9830 -2.3676 0.9723
-2.2877 -6.2068 -2.3656 0.9723
-1.7232 -6.3812 -2.3637 0.9723
-1.1462 -6.5049 -2.3620 0.9723
2.3322 -6.1630 -2.3564 0.9724
2.8727 -5.9299 -2.3563 0.9724
3.3906 -5.6501 -2.3564 0.9724
4.3427 -4.9593 -2.3573 0.9724
4.7696 -4.5535 -2.3581 0.9724
5.1592 -4.1116 -2.3592 0.9724
5.8146 -3.1325 -2.3619 0.9723
6.0752 -2.6029 -2.3635 0.9723
6.7307 -1.5480 -2.4698 0.9711
6.9116 -0.3274 -2.4744 0.9710
6.9203 0.2910 -2.4769 0.9710
6.8740 0.9083 -2.4796 0.9710
6.7730 1.5198 -2.4823 0.9709
6.1493 3.2706 -2.4907 0.9708
5.4823 4.3215 -2.4964 0.9708
5.0804 4.7989 -2.4992 0.9707
3.5375 5.8245 -2.4369 0.9715
2.4162 6.2838 -2.4075 0.9718
1.8473 6.4796 -2.4095 0.9718
-0.5379 6.7327 -2.4153 0.9717
-2.8621 6.1245 -2.4175 0.9717
-3.3972 5.8444 -2.4174 0.9717
-3.9046 5.5172 -2.4171 0.9717
-4.8205 4.7325 -2.4157 0.9717
-5.2213 4.2816 -2.4147 0.9717
-5.5797 3.7966 -2.4134 0.9717
-6.7345 1.6482 -2.4794 0.9710
-6.9338 1.0526 -2.5080 0.9706
-6.9933 0.4293 -2.5055 0.9707
-6.9965 -0.1963 -2.5030 0.9707
-6.6726 -2.0359 -2.4948 0.9708
-6.4570 -2.6203 -2.4919 0.9708
-6.1903 -3.1824 -2.4891 0.9709
-5.1090 -4.6926 -2.4807 0.9710
-4.6648 -5.1243 -2.4781 0.9710
-3.0017 -5.9032 -2.3683 0.9723
-1.3276 -6.4718 -2.3625 0.9723
-0.7443 -6.5601 -2.3610 0.9723
-0.1557 -6.5967 -2.3597 0.9724
1.0186 -6.5137 -2.3576 0.9724
2.7060 -6.0079 -2.3563 0.9724
3.2314 -5.7425 -2.3564 0.9724
3.7314 -5.4318 -2.3566 0.9724
4.6401 -4.6844 -2.3579 0.9724
5.0416 -4.2533 -2.3588 0.9724
5.4038 -3.7884 -2.3600 0.9724
6.8172 -1.1326 -2.4713 0.9711
6.8977 -0.5202 -2.4737 0.9710
6.8104 1.3297 -2.4814 0.9710
6.4801 2.5249 -2.4870 0.9709
5.5989 4.1653 -2.4955 0.9708
5.2106 4.6536 -2.4983 0.9708
4.7798 5.1056 -2.5010 0.9707
4.3096 5.5175 -2.5037 0.9707
3.1312 5.9510 -2.4047 0.9718
2.5900 6.2123 -2.4069 0.9718
2.0270 6.4239 -2.4089 0.9718
0.8539 6.6916 -2.4124 0.9717
0.2535 6.7451 -2.4138 0.9717
-1.5441 6.5793 -2.4167 0.9717
-2.1255 6.4166 -2.4172 0.9717
-1.8350 4.2308 -1.6491 0.9806
-3.2327 5.9372 -2.4175 0.9717
-4.6870 4.8659 -2.4160 0.9717
-5.1005 4.4264 -2.4151 0.9717
-6.0801 2.9121 -2.4108 0.9718
-6.4906 1.7821 -2.4070 0.9718
-7.0015 -0.0009 -2.5038 0.9707
-6.7292 -1.8495 -2.4957 0.9708
-6.2790 -3.0094 -2.4900 0.9709
-5.9786 -3.5537 -2.4871 0.9709
-5.2398 -4.5497 -2.4816 0.9710
-4.8076 -4.9937 -2.4789 0.9710
-3.8354 -5.7570 -2.4738 0.9710
-3.1663 -5.8187 -2.3689 0.9723
-2.6320 -6.0726 -2.3668 0.9723
-2.0778 -6.2781 -2.3649 0.9723
-1.5081 -6.4336 -2.3631 0.9723
-0.3400 -6.5908 -2.3601 0.9724
0.2495 -6.5916 -2.3589 0.9724
0.8364 -6.5403 -2.3579 0.9724
3.0698 -5.8304 -2.3563 0.9724
4.0584 -5.1932 -2.3569 0.9724
4.5070 -4.8116 -2.3576 0.9724
4.9202 -4.3919 -2.3585 0.9724
5.6284 -3.4508 -2.3609 0.9723
6.1607 -2.3985 -2.3642 0.9723
6.3552 -1.8406 -2.3661 0.9723
6.9214 -0.0957 -2.4754 0.9710
6.9094 0.5229 -2.4779 0.9710
6.8425 1.1386 -2.4806 0.9710
6.7210 1.7466 -2.4833 0.9709
6.5457 2.3421 -2.4861 0.9709
6.3178 2.9202 -2.4890 0.9709
6.0388 3.4763 -2.4918 0.9708
5.3367 4.5047 -2.4974 0.9708
4.9188 4.9684 -2.5002 0.9707
4.4606 5.3933 -2.5029 0.9707
1.6296 6.5397 -2.4102 0.9718
1.0403 6.6638 -2.4119 0.9718
-0.1612 6.7503 -2.4146 0.9717
-0.7632 6.7119 -2.4157 0.9717
-1.3596 6.6193 -2.4165 0.9717
-1.9454 6.4731 -2.4171 0.9717
-2.5156 6.2745 -2.4174 0.9717
-4.0870 5.3829 -2.4169 0.9717
-4.9756 4.5677 -2.4154 0.9717
-5.3609 4.1035 -2.4143 0.9717
-5.7025 3.6067 -2.4129 0.9717
-5.9977 3.0814 -2.4113 0.9718
-6.2442 2.5321 -2.4096 0.9718
-6.8682 1.4389 -2.5094 0.9706
-6.9832 -0.4304 -2.5020 0.9707
-6.9095 -1.0508 -2.4993 0.9707
-6.5979 -2.2574 -2.4937 0.9708
-6.3629 -2.8339 -2.4909 0.9708
-5.7446 -3.9110 -2.4852 0.9709
-4.4887 -5.2756 -2.4771 0.9710
-3.9959 -5.6494 -2.4746 0.9710
-2.8013 -5.9984 -2.3675 0.9723
-2.2529 -6.2192 -2.3654 0.9723
-0.5239 -6.5799 -2.3605 0.9723
0.0653 -6.5969 -2.3592 0.9724
0.6535 -6.5619 -2.3582 0.9724
1.8085 -6.3374 -2.3568 0.9724
2.3665 -6.1498 -2.3564 0.9724
2.9058 -5.9138 -2.3563 0.9724
3.4221 -5.6311 -2.3564 0.9724
3.9116 -5.3041 -2.3568 0.9724
5.1822 -4.0827 -2.3592 0.9724
5.5288 -3.6059 -2.3605 0.9723
6.2998 -2.0169 -2.3655 0.9723
6.8537 -0.9039 -2.4722 0.9711
6.9138 -0.2889 -2.4746 0.9710
6.9191 0.3296 -2.4771 0.9710
6.8693 0.9468 -2.4797 0.9710
6.6062 2.1576 -2.4852 0.9709
6.3946 2.7417 -2.4881 0.9709
6.1314 3.3052 -2.4909 0.9708
5.0539 4.8275 -2.4993 0.9707
3.4821 5.8060 -2.4211 0.9716
2.9312 6.0546 -2.4056 0.9718
0.6294 6.7180 -2.4129 0.9717
0.0255 6.2950 -2.4124 0.9734
-1.0948 6.2042 -2.4143 0.9734
-1.6445 6.0833 -2.4149 0.9734
-1.9421 4.0960 -1.7372 0.9808
-6.3675 1.5208 -2.5088 0.9723
-6.5249 0.3639 -2.5043 0.9724
-6.5251 -0.2196 -2.5019 0.9724
-6.4730 -0.8002 -2.4994 0.9724
-6.2147 -1.9342 -2.4943 0.9725
-5.1234 -3.9695 -2.4837 0.9726
-3.8773 -5.1693 -2.4763 0.9727
-2.7715 -5.5267 -2.3693 0.9739
-1.7421 -5.9222 -2.3656 0.9739
-0.1110 -6.1610 -2.3614 0.9739
0.4390 -6.1436 -2.3603 0.9740
1.5233 -5.9640 -2.3589 0.9740
2.0491 -5.8033 -2.3585 0.9740
3.0479 -5.3463 -2.3584 0.9740
3.9510 -4.7208 -2.3591 0.9740
4.3579 -4.3506 -2.3598 0.9740
4.7306 -3.9459 -2.3607 0.9740
5.6161 -2.5562 -2.3646 0.9739
6.4629 0.1272 -2.4772 0.9727
6.3500 1.2767 -2.4821 0.9726
5.2025 3.9157 -2.4953 0.9725
3.9915 5.1696 -2.5029 0.9724
3.5176 5.5103 -2.5052 0.9724
2.3833 5.8075 -2.4056 0.9735
1.3149 6.1477 -2.4092 0.9734
0.2012 6.2909 -2.4120 0.9734
-0.3611 6.2867 -2.4131 0.9734
-0.9211 6.2317 -2.4140 0.9734
-1.4739 6.1264 -2.4147 0.9734
-2.0151 5.9715 -2.4152 0.9734
-1.8248 4.1437 -1.7351 0.9808
-3.9763 4.8880 -2.4147 0.9734
-4.7787 4.1005 -2.4131 0.9734
-5.1232 3.6560 -2.4119 0.9734
-5.4260 3.1825 -2.4106 0.9734
-5.8974 2.1643 -2.4074 0.9734
-6.5140 0.5461 -2.5051 0.9724
-6.5306 -0.0373 -2.5027 0.9724
-6.4071 -1.1953 -2.4977 0.9725
-6.2684 -1.7605 -2.4951 0.9725
-5.8431 -2.8408 -2.4898 0.9726
-5.2340 -3.8261 -2.4845 0.9726
-4.8666 -4.2735 -2.4820 0.9726
-4.0213 -5.0605 -2.4770 0.9727
-2.9575 -5.5083 -2.3959 0.9736
-2.4256 -5.6833 -2.3680 0.9739
-1.9072 -5.8725 -2.3662 0.9739
-1.3746 -6.0151 -2.3645 0.9739
-0.8318 -6.1099 -2.3630 0.9739
-0.2830 -6.1564 -2.3617 0.9739
0.2673 -6.1542 -2.3606 0.9740
2.4014 -5.6662 -2.3583 0.9740
2.8974 -5.4292 -2.3583 0.9740
4.2343 -4.4702 -2.3596 0.9740
4.6180 -4.0759 -2.3604 0.9740
5.2741 -3.1932 -2.3627 0.9739
5.5414 -2.7114 -2.3641 0.9739
6.4256 -0.6292 -2.4742 0.9727
6.4621 -0.0533 -2.4765 0.9727
6.3812 1.0985 -2.4814 0.9726
6.2641 1.6653 -2.4839 0.9726
5.6171 3.2755 -2.4918 0.9725
5.3080 3.7677 -2.4945 0.9725
4.5631 4.6609 -2.4996 0.9724
4.1331 5.0546 -2.5021 0.9724
3.1411 5.6592 -2.4804 0.9727
1.4857 6.1073 -2.4087 0.9734
0.9353 6.2196 -2.4103 0.9734
0.3768 6.2818 -2.4116 0.9734
-1.3022 6.1646 -2.4145 0.9734
-1.8475 6.0252 -2.4151 0.9734
-2.3782 5.8369 -2.4154 0.9734
-3.3778 5.3210 -2.4153 0.9734
-4.2681 4.6338 -2.4142 0.9734
-5.3360 3.3333 -2.4110 0.9734
-5.8360 2.3286 -2.4079 0.9734
-6.2187 1.8577 -2.4872 0.9726
-6.4129 1.3062 -2.5080 0.9724
-6.4981 0.7280 -2.5058 0.9724
-6.5311 0.1450 -2.5034 0.9724
-6.4401 -1.0163 -2.4985 0.9725
-6.3171 -1.5853 -2.4959 0.9725
-6.1440 -2.1405 -2.4933 0.9725
-3.7006 -5.2944 -2.4754 0.9727
-2.0710 -5.8183 -2.3667 0.9739
-0.4549 -6.1471 -2.3621 0.9739
0.6445 -6.1245 -2.3600 0.9740
1.1882 -6.0407 -2.3592 0.9740
1.7221 -5.9092 -2.3587 0.9740
2.7446 -5.5080 -2.3583 0.9740
4.5018 -4.2028 -2.3601 0.9740
4.8609 -3.7858 -2.3611 0.9740
5.1820 -3.3386 -2.3623 0.9739
5.4625 -2.8645 -2.3637 0.9739
5.9777 -1.8770 -2.4010 0.9735
6.3006 -1.3752 -2.4714 0.9728
6.4037 -0.8081 -2.4735 0.9727
6.3062 1.4893 -2.4831 0.9726
5.7045 3.1163 -2.4910 0.9725
5.0703 4.0894 -2.4963 0.9725
4.2713 4.9357 -2.5014 0.9724
3.3321 5.6270 -2.5061 0.9724
2.7024 5.6625 -2.4044 0.9735
2.1880 5.8858 -2.4064 0.9735
1.6553 6.0621 -2.4082 0.9734
-0.5716 6.2720 -2.4135 0.9734
-1.1295 6.1981 -2.4143 0.9734
-2.2142 5.9009 -2.4153 0.9734
-3.2280 5.4134 -2.4153 0.9734
-3.6978 5.1030 -2.4150 0.9734
-4.1374 4.7516 -2.4144 0.9734
-4.5435 4.3620 -2.4137 0.9734
-4.9126 3.9375 -2.4127 0.9734
-5.2417 3.4816 -2.4115 0.9734
-5.7700 2.4912 -2.4085 0.9734
-6.3756 1.4851 -2.5086 0.9723
-6.4771 0.9094 -2.5065 0.9724
-6.5264 0.3275 -2.5042 0.9724
-6.3610 -1.4087 -2.4967 0.9725
-6.2034 -1.9687 -2.4941 0.9725
-5.4430 -3.5303 -2.4862 0.9726
-4.7188 -4.4325 -2.4810 0.9726
-4.3002 -4.8311 -2.4785 0.9727
-3.3665 -5.5082 -2.4739 0.9727
-2.7405 -5.5418 -2.3692 0.9739
-1.7090 -5.9315 -2.3655 0.9739
-0.6265 -6.1330 -2.3625 0.9739
-0.0766 -6.1613 -2.3613 0.9740
0.4733 -6.1409 -2.3603 0.9740
1.0191 -6.0721 -2.3595 0.9740
2.5898 -5.5825 -2.3583 0.9740
3.5415 -5.0339 -2.3586 0.9740
3.9774 -4.6987 -2.3591 0.9740
4.3822 -4.3263 -2.3599 0.9740
5.0859 -3.4814 -2.3619 0.9739
5.6305 -2.5249 -2.3647 0.9739
6.0215 2.4240 -2.4875 0.9726
5.7873 2.9549 -2.4902 0.9725
4.8131 4.3961 -2.4980 0.9725
4.4060 4.8130 -2.5006 0.9724
3.4869 5.5302 -2.5054 0.9724
2.8587 5.5833 -2.4038 0.9735
2.3509 5.8210 -2.4058 0.9735
1.8235 6.0122 -2.4076 0.9734
0.1662 6.2922 -2.4121 0.9734
-0.9559 6.2266 -2.4141 0.9734
-1.5081 6.1181 -2.4148 0.9734
-2.0485 5.9602 -2.4152 0.9734
-3.0757 5.5015 -2.4154 0.9734
-3.5540 5.2046 -2.4151 0.9734
-4.8014 4.0737 -2.4130 0.9734
-5.1434 3.6272 -2.4119 0.9734
-5.4435 3.1520 -2.4105 0.9734
-5.6994 2.6519 -2.4090 0.9734
-6.3332 1.6629 -2.5093 0.9723
-6.4509 1.0902 -2.5072 0.9724
-5.8268 -2.8731 -2.4896 0.9726
-5.5412 -3.3781 -2.4870 0.9726
-5.2122 -3.8551 -2.4844 0.9726
-4.4347 -4.7106 -2.4793 0.9727
-1.3410 -6.0224 -2.3644 0.9739
0.3017 -6.1525 -2.3606 0.9740
0.8492 -6.0987 -2.3597 0.9740
1.9190 -5.8478 -2.3586 0.9740
2.4329 -5.6527 -2.3583 0.9740
2.9277 -5.4129 -2.3583 0.9740
3.3994 -5.1305 -2.3585 0.9740
3.8444 -4.8076 -2.3590 0.9740
4.6408 -4.0502 -2.3605 0.9740
4.9859 -3.6215 -2.3615 0.9739
5.5567 -2.6805 -2.3642 0.9739
5.7875 -2.1791 -2.3699 0.9739
6.4626 -0.0172 -2.4766 0.9727
6.4446 0.5601 -2.4790 0.9727
6.3754 1.1342 -2.4815 0.9726
6.0848 2.2542 -2.4867 0.9726
4.9324 4.2587 -2.4972 0.9725
3.0881 5.6378 -2.4634 0.9728
0.9006 6.2249 -2.4103 0.9734
0.3417 6.2840 -2.4117 0.9734
-0.2206 6.2925 -2.4129 0.9734
-0.7815 6.2502 -2.4138 0.9734
-1.8812 6.0148 -2.4151 0.9734
-1.7455 4.2165 -1.7488 0.9806
-4.6864 4.2067 -2.4133 0.9734
-5.0409 3.7700 -2.4122 0.9734
-6.4197 1.2702 -2.5078 0.9724
-6.5017 0.6917 -2.5056 0.9724
-6.4339 -1.0522 -2.4983 0.9725
-6.3078 -1.6205 -2.4957 0.9725
-5.6353 -3.2231 -2.4878 0.9726
-5.3195 -3.7092 -2.4852 0.9726
-4.1344 -4.9706 -2.4776 0.9727
-3.1613 -5.5847 -2.4593 0.9729
-0.9682 -6.0907 -2.3634 0.9739
-0.4206 -6.1493 -2.3620 0.9739
0.1298 -6.1593 -2.3609 0.9740
1.2218 -6.0338 -2.3592 0.9740
1.7550 -5.8994 -2.3587 0.9740
2.2742 -5.7185 -2.3584 0.9740
2.7754 -5.4926 -2.3583 0.9740
3.2547 -5.2233 -2.3584 0.9740
3.7084 -4.9127 -2.3588 0.9740
4.1330 -4.5633 -2.3594 0.9740
5.2007 -3.3097 -2.3624 0.9739
5.7135 -2.3354 -2.3653 0.9739
6.0236 -1.8545 -2.4153 0.9734
6.3086 -1.3400 -2.4715 0.9728
6.4085 -0.7724 -2.4736 0.9727
6.4577 -0.1976 -2.4759 0.9727
6.4025 0.9554 -2.4807 0.9727
6.2981 1.5245 -2.4833 0.9726
6.1434 2.0827 -2.4859 0.9726
5.6874 3.1483 -2.4912 0.9725
5.0478 4.1180 -2.4964 0.9725
4.2439 4.9598 -2.5015 0.9724
3.3008 5.6458 -2.5062 0.9724
2.6708 5.6778 -2.4045 0.9735
2.1552 5.8982 -2.4065 0.9735
1.0739 6.1961 -2.4099 0.9734
0.5169 6.2710 -2.4113 0.9734
-0.0448 6.2953 -2.4125 0.9734
-2.2471 5.8885 -2.4153 0.9734
-2.7638 5.6647 -2.4154 0.9734
-3.2582 5.3953 -2.4153 0.9734
-4.1638 4.7283 -2.4144 0.9734
-4.9344 3.9099 -2.4126 0.9734
-5.5447 2.9671 -2.4100 0.9734
-6.4817 0.8732 -2.5063 0.9724
-6.5278 0.2910 -2.5040 0.9724
-6.5214 -0.2924 -2.5016 0.9724
-6.4628 -0.8724 -2.4991 0.9725
-5.4228 -3.5604 -2.4860 0.9726
-5.0781 -4.0259 -2.4834 0.9726
-4.6937 -4.4585 -2.4808 0.9726
-3.8189 -5.2117 -2.4760 0.9727
-3.3355 -5.5266 -2.4737 0.9727
-2.2008 -5.7717 -2.3672 0.9739
-1.1381 -6.0625 -2.3638 0.9739
-0.5922 -6.1362 -2.3624 0.9739
-0.0422 -6.1614 -2.3612 0.9740
1.0530 -6.0661 -2.3594 0.9740
1.5897 -5.9465 -2.3588 0.9740
3.1075 -5.3119 -2.3584 0.9740
3.5696 -5.0141 -2.3587 0.9740
4.4064 -4.3019 -2.3599 0.9740
5.1054 -3.4531 -2.3620 0.9739
5.3963 -2.9854 -2.3633 0.9739
6.3827 -0.9508 -2.4729 0.9727
6.4619 0.1994 -2.4775 0.9727
5.1591 3.9741 -2.4956 0.9725
4.3794 4.8378 -2.5007 0.9724
3.9340 5.2145 -2.5032 0.9724
3.4562 5.5499 -2.5055 0.9724
2.3185 5.8343 -2.4059 0.9735
1.7899 6.0225 -2.4077 0.9734
-0.9907 6.2213 -2.4141 0.9734
-1.5423 6.1097 -2.4148 0.9734
-3.1063 5.4842 -2.4154 0.9734
-3.5830 5.1846 -2.4151 0.9734
-4.4453 4.4628 -2.4139 0.9734
-5.1633 3.5983 -2.4118 0.9734
-6.3421 1.6275 -2.5092 0.9723
-6.5190 0.4733 -2.5048 0.9724
-6.2475 -1.8302 -2.4948 0.9725
-5.8103 -2.9055 -2.4895 0.9726
-5.5219 -3.4087 -2.4868 0.9726
-4.8179 -4.3270 -2.4816 0.9726
-3.9641 -5.1045 -2.4767 0.9727
-3.4895 -5.4329 -2.4744 0.9727
-2.3617 -5.7094 -2.3678 0.9739
-1.3072 -6.0296 -2.3643 0.9739
0.3360 -6.1505 -2.3605 0.9740
0.8833 -6.0938 -2.3596 0.9740
2.4645 -5.6390 -2.3583 0.9740
3.4280 -5.1115 -2.3586 0.9740
3.8712 -4.7861 -2.3590 0.9740
4.2841 -4.4228 -2.3597 0.9740
4.6634 -4.0243 -2.3605 0.9740
5.7900 -2.1432 -2.3660 0.9739
6.2207 -1.6892 -2.4702 0.9728
6.4329 -0.5574 -2.4744 0.9727
6.4418 0.5962 -2.4792 0.9727
6.3693 1.1698 -2.4817 0.9726
6.2460 1.7354 -2.4842 0.9726
5.8504 2.8241 -2.4895 0.9726
5.5809 3.3384 -2.4922 0.9725
4.9088 4.2864 -2.4974 0.9725
4.5113 4.7122 -2.5000 0.9724
4.0768 5.1010 -2.5024 0.9724
3.0370 5.6185 -2.4475 0.9730
2.4799 5.7658 -2.4053 0.9735
1.4175 6.1240 -2.4089 0.9734
0.3066 6.2860 -2.4118 0.9734
-0.2557 6.2913 -2.4129 0.9734
-0.8164 6.2459 -2.4139 0.9734
-2.9520 5.5689 -2.4154 0.9734
-3.4370 5.2828 -2.4152 0.9734
-3.8940 4.9542 -2.4148 0.9734
-4.7097 4.1804 -2.4133 0.9734
-5.3725 3.2733 -2.4109 0.9734
-5.6397 2.7790 -2.4094 0.9734
-5.8611 2.2631 -2.4077 0.9734
-6.2958 1.8044 -2.5098 0.9723
-6.5315 0.0721 -2.5031 0.9724
-6.4275 -1.0880 -2.4982 0.9725
-5.6168 -3.2543 -2.4876 0.9726
-5.2984 -3.7386 -2.4850 0.9726
-4.5400 -4.6115 -2.4799 0.9727
-3.6409 -5.3348 -2.4751 0.9727
-1.4754 -5.9920 -2.3648 0.9739
0.1642 -6.1583 -2.3608 0.9740
1.2555 -6.0268 -2.3592 0.9740
4.1585 -4.5402 -2.3594 0.9740
4.5487 -4.1524 -2.3602 0.9740
5.2193 -3.2808 -2.3625 0.9739
5.4945 -2.8035 -2.3639 0.9739
5.7266 -2.3036 -2.3654 0.9739
6.4591 -0.1615 -2.4760 0.9727
6.3975 0.9912 -2.4809 0.9726
6.2900 1.5598 -2.4834 0.9726
5.6701 3.1803 -2.4913 0.9725
5.0250 4.1463 -2.4966 0.9725
4.6397 4.5829 -2.4992 0.9725
3.7585 5.3452 -2.5041 0.9724
1.5876 6.0808 -2.4084 0.9734
1.0393 6.2023 -2.4100 0.9734
0.4819 6.2740 -2.4114 0.9734
-0.6417 6.2655 -2.4136 0.9734
-1.1987 6.1853 -2.4144 0.9734
-2.2800 5.8759 -2.4153 0.9734
-2.7954 5.6492 -2.4154 0.9734
-3.2882 5.3769 -2.4153 0.9734
-3.7544 5.0613 -2.4149 0.9734
-4.1901 4.7049 -2.4144 0.9734
-4.5917 4.3108 -2.4136 0.9734
-4.9560 3.8821 -2.4125 0.9734
-5.5610 2.9360 -2.4099 0.9734
-6.3911 1.4136 -2.5084 0.9724
-6.5289 0.2545 -2.5039 0.9724
-5.4025 -3.5904 -2.4858 0.9726
-3.7895 -5.2326 -2.4758 0.9727
-2.6781 -5.5715 -2.3690 0.9739
-2.1685 -5.7837 -2.3671 0.9739
-1.6425 -5.9497 -2.3653 0.9739
-1.1042 -6.0685 -2.3638 0.9739
-0.5579 -6.1392 -2.3624 0.9739
-0.0078 -6.1614 -2.3612 0.9740
1.0868 -6.0601 -2.3594 0.9740
2.1460 -5.7680 -2.3584 0.9740
3.1371 -5.2946 -2.3584 0.9740
4.4305 -4.2773 -2.3600 0.9740
4.7964 -3.8664 -2.3609 0.9740
5.1248 -3.4246 -2.3621 0.9739
5.4131 -2.9553 -2.3634 0.9739
5.6589 -2.4620 -2.3649 0.9739
5.8603 -1.9486 -2.3666 0.9739
6.2757 -1.4803 -2.4710 0.9728
6.3882 -0.9152 -2.4731 0.9727
6.4611 0.2355 -2.4776 0.9727
6.1867 1.9444 -2.4852 0.9726
5.1371 4.0031 -2.4958 0.9725
4.3526 4.8625 -2.5009 0.9724
3.9051 5.2367 -2.5033 0.9724
3.4254 5.5694 -2.5057 0.9724
2.7964 5.6155 -2.4040 0.9735
2.2860 5.8475 -2.4060 0.9735
1.7564 6.0327 -2.4078 0.9734
-1.5764 6.1011 -2.4148 0.9734
-3.1369 5.4668 -2.4154 0.9734
-3.6118 5.1644 -2.4151 0.9734
-4.4701 4.4378 -2.4138 0.9734
-5.4779 3.0908 -2.4103 0.9734
-5.7282 2.5879 -2.4088 0.9734
-6.3508 1.5920 -2.5090 0.9723
-6.4620 1.0180 -2.5069 0.9724
-6.5212 0.4368 -2.5046 0.9724
-6.2368 -1.8649 -2.4946 0.9725
-5.7936 -2.9377 -2.4893 0.9726
-5.5024 -3.4393 -2.4867 0.9726
-5.1681 -3.9125 -2.4840 0.9726
-4.7934 -4.3536 -2.4815 0.9726
-4.3813 -4.7592 -2.4790 0.9727
-3.9353 -5.1262 -2.4766 0.9727
-3.4589 -5.4519 -2.4743 0.9727
-1.8083 -5.9029 -2.3659 0.9739
-1.2735 -6.0365 -2.3642 0.9739
-0.1799 -6.1597 -2.3615 0.9739
0.3704 -6.1484 -2.3605 0.9740
0.9173 -6.0886 -2.3596 0.9740
1.4566 -5.9808 -2.3590 0.9740
2.9880 -5.3800 -2.3583 0.9740
3.4565 -5.0923 -2.3586 0.9740
3.8979 -4.7645 -2.3590 0.9740
4.3088 -4.3989 -2.3597 0.9740
5.0264 -3.5658 -2.3617 0.9739
5.5868 -2.6185 -2.3644 0.9739
5.8022 -2.1109 -2.3661 0.9739
6.2304 -1.6546 -2.4704 0.9728
6.3584 -1.0929 -2.4724 0.9727
6.4363 -0.5216 -2.4746 0.9727
6.2366 1.7704 -2.4844 0.9726
6.0601 2.3223 -2.4870 0.9726
5.8349 2.8569 -2.4897 0.9726
5.5626 3.3698 -2.4923 0.9725
5.2452 3.8568 -2.4950 0.9725
4.4853 4.7376 -2.5001 0.9724
4.0485 5.1240 -2.5026 0.9724
3.5785 5.4701 -2.5049 0.9724
2.9879 5.6023 -2.4331 0.9732
2.4478 5.7799 -2.4054 0.9735
0.8311 6.2351 -2.4105 0.9734
-0.2909 6.2900 -2.4130 0.9734
-5.3905 3.2431 -2.4108 0.9734
-5.6549 2.7474 -2.4093 0.9734
-5.8734 2.2302 -2.4076 0.9734
-6.3054 1.7691 -2.5097 0.9723
-6.4328 1.1984 -2.5076 0.9724
-6.4209 -1.1238 -2.4980 0.9725
-6.2885 -1.6906 -2.4954 0.9725
-6.1061 -2.2427 -2.4928 0.9725
-5.8753 -2.7757 -2.4901 0.9725
-5.5982 -3.2854 -2.4875 0.9726
-5.2771 -3.7679 -2.4849 0.9726
-4.9146 -4.2194 -2.4823 0.9726
-3.0557 -5.5417 -2.4251 0.9733
-1.9729 -5.8514 -2.3664 0.9739
-0.9001 -6.1007 -2.3632 0.9739
-0.3518 -6.1533 -2.3619 0.9739
0.1986 -6.1572 -2.3608 0.9740
1.8208 -5.8793 -2.3586 0.9740
2.3379 -5.6927 -2.3584 0.9740
3.3129 -5.1867 -2.3585 0.9740
3.7631 -4.8711 -2.3589 0.9740
4.1839 -4.5170 -2.3595 0.9740
4.5719 -4.1271 -2.3603 0.9740
5.2378 -3.2517 -2.3625 0.9739
5.7397 -2.2716 -2.3656 0.9739
6.1278 -1.8119 -2.4488 0.9730
6.3238 -1.2697 -2.4717 0.9727
6.4174 -0.7008 -2.4739 0.9727
6.4603 -0.1254 -2.4762 0.9727
6.4519 0.4520 -2.4786 0.9727
6.3922 1.0270 -2.4810 0.9726
5.3491 3.7077 -2.4941 0.9725
5.0021 4.1746 -2.4968 0.9725
4.6144 4.6091 -2.4993 0.9724
2.6076 5.7078 -2.4048 0.9735
2.0894 5.9225 -2.4067 0.9735
1.5537 6.0898 -2.4085 0.9734
-0.1151 6.2948 -2.4127 0.9734
-1.7801 6.0453 -2.4150 0.9734
-2.8269 5.6335 -2.4154 0.9734
-3.7826 5.0402 -2.4149 0.9734
-4.6156 4.2850 -2.4135 0.9734
-4.9774 3.8543 -2.4125 0.9734
-5.8102 2.3939 -2.4081 0.9734
-6.1141 1.9011 -2.4537 0.9729
-6.3985 1.3778 -2.5082 0.9724
-6.5298 0.2181 -2.5037 0.9724
-6.4519 -0.9444 -2.4988 0.9725
-6.1683 -2.0720 -2.4936 0.9725
-5.9525 -2.6114 -2.4910 0.9725
-4.6430 -4.5100 -2.4805 0.9727
-3.7600 -5.2534 -2.4757 0.9727
-3.2732 -5.5629 -2.4734 0.9727
-1.0703 -6.0744 -2.3637 0.9739
-0.5236 -6.1421 -2.3623 0.9739
4.0558 -4.6317 -2.3593 0.9740
4.8180 -3.8397 -2.3610 0.9740
5.4297 -2.9251 -2.3635 0.9739
5.8874 -1.9212 -2.3733 0.9738
6.2842 -1.4454 -2.4711 0.9728
6.3936 -0.8795 -2.4732 0.9727
6.4164 0.8478 -2.4803 0.9727
6.1762 1.9791 -2.4854 0.9726
5.9813 2.5251 -2.4880 0.9726
5.7382 3.0520 -2.4907 0.9725
5.1150 4.0320 -2.4959 0.9725
3.8760 5.2587 -2.5035 0.9724
2.7651 5.6313 -2.4042 0.9735
2.2534 5.8604 -2.4061 0.9735
1.7227 6.0427 -2.4079 0.9734
0.6219 6.2608 -2.4111 0.9734
0.0607 6.2946 -2.4123 0.9734
-0.5015 6.2777 -2.4134 0.9734
-1.0601 6.2101 -2.4142 0.9734
-2.1481 5.9252 -2.4153 0.9734
-1.9186 4.1056 -1.7367 0.9808
-3.6406 5.1441 -2.4151 0.9734
-4.4947 4.4127 -2.4138 0.9734
-4.8686 3.9923 -2.4128 0.9734
-5.4949 3.0600 -2.4102 0.9734
-5.7423 2.5557 -2.4087 0.9734
-6.3592 1.5564 -2.5089 0.9723
-6.4672 0.9818 -2.5068 0.9724
-6.5231 0.4004 -2.5045 0.9724
-6.5266 -0.1831 -2.5021 0.9724
-6.3772 -1.3378 -2.4970 0.9725
-5.7767 -2.9698 -2.4891 0.9726
-4.7687 -4.3800 -2.4813 0.9726
-4.3544 -4.7833 -2.4788 0.9727
-3.9063 -5.1479 -2.4764 0.9727
-2.8025 -5.5115 -2.3695 0.9739
-1.7753 -5.9126 -2.3657 0.9739
-1.2397 -6.0433 -2.3641 0.9739
-0.6950 -6.1261 -2.3627 0.9739
-0.1455 -6.1604 -2.3614 0.9739
0.4047 -6.1461 -2.3604 0.9740
2.0166 -5.8147 -2.3585 0.9740
2.5273 -5.6111 -2.3583 0.9740
3.4850 -5.0730 -2.3586 0.9740
4.7083 -3.9721 -2.3607 0.9740
5.0464 -3.5378 -2.3618 0.9739
5.3449 -3.0750 -2.3631 0.9739
6.3648 -1.0574 -2.4725 0.9727
6.2270 1.8053 -2.4846 0.9726
5.5440 3.4010 -2.4925 0.9725
4.8613 4.3415 -2.4977 0.9725
2.9393 5.5862 -2.4190 0.9733
2.4155 5.7938 -2.4055 0.9735
1.8904 5.9909 -2.4074 0.9734
1.3491 6.1400 -2.4091 0.9734
0.7963 6.2399 -2.4106 0.9734
-0.3260 6.2884 -2.4131 0.9734
-1.4397 6.1344 -2.4147 0.9734
-4.7558 4.1273 -2.4131 0.9734
-5.8904 2.1991 -2.4095 0.9734
-6.3149 1.7338 -2.5095 0.9723
-6.5312 -0.0008 -2.5028 0.9724
-6.4986 -0.5831 -2.5004 0.9724
-5.2556 -3.7971 -2.4847 0.9726
-0.8659 -6.1054 -2.3631 0.9739
-0.3175 -6.1549 -2.3618 0.9739
0.2330 -6.1558 -2.3607 0.9740
1.3227 -6.0122 -2.3591 0.9740
1.8536 -5.8690 -2.3586 0.9740
2.3697 -5.6795 -2.3584 0.9740
2.8670 -5.4453 -2.3583 0.9740
3.3418 -5.1681 -2.3585 0.9740
3.7903 -4.8501 -2.3589 0.9740
4.5950 -4.1015 -2.3603 0.9740
4.9449 -3.6767 -2.3614 0.9739
5.2560 -3.2225 -2.3626 0.9739
5.5260 -2.7422 -2.3641 0.9739
6.3311 -1.2344 -2.4719 0.9727
6.4613 -0.0894 -2.4763 0.9727
6.4497 0.4881 -2.4787 0.9727
6.3868 1.0627 -2.4812 0.9726
5.6349 3.2438 -2.4917 0.9725
5.3287 3.7377 -2.4943 0.9725
4.1610 5.0311 -2.5020 0.9724
3.6989 5.3875 -2.5044 0.9724
3.1948 5.6809 -2.4977 0.9725
2.5757 5.7226 -2.4049 0.9735
0.4118 6.2794 -2.4116 0.9734
-0.1503 6.2942 -2.4127 0.9734
-0.7116 6.2583 -2.4137 0.9734
-2.3455 5.8501 -2.4153 0.9734
-2.8583 5.6176 -2.4154 0.9734
-3.3480 5.3398 -2.4153 0.9734
-3.8106 5.0189 -2.4149 0.9734
-4.2422 4.6576 -2.4143 0.9734
-4.6393 4.2590 -2.4134 0.9734
-5.3175 3.3632 -2.4111 0.9734
-5.8232 2.3613 -2.4080 0.9734
-6.1655 1.8794 -2.4700 0.9728
-6.4058 1.3420 -2.5081 0.9724
-6.4943 0.7643 -2.5059 0.9724
-6.4461 -0.9803 -2.4987 0.9725
-6.3263 -1.5501 -2.4961 0.9725
-5.9374 -2.6444 -2.4908 0.9725
-5.6717 -3.1604 -2.4881 0.9726
-3.2419 -5.5808 -2.4733 0.9727
-2.1035 -5.8070 -2.3668 0.9739
-1.5758 -5.9672 -2.3651 0.9739
-1.0362 -6.0800 -2.3636 0.9739
-0.4893 -6.1447 -2.3622 0.9739
0.0610 -6.1608 -2.3610 0.9740
0.6104 -6.1282 -2.3601 0.9740
2.7139 -5.5232 -2.3583 0.9740
4.0817 -4.6090 -2.3593 0.9740
4.8396 -3.8128 -2.3610 0.9740
5.1631 -3.3674 -2.3622 0.9739
5.4461 -2.8949 -2.3636 0.9739
6.3139 1.4539 -2.4829 0.9726
5.9675 2.5586 -2.4882 0.9726
5.7214 3.0842 -2.4908 0.9725
4.7149 4.5037 -2.4987 0.9725
4.2985 4.9115 -2.5012 0.9724
3.8468 5.2806 -2.5036 0.9724
3.3633 5.6080 -2.5059 0.9724
2.2207 5.8732 -2.4062 0.9735
1.1429 6.1833 -2.4097 0.9734
0.5869 6.2644 -2.4111 0.9734
-0.5021 5.8712 -2.4117 0.9749
-1.0244 5.8049 -2.4125 0.9748
-1.5387 5.6917 -2.4131 0.9748
-2.0408 5.5325 -2.4134 0.9748
-2.9919 5.0817 -2.4135 0.9748
-3.8463 4.4674 -2.4127 0.9748
-4.5761 3.7099 -2.4111 0.9749
-5.3866 2.3615 -2.4071 0.9749
-5.9592 1.4232 -2.5075 0.9739
-6.0576 0.8850 -2.5055 0.9739
-6.1072 0.3406 -2.5034 0.9739
-5.9626 -1.2856 -2.4964 0.9740
-5.6280 -2.3206 -2.4915 0.9740
-5.1156 -3.2775 -2.4865 0.9741
-3.6317 -4.8418 -2.4771 0.9742
-2.7083 -5.4008 -2.4728 0.9742
-2.1258 -5.3931 -2.3725 0.9753
-1.1298 -5.6681 -2.3654 0.9753
-0.1040 -5.7726 -2.3630 0.9754
1.4273 -5.5884 -2.3606 0.9754
2.3975 -5.2445 -2.3601 0.9754
2.8560 -5.0097 -2.3601 0.9754
3.2921 -4.7353 -2.3604 0.9754
3.7022 -4.4235 -2.3608 0.9754
4.4324 -3.6972 -2.3623 0.9754
5.6786 -1.9944 -2.4633 0.9743
5.8541 -1.4849 -2.4718 0.9742
5.9679 -0.9572 -2.4737 0.9742
6.0534 0.1192 -2.4780 0.9742
6.0242 0.6595 -2.4803 0.9741
5.9469 1.1956 -2.4826 0.9741
5.8221 1.7232 -2.4850 0.9741
5.4338 2.7362 -2.4900 0.9740
5.1732 3.2134 -2.4925 0.9740
4.8705 3.6659 -2.4949 0.9740
4.5284 4.0899 -2.4974 0.9740
4.1492 4.4820 -2.4997 0.9739
3.2923 5.1575 -2.5042 0.9739
2.8212 5.4352 -2.5063 0.9739
2.2304 5.4350 -2.4044 0.9749
0.7125 5.8431 -2.4092 0.9749
-0.8618 5.8307 -2.4123 0.9748
-1.3791 5.7320 -2.4129 0.9748
-1.8854 5.5871 -2.4133 0.9748
-2.8489 5.1633 -2.4135 0.9748
-3.2980 4.8880 -2.4133 0.9748
-3.7204 4.5734 -2.4129 0.9748
-4.4713 3.8367 -2.4114 0.9749
-4.7937 3.4209 -2.4103 0.9749
-5.0773 2.9779 -2.4091 0.9749
-5.6697 2.0807 -2.4718 0.9742
-5.9186 1.5895 -2.5081 0.9739
-6.0969 0.5112 -2.5041 0.9739
-5.9980 -1.1190 -2.4972 0.9740
-5.6923 -2.1632 -2.4923 0.9740
-5.2067 -3.1344 -2.4873 0.9741
-4.9014 -3.5830 -2.4849 0.9741
-4.5576 -4.0022 -2.4824 0.9741
-3.7665 -4.7399 -2.4778 0.9742
-3.3256 -5.0527 -2.4757 0.9742
-1.7868 -5.5016 -2.3675 0.9753
-0.7793 -5.7245 -2.3645 0.9753
-0.2652 -5.7683 -2.3633 0.9754
0.2505 -5.7664 -2.3623 0.9754
0.7638 -5.7190 -2.3614 0.9754
1.2708 -5.6265 -2.3608 0.9754
2.2502 -5.3094 -2.3601 0.9754
2.7150 -5.0874 -2.3601 0.9754
3.1584 -4.8252 -2.3603 0.9754
3.5770 -4.5248 -2.3607 0.9754
4.3270 -3.8191 -2.3620 0.9754
4.6525 -3.4191 -2.3630 0.9754
4.9414 -2.9918 -2.3642 0.9753
5.1917 -2.5403 -2.3656 0.9753
5.4587 -2.0902 -2.3923 0.9751
6.0188 -0.5894 -2.4752 0.9742
6.0385 0.4909 -2.4795 0.9742
5.9762 1.0288 -2.4819 0.9741
5.7092 2.0789 -2.4867 0.9741
4.6394 3.9607 -2.4966 0.9740
4.2715 4.3631 -2.4990 0.9740
3.8687 4.7313 -2.5013 0.9739
1.8935 5.5645 -2.4056 0.9749
0.3526 5.8780 -2.4100 0.9749
-1.2184 5.7679 -2.4127 0.9748
-2.7036 5.2409 -2.4136 0.9748
-3.1604 4.9784 -2.4134 0.9748
-3.5914 4.6758 -2.4130 0.9748
-3.9934 4.3356 -2.4124 0.9748
-4.6971 3.5540 -2.4107 0.9749
-5.2485 2.6595 -2.4081 0.9749
-6.0018 1.2224 -2.5068 0.9739
-6.0287 -0.9513 -2.4979 0.9740
-5.9140 -1.4842 -2.4955 0.9740
-4.6690 -3.8746 -2.4832 0.9741
-4.3005 -4.2717 -2.4808 0.9741
-3.4663 -4.9592 -2.4763 0.9742
-2.4390 -5.2998 -2.3878 0.9751
-1.9401 -5.4508 -2.3680 0.9753
-1.4450 -5.5984 -2.3664 0.9753
-0.4262 -5.7595 -2.3637 0.9753
1.1133 -5.6602 -2.3610 0.9754
1.6136 -5.5371 -2.3605 0.9754
2.1011 -5.3703 -2.3602 0.9754
2.5719 -5.1612 -2.3601 0.9754
3.8487 -4.2974 -2.3610 0.9754
4.2181 -3.9380 -2.3618 0.9754
4.5546 -3.5472 -2.3627 0.9754
4.8552 -3.1281 -2.3638 0.9753
5.3402 -2.2177 -2.3666 0.9753
5.7594 -1.8085 -2.4707 0.9742
5.9023 -1.2883 -2.4725 0.9742
6.0481 0.3220 -2.4788 0.9742
6.0008 0.8612 -2.4811 0.9741
4.7467 3.8284 -2.4959 0.9740
4.3904 4.2409 -2.4983 0.9740
3.5731 4.9629 -2.5029 0.9739
1.5490 5.6729 -2.4068 0.9749
0.5165 5.8649 -2.4096 0.9749
-0.0090 5.8904 -2.4108 0.9749
-0.5348 5.8685 -2.4118 0.9749
-1.5704 5.6830 -2.4131 0.9748
-2.0717 5.5210 -2.4134 0.9748
-3.0202 5.0649 -2.4135 0.9748
-3.4597 4.7745 -2.4132 0.9748
-4.2512 4.0813 -2.4119 0.9749
-4.5966 3.6842 -2.4110 0.9749
-5.3995 2.3312 -2.4071 0.9749
-5.9667 1.3899 -2.5074 0.9739
-6.0621 0.8512 -2.5054 0.9739
-6.1061 -0.2397 -2.5010 0.9739
-6.0547 -0.7829 -2.4987 0.9740
-5.9550 -1.3188 -2.4963 0.9740
-5.6146 -2.3518 -2.4913 0.9740
-5.3769 -2.8406 -2.4889 0.9741
-4.4194 -4.1512 -2.4816 0.9741
-4.0275 -4.5248 -2.4792 0.9742
-3.1534 -5.1596 -2.4749 0.9742
-2.0921 -5.3957 -2.3685 0.9753
-1.0981 -5.6741 -2.3654 0.9753
-0.5870 -5.7462 -2.3640 0.9753
0.9549 -5.6896 -2.3612 0.9754
1.9504 -5.4270 -2.3602 0.9754
2.4268 -5.2310 -2.3601 0.9754
3.3185 -4.7169 -2.3604 0.9754
4.1061 -4.0538 -2.3615 0.9754
4.7653 -3.2619 -2.3635 0.9754
5.0400 -2.8251 -2.3647 0.9753
5.8626 -1.4522 -2.4719 0.9742
5.9735 -0.9239 -2.4739 0.9742
6.0372 -0.3875 -2.4759 0.9742
5.9405 1.2289 -2.4828 0.9741
5.6385 2.2698 -2.4877 0.9741
5.1554 3.2425 -2.4926 0.9740
4.8503 3.6933 -2.4951 0.9740
4.1244 4.5053 -2.4999 0.9739
3.7093 4.8599 -2.5022 0.9739
2.7910 5.4512 -2.5065 0.9739
2.2002 5.4476 -2.4045 0.9749
1.7064 5.6263 -2.4063 0.9749
1.1983 5.7598 -2.4078 0.9749
-0.3707 5.8804 -2.4115 0.9749
-1.4110 5.7243 -2.4129 0.9748
-1.9166 5.5765 -2.4134 0.9748
-2.8776 5.1473 -2.4135 0.9748
-3.3252 4.8695 -2.4133 0.9748
-4.1360 4.1989 -2.4122 0.9748
-4.8127 3.3940 -2.4102 0.9749
-5.0937 2.9494 -2.4090 0.9749
-5.3333 2.4816 -2.4075 0.9749
-5.7164 2.0617 -2.4871 0.9741
-6.0375 1.0203 -2.5060 0.9739
-5.4558 -2.6902 -2.4896 0.9741
-5.1888 -3.1632 -2.4872 0.9741
-4.8810 -3.6101 -2.4847 0.9741
-4.5349 -4.0274 -2.4823 0.9741
-4.1535 -4.4118 -2.4799 0.9742
-3.7398 -4.7605 -2.4777 0.9742
-2.2424 -5.3364 -2.3691 0.9753
-0.7473 -5.7286 -2.3644 0.9753
-0.2330 -5.7695 -2.3632 0.9754
1.7981 -5.4796 -2.3603 0.9754
2.7434 -5.0721 -2.3601 0.9754
3.1853 -4.8075 -2.3603 0.9754
3.9909 -4.1664 -2.3613 0.9754
4.6716 -3.3932 -2.3631 0.9754
4.9582 -2.9642 -2.3643 0.9753
6.0224 -0.5558 -2.4753 0.9742
6.0532 -0.0161 -2.4774 0.9742
6.0360 0.5246 -2.4797 0.9742
5.8578 1.5923 -2.4844 0.9741
4.9500 3.5553 -2.4943 0.9740
4.2473 4.3871 -2.4992 0.9740
3.8424 4.7530 -2.5015 0.9739
3.4060 5.0815 -2.5037 0.9739
1.8624 5.5752 -2.4057 0.9749
1.3584 5.7230 -2.4074 0.9749
-0.2064 5.8878 -2.4112 0.9749
-0.7312 5.8480 -2.4121 0.9748
-1.2506 5.7611 -2.4128 0.9748
-1.7290 4.1768 -1.8501 0.9807
-3.1880 4.9606 -2.4134 0.9748
-4.7167 3.5276 -2.4106 0.9749
-5.2630 2.6301 -2.4080 0.9749
-5.8827 1.7216 -2.5086 0.9739
-6.0082 1.1888 -2.5067 0.9739
-6.1134 0.1016 -2.5024 0.9739
-6.0926 -0.4439 -2.5001 0.9739
-5.7407 -2.0360 -2.4929 0.9740
-5.2767 -3.0181 -2.4879 0.9741
-4.9814 -3.4735 -2.4855 0.9741
-4.6471 -3.9004 -2.4830 0.9741
-4.2763 -4.2954 -2.4807 0.9741
-3.8724 -4.6556 -2.4784 0.9742
-2.3970 -5.2861 -2.3755 0.9752
-0.9071 -5.7065 -2.3648 0.9753
0.6360 -5.7351 -2.3616 0.9754
1.1449 -5.6538 -2.3609 0.9754
1.6445 -5.5279 -2.3604 0.9754
2.1310 -5.3584 -2.3602 0.9754
2.6007 -5.1467 -2.3601 0.9754
4.2402 -3.9144 -2.3618 0.9754
4.8728 -3.1010 -2.3639 0.9753
5.3527 -2.1879 -2.3667 0.9753
5.7697 -1.7764 -2.4708 0.9742
6.0487 -0.1851 -2.4768 0.9742
6.0465 0.3558 -2.4790 0.9742
5.3251 2.9478 -2.4911 0.9740
5.0458 3.4146 -2.4935 0.9740
4.7256 3.8551 -2.4960 0.9740
3.5455 4.9831 -2.5030 0.9739
2.0169 5.5198 -2.4052 0.9749
1.0049 5.7981 -2.4084 0.9749
-1.0892 5.7933 -2.4126 0.9748
-1.6022 5.6742 -2.4131 0.9748
-2.1024 5.5094 -2.4135 0.9748
-2.5858 5.3000 -2.4136 0.9748
-3.4863 4.7551 -2.4131 0.9748
-3.8958 4.4240 -2.4126 0.9748
-4.9227 3.2302 -2.4098 0.9749
-5.1885 2.7765 -2.4085 0.9749
-5.4122 2.3010 -2.4070 0.9749
-5.8337 1.8856 -2.5092 0.9739
-5.9741 1.3565 -2.5073 0.9739
-6.0665 0.8172 -2.5053 0.9739
-6.1099 0.2724 -2.5031 0.9739
-6.0499 -0.8166 -2.4985 0.9740
-5.6010 -2.3830 -2.4912 0.9740
-5.3606 -2.8704 -2.4887 0.9741
-5.0780 -3.3341 -2.4862 0.9741
-4.7555 -3.7702 -2.4838 0.9741
-4.0020 -4.5469 -2.4791 0.9742
-2.6146 -5.3626 -2.4418 0.9745
-2.0618 -5.4071 -2.3684 0.9753
-1.5699 -5.5656 -2.3668 0.9753
-1.0663 -5.6800 -2.3653 0.9753
-0.0395 -5.7731 -2.3628 0.9754
0.9866 -5.6840 -2.3611 0.9754
1.4896 -5.5720 -2.3606 0.9754
1.9806 -5.4160 -2.3602 0.9754
2.4559 -5.2173 -2.3601 0.9754
2.9118 -4.9775 -2.3601 0.9754
3.7515 -4.3820 -2.3609 0.9754
4.1288 -4.0309 -2.3616 0.9754
4.4737 -3.6477 -2.3625 0.9754
4.7835 -3.2353 -2.3635 0.9753
5.0558 -2.7970 -2.3648 0.9753
5.2885 -2.3361 -2.3662 0.9753
5.8709 -1.4195 -2.4720 0.9742
5.9788 -0.8906 -2.4740 0.9742
5.8033 1.7884 -2.4853 0.9741
5.6261 2.3014 -2.4878 0.9741
5.4037 2.7971 -2.4903 0.9740
3.2348 5.1945 -2.5045 0.9739
2.7606 5.4669 -2.5066 0.9739
2.1753 5.4740 -2.4108 0.9749
1.6751 5.6359 -2.4064 0.9749
-1.9477 5.5658 -2.4134 0.9748
-1.8694 4.1197 -1.8516 0.9806
-3.7711 4.5314 -2.4128 0.9748
-4.1593 4.1756 -2.4121 0.9748
-4.5136 3.7864 -2.4112 0.9749
-4.8314 3.3670 -2.4102 0.9749
-5.3469 2.4517 -2.4074 0.9749
-6.1016 0.4430 -2.5038 0.9739
-6.1114 -0.1032 -2.5016 0.9739
-6.0721 -0.6476 -2.4993 0.9740
-5.9844 -1.1858 -2.4969 0.9740
-5.4404 -2.7205 -2.4895 0.9741
-4.8604 -3.6371 -2.4846 0.9741
-4.5121 -4.0524 -2.4821 0.9741
-3.2686 -5.0889 -2.4754 0.9742
-2.7991 -5.3559 -2.4733 0.9742
-1.7251 -5.5208 -2.3673 0.9753
-1.2247 -5.6490 -2.3657 0.9753
0.8277 -5.7099 -2.3613 0.9754
1.8287 -5.4694 -2.3603 0.9754
2.3093 -5.2839 -2.3601 0.9754
2.7717 -5.0568 -2.3601 0.9754
3.6274 -4.4847 -2.3607 0.9754
4.0142 -4.1442 -2.3613 0.9754
4.3695 -3.7707 -2.3622 0.9754
4.9749 -2.9366 -2.3644 0.9753
5.2201 -2.4823 -2.3657 0.9753
5.9502 -1.0569 -2.4734 0.9742
6.0536 0.0177 -2.4776 0.9742
6.0333 0.5584 -2.4798 0.9742
5.6864 2.1427 -2.4870 0.9741
5.4779 2.6443 -2.4895 0.9741
5.2253 3.1257 -2.4920 0.9740
4.9304 3.5831 -2.4945 0.9740
4.5954 4.0127 -2.4969 0.9740
4.2230 4.4110 -2.4993 0.9740
3.8160 4.7747 -2.5016 0.9739
2.9115 5.3864 -2.5059 0.9739
2.3208 5.3961 -2.4041 0.9749
1.8314 5.5857 -2.4058 0.9749
0.8103 5.8298 -2.4089 0.9749
0.2869 5.8819 -2.4102 0.9749
-1.2828 5.7541 -2.4128 0.9748
-1.7915 5.6177 -2.4133 0.9748
-1.7524 4.1673 -1.8502 0.9807
-3.2157 4.9427 -2.4134 0.9748
-3.6434 4.6353 -2.4130 0.9748
-4.0414 4.2905 -2.4124 0.9748
-4.4067 3.9114 -2.4115 0.9749
-4.7362 3.5011 -2.4105 0.9749
-5.0272 3.0629 -2.4093 0.9749
-5.8919 1.6886 -2.5085 0.9739
-6.0896 -0.4779 -2.5000 0.9739
-5.8964 -1.5499 -2.4952 0.9740
-5.5159 -2.5683 -2.4903 0.9740
-4.2520 -4.3190 -2.4805 0.9741
-3.4104 -4.9970 -2.4760 0.9742
-2.9483 -5.2770 -2.4740 0.9742
-2.3615 -5.2860 -2.3695 0.9753
-1.8789 -5.4717 -2.3678 0.9753
-1.3822 -5.6137 -2.3662 0.9753
-0.3619 -5.7635 -2.3635 0.9753
1.1765 -5.6472 -2.3609 0.9754
1.6753 -5.5186 -2.3604 0.9754
3.0771 -4.8773 -2.3602 0.9754
3.5006 -4.5839 -2.3606 0.9754
4.2621 -3.8908 -2.3619 0.9754
5.3651 -2.1581 -2.3668 0.9753
6.0500 -0.1513 -2.4769 0.9742
6.0448 0.3896 -2.4791 0.9742
5.9915 0.9283 -2.4814 0.9741
5.5479 2.4895 -2.4887 0.9741
5.3089 2.9777 -2.4912 0.9740
4.3433 4.2901 -2.4986 0.9740
3.9467 4.6650 -2.5009 0.9739
3.5179 5.0031 -2.5031 0.9739
1.4857 5.6903 -2.4070 0.9749
0.9725 5.8038 -2.4085 0.9749
-0.0748 5.8903 -2.4109 0.9749
-2.1332 5.4976 -2.4135 0.9748
-2.6154 5.2855 -2.4136 0.9748
-3.0765 5.0308 -2.4135 0.9748
-3.9204 4.4021 -2.4126 0.9748
-4.2963 4.0334 -2.4118 0.9749
-4.6372 3.6325 -2.4109 0.9749
-5.2037 2.7474 -2.4084 0.9749
-5.8438 1.8529 -2.5091 0.9739
-6.0706 0.7833 -2.5051 0.9739
-6.0449 -0.8504 -2.4984 0.9740
-5.9392 -1.3851 -2.4960 0.9740
-5.7862 -1.9077 -2.4935 0.9740
-5.5872 -2.4141 -2.4910 0.9740
-5.3442 -2.9002 -2.4886 0.9741
-5.0590 -3.3621 -2.4861 0.9741
-4.7342 -3.7965 -2.4836 0.9741
-4.3723 -4.1998 -2.4813 0.9741
-3.9763 -4.5690 -2.4789 0.9742
-3.0953 -5.1940 -2.4746 0.9742
-2.0314 -5.4183 -2.3683 0.9753
-1.0345 -5.6856 -2.3652 0.9753
0.5077 -5.7484 -2.3618 0.9754
1.5207 -5.5635 -2.3605 0.9754
2.0108 -5.4048 -2.3602 0.9754
2.4850 -5.2035 -2.3601 0.9754
3.3710 -4.6796 -2.3604 0.9754
4.1513 -4.0078 -2.3616 0.9754
4.8017 -3.2087 -2.3636 0.9753
5.3016 -2.3066 -2.3663 0.9753
5.7275 -1.9045 -2.4703 0.9743
5.8790 -1.3868 -2.4722 0.9742
6.0516 0.2206 -2.4784 0.9742
6.0133 0.7605 -2.4807 0.9741
5.9271 1.2953 -2.4831 0.9741
5.7936 1.8209 -2.4855 0.9741
5.6135 2.3329 -2.4880 0.9741
5.1195 3.3003 -2.4929 0.9740
4.0743 4.5516 -2.5002 0.9739
3.2059 5.2127 -2.5046 0.9739
2.7302 5.4826 -2.5067 0.9739
2.1394 5.4723 -2.4048 0.9749
0.6146 5.8548 -2.4094 0.9749
-3.3793 4.8320 -2.4132 0.9748
-4.1824 4.1522 -2.4121 0.9748
-4.8500 3.3398 -2.4101 0.9749
-5.3603 2.4217 -2.4073 0.9749
-5.7911 2.0158 -2.5096 0.9738
-5.9435 1.4899 -2.5078 0.9739
-5.9773 -1.2191 -2.4967 0.9740
-5.4248 -2.7507 -2.4893 0.9741
-5.1525 -3.2206 -2.4869 0.9741
-4.8398 -3.6640 -2.4844 0.9741
-4.4892 -4.0773 -2.4820 0.9741
-4.1035 -4.4574 -2.4797 0.9742
-2.1825 -5.3606 -2.3688 0.9753
-1.1931 -5.6556 -2.3656 0.9753
-0.6832 -5.7362 -2.3643 0.9753
1.8592 -5.4591 -2.3603 0.9754
2.3388 -5.2709 -2.3601 0.9754
2.7999 -5.0412 -2.3601 0.9754
3.2389 -4.7717 -2.3603 0.9754
3.6525 -4.4644 -2.3608 0.9754
4.9914 -2.9089 -2.3644 0.9753
5.2342 -2.4532 -2.3658 0.9753
5.8366 -1.5500 -2.4716 0.9742
6.0288 -0.4885 -2.4755 0.9742
5.8403 1.6579 -2.4847 0.9741
5.4634 2.6750 -2.4897 0.9741
5.2081 3.1550 -2.4922 0.9740
4.5732 4.0386 -2.4971 0.9740
3.3493 5.1198 -2.5040 0.9739
2.8815 5.4028 -2.5061 0.9739
2.2907 5.4092 -2.4042 0.9749
1.8002 5.5961 -2.4060 0.9749
1.2945 5.7383 -2.4076 0.9749
0.7777 5.8344 -2.4090 0.9749
-0.2722 5.8854 -2.4113 0.9749
-0.7966 5.8397 -2.4122 0.9748
-1.3149 5.7469 -2.4128 0.9748
-1.8229 5.6077 -2.4133 0.9748
-1.7758 4.1578 -1.8504 0.9806
-2.7910 5.1949 -2.4136 0.9748
-5.0441 3.0346 -2.4092 0.9749
-5.2917 2.5709 -2.4078 0.9749
-5.5821 2.1196 -2.4438 0.9745
-6.0865 -0.5119 -2.4999 0.9739
-5.8872 -1.5828 -2.4951 0.9740
-5.7169 -2.0997 -2.4926 0.9740
-5.5012 -2.5989 -2.4901 0.9740
-4.9417 -3.5285 -2.4852 0.9741
-4.6026 -3.9515 -2.4827 0.9741
-3.8197 -4.6980 -2.4781 0.9742
-3.3822 -5.0157 -2.4759 0.9742
-2.9187 -5.2931 -2.4738 0.9742
-2.3318 -5.2988 -2.3694 0.9753
-0.8433 -5.7159 -2.3647 0.9753
0.1861 -5.7691 -2.3624 0.9754
1.2079 -5.6405 -2.3609 0.9754
1.7061 -5.5091 -2.3604 0.9754
2.1908 -5.3343 -2.3601 0.9754
2.6579 -5.1174 -2.3601 0.9754
3.1042 -4.8601 -2.3602 0.9754
3.5262 -4.5644 -2.3606 0.9754
3.9204 -4.2325 -2.3612 0.9754
4.2838 -3.8670 -2.3619 0.9754
4.6137 -3.4707 -2.3629 0.9754
6.0113 -0.6565 -2.4749 0.9742
5.8825 1.4937 -2.4840 0.9741
5.7314 2.0147 -2.4864 0.9741
5.2925 3.0075 -2.4914 0.9740
4.6828 3.9081 -2.4963 0.9740
3.9209 4.6872 -2.5010 0.9739
3.0304 5.3189 -2.5054 0.9739
2.4628 5.3909 -2.4257 0.9747
1.4539 5.6988 -2.4071 0.9749
0.4182 5.8733 -2.4099 0.9749
-0.1077 5.8899 -2.4110 0.9749
-0.6331 5.8591 -2.4119 0.9749
-1.1539 5.7809 -2.4127 0.9748
-1.6655 5.6561 -2.4132 0.9748
-2.6449 5.2708 -2.4136 0.9748
-3.1046 5.0135 -2.4134 0.9748
-3.9449 4.3801 -2.4125 0.9748
-4.6573 3.6064 -2.4108 0.9749
-4.9582 3.1748 -2.4096 0.9749
-5.4371 2.2402 -2.4068 0.9749
-5.8538 1.8202 -2.5090 0.9739
-6.0746 0.7494 -2.5050 0.9739
-6.1119 0.2041 -2.5028 0.9739
-6.1002 -0.3419 -2.5006 0.9739
-6.0397 -0.8841 -2.4982 0.9740
-5.3276 -2.9298 -2.4884 0.9741
-5.0399 -3.3901 -2.4859 0.9741
-4.3485 -4.2239 -2.4811 0.9741
-3.9505 -4.5908 -2.4788 0.9742
-3.5219 -4.9207 -2.4766 0.9742
-2.0011 -5.4292 -2.3682 0.9753
-1.5075 -5.5824 -2.3666 0.9753
-1.0027 -5.6911 -2.3651 0.9753
0.5398 -5.7453 -2.3618 0.9754
1.0500 -5.6725 -2.3610 0.9754
1.5517 -5.5549 -2.3605 0.9754
2.0410 -5.3935 -2.3602 0.9754
3.3971 -4.6608 -2.3605 0.9754
4.8196 -3.1819 -2.3637 0.9753
5.0871 -2.7406 -2.3649 0.9753
5.8869 -1.3540 -2.4723 0.9742
5.9890 -0.8239 -2.4742 0.9742
6.0438 -0.2863 -2.4763 0.9742
6.0506 0.2544 -2.4786 0.9742
6.0093 0.7941 -2.4808 0.9741
5.9202 1.3285 -2.4832 0.9741
5.7836 1.8533 -2.4857 0.9741
5.6007 2.3644 -2.4881 0.9741
5.3728 2.8576 -2.4906 0.9740
5.1013 3.3290 -2.4931 0.9740
4.4369 4.1911 -2.4980 0.9740
3.1770 5.2308 -2.5048 0.9739
2.6885 5.4753 -2.4965 0.9740
1.1017 5.7798 -2.4081 0.9749
0.0568 5.8898 -2.4107 0.9749
-0.4692 5.8738 -2.4117 0.9749
-1.9163 4.1006 -1.8525 0.9806
-2.9635 5.0983 -2.4135 0.9748
-4.2054 4.1287 -2.4120 0.9749
-5.1418 2.8633 -2.4087 0.9749
-5.9514 1.4566 -2.5077 0.9739
-6.1055 0.3748 -2.5035 0.9739
-5.6412 -2.2892 -2.4917 0.9740
-4.4660 -4.1021 -2.4819 0.9741
-3.6589 -4.8217 -2.4773 0.9742
-3.2112 -5.1246 -2.4751 0.9742
-2.7388 -5.3863 -2.4731 0.9742
-2.1524 -5.3725 -2.3687 0.9753
-1.6631 -5.5392 -2.3671 0.9753
-1.1615 -5.6619 -2.3655 0.9753
-0.1363 -5.7721 -2.3630 0.9754
0.3792 -5.7588 -2.3620 0.9754
0.8913 -5.7001 -2.3612 0.9754
2.8280 -5.0255 -2.3601 0.9754
3.2655 -4.7536 -2.3603 0.9754
4.7282 -3.3148 -2.3633 0.9754
5.0077 -2.8810 -2.3645 0.9753
5.2479 -2.4241 -2.3659 0.9753
5.6318 -2.0134 -2.4478 0.9745
5.8454 -1.5175 -2.4717 0.9742
6.0318 -0.4549 -2.4757 0.9742
6.0274 0.6258 -2.4801 0.9741
5.9532 1.1623 -2.4825 0.9741
5.6628 2.2064 -2.4873 0.9741
5.1907 3.1843 -2.4923 0.9740
4.1739 4.4585 -2.4996 0.9739
3.3209 5.1387 -2.5041 0.9739
2.8514 5.4191 -2.5062 0.9739
2.2606 5.4222 -2.4043 0.9749
1.2625 5.7456 -2.4076 0.9749
0.2212 5.8851 -2.4103 0.9749
-1.3470 5.7396 -2.4129 0.9748
-1.8542 5.5975 -2.4133 0.9748
-1.7992 4.1483 -1.8506 0.9806
-3.2706 4.9064 -2.4133 0.9748
-4.0890 4.2450 -2.4123 0.9748
-4.4499 3.8618 -2.4114 0.9749
-5.0608 3.0063 -2.4091 0.9749
-6.0943 0.5452 -2.5042 0.9739
-6.1133 -0.0008 -2.5020 0.9739
-6.0832 -0.5459 -2.4997 0.9739
-6.0045 -1.0855 -2.4973 0.9740
-5.7047 -2.1314 -2.4924 0.9740
-3.3539 -5.0343 -2.4758 0.9742
-2.3021 -5.3115 -2.3693 0.9753
-1.8176 -5.4918 -2.3676 0.9753
-1.3193 -5.6284 -2.3660 0.9753
-0.8113 -5.7203 -2.3646 0.9753
0.2183 -5.7678 -2.3623 0.9754
0.7319 -5.7233 -2.3615 0.9754
1.2394 -5.6336 -2.3608 0.9754
3.1314 -4.8427 -2.3603 0.9754
3.5516 -4.5447 -2.3606 0.9754
3.9440 -4.2106 -2.3612 0.9754
4.3055 -3.8431 -2.3620 0.9754
4.6332 -3.4449 -2.3630 0.9754
5.1772 -2.5692 -2.3655 0.9753
5.4189 -2.1097 -2.3800 0.9752
5.7995 -1.6797 -2.4711 0.9742
6.0152 -0.6229 -2.4750 0.9742
6.0520 -0.0837 -2.4772 0.9742
5.7204 2.0468 -2.4866 0.9741
4.9888 3.4993 -2.4940 0.9740
3.0009 5.3360 -2.5056 0.9739
1.4221 5.7070 -2.4072 0.9749
0.9077 5.8147 -2.4086 0.9749
0.3854 5.8757 -2.4100 0.9749
-0.6659 5.8556 -2.4120 0.9749
-1.1861 5.7745 -2.4127 0.9748
-1.6971 5.6468 -2.4132 0.9748
-3.1325 4.9960 -2.4134 0.9748
-3.5653 4.6958 -2.4131 0.9748
-3.9692 4.3579 -2.4125 0.9748
-4.3408 3.9850 -2.4117 0.9749
-4.6773 3.5802 -2.4107 0.9749
-5.2337 2.6889 -2.4082 0.9749
-5.9951 1.2560 -2.5069 0.9739
-6.0783 0.7154 -2.5049 0.9739
-6.1126 0.1700 -2.5027 0.9739
-5.9226 -1.4512 -2.4957 0.9740
-5.7638 -1.9720 -2.4932 0.9740
-5.3108 -2.9593 -2.4882 0.9741
-5.0205 -3.4181 -2.4858 0.9741
-4.6909 -3.8487 -2.4833 0.9741
-3.4941 -4.9400 -2.4765 0.9742
-1.9706 -5.4401 -2.3681 0.9753
-1.4762 -5.5905 -2.3665 0.9753
-0.9709 -5.6964 -2.3650 0.9753
-0.4584 -5.7572 -2.3637 0.9753
0.0572 -5.7724 -2.3626 0.9754
1.0817 -5.6664 -2.3610 0.9754
1.5827 -5.5461 -2.3605 0.9754
3.8246 -4.3187 -2.3610 0.9754
4.1960 -3.9614 -2.3617 0.9754
4.8375 -3.1550 -2.3637 0.9753
5.3275 -2.2474 -2.3665 0.9753
5.8947 -1.3211 -2.4724 0.9742
5.9938 -0.7905 -2.4744 0.9742
6.0456 -0.2526 -2.4765 0.9742
6.0052 0.8277 -2.4810 0.9741
5.0830 3.3576 -2.4932 0.9740
4.4137 4.2160 -2.4981 0.9740
4.0237 4.5974 -2.5005 0.9739
3.6006 4.9426 -2.5027 0.9739
3.1479 5.2488 -2.5049 0.9739
0.0224 5.5281 -2.4093 0.9762
-0.4712 5.5101 -2.4102 0.9762
-3.6096 4.1925 -2.4111 0.9761
-4.2947 3.4818 -2.4096 0.9762
-4.5863 3.0833 -2.4085 0.9762
-5.4561 1.8311 -2.5082 0.9752
-5.6891 -0.7033 -2.4983 0.9753
