ply
format ascii 1.0
element vertex 1578
property float32 x
property float32 y
property float32 z
property float32 I
end_header
10.4292 4.8171 -2.1593 0.9543
9.4512 5.4368 -2.0494 0.9566
6.9003 6.9634 -1.8426 0.9609
6.1307 7.4049 -1.8069 0.9616
5.6844 8.2695 -1.8861 0.9600
5.3039 9.4179 -2.0316 0.9570
4.5270 10.0401 -2.0701 0.9562
4.2939 12.3630 -2.4599 0.9481
2.5726 16.3937 -3.1191 0.9347
-2.3750 7.9324 -1.5564 0.9669
-8.4826 9.3373 -2.3711 0.9500
-10.0066 7.6813 -2.3711 0.9500
-11.1129 7.0507 -2.4737 0.9478
-11.6988 6.0321 -2.4740 0.9478
-12.1921 4.9654 -2.4744 0.9478
-13.0813 1.5615 -2.4762 0.9478
-13.1727 0.3886 -2.4770 0.9478
-12.6137 -0.7554 -2.3751 0.9499
-12.2889 -2.9871 -2.3771 0.9498
-11.9789 -4.0731 -2.3782 0.9498
-11.1837 -6.2027 -2.4038 0.9493
-9.9140 -8.0996 -2.4063 0.9492
-9.1570 -8.9564 -2.4076 0.9492
-8.3261 -9.7427 -2.4089 0.9492
-7.4280 -10.4521 -2.4102 0.9491
-4.4026 -12.0646 -2.4140 0.9491
-0.9948 -12.1095 -2.2838 0.9518
0.0890 -12.1132 -2.2769 0.9519
1.2282 -12.6661 -2.3919 0.9495
3.4672 -12.2749 -2.3975 0.9494
6.5977 -10.9264 -2.3991 0.9494
8.8012 -9.9972 -2.5035 0.9472
9.6581 -9.1728 -2.5036 0.9472
10.4377 -8.2747 -2.5036 0.9472
12.6659 -4.1000 -2.5023 0.9473
12.4404 -2.8309 -2.3981 0.9494
12.6397 -1.7096 -2.3974 0.9494
12.7377 -0.5751 -2.3966 0.9494
12.7336 0.5631 -2.3958 0.9494
14.0315 1.8846 -2.6610 0.9440
11.5340 3.7218 -2.2780 0.9519
10.7309 4.5554 -2.1912 0.9537
1.6445 -11.2110 -2.3951 0.9547
2.6387 -11.0228 -2.3958 0.9547
4.5574 -10.3835 -2.3970 0.9547
5.4663 -9.9374 -2.3974 0.9547
6.5247 -9.6984 -2.4708 0.9533
8.2466 -8.4903 -2.5019 0.9528
11.1006 -4.0948 -2.5010 0.9528
11.2151 -3.0325 -2.4558 0.9536
11.1640 -1.9712 -2.3964 0.9547
13.1294 2.4229 -2.8221 0.9469
7.8512 2.9652 -1.7740 0.9663
9.9615 4.8173 -2.3389 0.9558
7.3617 6.4355 -2.0669 0.9608
6.5925 6.8931 -2.0162 0.9618
2.9164 12.6126 -2.7364 0.9485
-3.5816 8.5196 -1.9535 0.9629
-4.8443 9.1421 -2.1870 0.9586
-7.6940 8.1730 -2.3727 0.9551
-9.4137 6.9645 -2.4752 0.9533
-10.5032 5.1819 -2.4757 0.9532
-10.9251 4.2251 -2.4760 0.9532
-11.7243 0.1379 -2.4785 0.9532
-11.5696 -0.8991 -2.4530 0.9537
-11.0902 -1.8679 -2.3773 0.9551
-10.8836 -2.8508 -2.3782 0.9550
-9.7530 -5.6377 -2.3812 0.9550
-9.2156 -6.4882 -2.3823 0.9550
-8.6883 -7.3589 -2.4068 0.9545
-8.0011 -8.1084 -2.4079 0.9545
-6.4393 -9.4100 -2.4102 0.9545
-5.5769 -9.9516 -2.4114 0.9544
-4.6692 -10.4141 -2.4125 0.9544
-1.7478 -11.2934 -2.4156 0.9544
-0.7338 -11.4088 -2.4166 0.9543
1.2933 -11.2556 -2.3949 0.9547
2.2927 -11.0988 -2.3956 0.9547
3.2745 -10.8530 -2.3962 0.9547
4.2304 -10.5201 -2.3968 0.9547
6.0344 -9.6044 -2.3976 0.9547
7.1650 -9.4197 -2.5017 0.9528
7.9772 -8.7437 -2.5019 0.9528
8.7256 -7.9976 -2.5019 0.9528
9.4040 -7.1873 -2.5019 0.9528
10.5297 -5.4012 -2.5015 0.9528
10.9679 -4.4399 -2.5011 0.9528
11.2577 -1.3198 -2.3959 0.9547
11.3272 -0.3103 -2.3952 0.9547
11.3060 0.7011 -2.3944 0.9547
10.6188 1.6184 -2.2705 0.9570
10.2959 4.5878 -2.3826 0.9550
8.4710 5.7681 -2.1663 0.9590
7.6422 6.2706 -2.0896 0.9604
6.8571 6.7353 -2.0317 0.9615
6.1060 7.1755 -1.9916 0.9622
5.4554 7.7109 -1.9966 0.9621
5.2763 9.0796 -2.2198 0.9580
4.1666 11.4933 -2.5842 0.9512
-7.4349 8.4096 -2.3727 0.9551
-8.1551 7.7126 -2.3727 0.9551
-8.8106 6.9546 -2.3727 0.9551
-9.8024 6.4067 -2.4753 0.9533
-10.3357 5.5073 -2.4756 0.9532
-10.7872 4.5641 -2.4759 0.9532
-11.6180 1.5464 -2.4775 0.9532
-11.7150 -0.5429 -2.4790 0.9532
-10.9658 -2.5090 -2.3779 0.9551
-10.7026 -3.4785 -2.3788 0.9550
-9.4122 -6.1961 -2.3820 0.9550
-7.5194 -8.5617 -2.4087 0.9545
-6.7290 -9.2027 -2.4098 0.9545
-5.8841 -9.7709 -2.4110 0.9544
-4.9915 -10.2615 -2.4121 0.9544
-3.0916 -10.9950 -2.4143 0.9544
-1.0897 -11.3787 -2.4162 0.9543
-0.0705 -11.4349 -2.4171 0.9543
1.9447 -11.1638 -2.3953 0.9547
2.9335 -10.9490 -2.3960 0.9547
5.7311 -9.7878 -2.3975 0.9547
6.8670 -9.6387 -2.5016 0.9528
7.7000 -8.9885 -2.5018 0.9528
8.4714 -8.2663 -2.5019 0.9528
9.8049 -6.6292 -2.5018 0.9528
10.3562 -5.7278 -2.5016 0.9528
11.2058 -3.7954 -2.5009 0.9528
11.0210 -2.6651 -2.3968 0.9547
11.2120 -1.6710 -2.3962 0.9547
8.7724 5.5804 -2.1977 0.9584
7.9278 6.1005 -2.1145 0.9599
7.1246 6.5735 -2.0491 0.9611
6.3675 7.0256 -2.0043 0.9620
5.6196 7.4387 -1.9706 0.9626
3.6350 12.1930 -2.6894 0.9493
2.7565 13.5692 -2.9268 0.9450
1.6238 14.5553 -3.0958 0.9419
-1.1610 7.3418 -1.5712 0.9701
-1.9421 7.7299 -1.6847 0.9679
-5.9727 6.0131 -1.7915 0.9659
-8.5890 7.2264 -2.3727 0.9551
-10.1582 5.8274 -2.4755 0.9532
-11.0351 3.9308 -2.4762 0.9532
-11.3440 2.9315 -2.4767 0.9532
-11.5630 1.9084 -2.4772 0.9532
-11.6903 0.8697 -2.4779 0.9532
-11.7249 -0.1765 -2.4787 0.9532
-11.1823 -1.1713 -2.3767 0.9551
-11.0373 -2.1649 -2.3775 0.9551
-10.8045 -3.1420 -2.3785 0.9550
-10.0829 -5.0160 -2.3805 0.9550
-9.1279 -6.7996 -2.4060 0.9545
-7.0121 -8.9865 -2.4094 0.9545
-6.1855 -9.5807 -2.4106 0.9544
-5.3088 -10.0989 -2.4117 0.9544
-3.4331 -10.8914 -2.4139 0.9544
-1.4445 -11.3376 -2.4159 0.9543
1.5948 -11.2179 -2.3951 0.9547
2.5897 -11.0342 -2.3958 0.9547
4.5112 -10.4035 -2.3969 0.9547
5.4222 -9.9615 -2.3974 0.9547
6.4326 -9.6536 -2.4521 0.9537
7.4152 -9.2244 -2.5018 0.9528
8.2089 -8.5268 -2.5019 0.9528
8.9369 -7.7607 -2.5019 0.9528
10.1726 -6.0487 -2.5017 0.9528
10.6703 -5.1167 -2.5014 0.9528
11.4057 -3.1384 -2.5005 0.9528
11.1553 -2.0207 -2.3964 0.9547
11.3303 -0.0064 -2.3950 0.9547
11.2820 1.0038 -2.3942 0.9547
10.1944 1.8346 -2.1895 0.9585
11.7605 3.2215 -2.5775 0.9514
10.0094 4.7858 -2.3452 0.9557
6.2947 3.7332 -1.5470 0.9705
8.2176 5.9242 -2.1413 0.9594
6.6299 6.8710 -2.0183 0.9617
5.8806 7.2983 -1.9812 0.9624
5.4057 8.0925 -2.0571 0.9610
5.0335 9.2224 -2.2209 0.9580
4.2845 9.8500 -2.2705 0.9570
3.9836 11.9814 -2.6689 0.9497
2.9683 12.5830 -2.7328 0.9485
0.7999 15.0666 -3.1892 0.9402
-0.9116 7.2204 -1.5384 0.9707
-3.5280 8.4973 -1.9448 0.9631
-6.8955 8.8580 -2.3729 0.9551
-8.3590 7.4912 -2.3726 0.9551
-10.9062 4.2735 -2.4760 0.9532
-11.4967 2.2686 -2.4770 0.9532
-11.6563 1.2344 -2.4777 0.9532
-11.7234 0.1899 -2.4784 0.9532
-11.6618 -0.8542 -2.4717 0.9533
-11.0981 -1.8187 -2.3772 0.9551
-9.7777 -5.5943 -2.3812 0.9550
-9.2440 -6.4471 -2.3823 0.9550
-8.0368 -8.0727 -2.4079 0.9545
-7.2882 -8.7615 -2.4090 0.9545
-6.4808 -9.3811 -2.4102 0.9545
-5.6209 -9.9265 -2.4113 0.9544
-3.7711 -10.7772 -2.4135 0.9544
-2.7961 -11.0754 -2.4146 0.9544
-0.7844 -11.4052 -2.4165 0.9543
0.2362 -11.4339 -2.4174 0.9543
2.2435 -11.1087 -2.3956 0.9547
3.2262 -10.8672 -2.3962 0.9547
7.1232 -9.4513 -2.5017 0.9528
7.9384 -8.7790 -2.5019 0.9528
8.6900 -8.0362 -2.5019 0.9528
9.3721 -7.2289 -2.5019 0.9528
11.3029 -3.4934 -2.5007 0.9528
11.2519 -1.3697 -2.3960 0.9547
9.3313 2.2452 -2.0287 0.9615
10.3308 4.5485 -2.3860 0.9549
6.8949 6.7126 -2.0341 0.9614
5.4632 7.6497 -1.9870 0.9623
4.5487 9.6236 -2.2500 0.9574
4.1402 11.2642 -2.5368 0.9521
2.4766 14.1223 -3.0307 0.9431
1.2443 14.7275 -3.1242 0.9414
-2.1964 7.8456 -1.7222 0.9672
-6.6156 9.0694 -2.3729 0.9551
-9.7738 6.4501 -2.4753 0.9533
-10.3111 5.5531 -2.4755 0.9532
-10.7668 4.6119 -2.4759 0.9532
-11.1371 3.6337 -2.4763 0.9532
-11.6109 1.5979 -2.4774 0.9532
-11.7105 0.5560 -2.4781 0.9532
-11.7171 -0.4909 -2.4789 0.9532
-9.9462 -5.2852 -2.3808 0.9550
-9.4394 -6.1541 -2.3819 0.9550
-8.9436 -7.0429 -2.4063 0.9545
-8.2837 -7.8163 -2.4075 0.9545
-7.5571 -8.5281 -2.4086 0.9545
-5.0368 -10.2391 -2.4120 0.9544
-3.1402 -10.9810 -2.4142 0.9544
0.8908 -11.2931 -2.3945 0.9547
1.8951 -11.1722 -2.3953 0.9547
4.7888 -10.2794 -2.3971 0.9547
5.6876 -9.8130 -2.3975 0.9547
6.8242 -9.6690 -2.5016 0.9528
7.6600 -9.0225 -2.5018 0.9528
9.1417 -7.5183 -2.5019 0.9528
9.7754 -6.6727 -2.5018 0.9528
10.3308 -5.7737 -2.5016 0.9528
10.8032 -4.8286 -2.5013 0.9528
11.2046 -1.7207 -2.3962 0.9547
11.3103 -0.7143 -2.3955 0.9547
11.3480 3.4382 -2.5064 0.9527
10.5782 4.2681 -2.4112 0.9544
8.8157 5.5532 -2.2023 0.9583
7.9685 6.0759 -2.1182 0.9599
6.4046 7.0039 -2.0061 0.9619
5.6565 7.4189 -1.9720 0.9626
5.3612 8.5114 -2.1263 0.9597
4.8073 9.3987 -2.2315 0.9578
4.0529 10.0457 -2.2897 0.9567
-1.9009 7.7103 -1.6786 0.9681
-5.2083 9.3187 -2.2566 0.9573
-6.3293 9.2720 -2.3730 0.9551
-7.1304 8.6697 -2.3728 0.9551
-8.5568 7.2644 -2.3726 0.9551
-10.1322 5.8723 -2.4755 0.9532
-10.6169 4.9457 -2.4758 0.9532
-11.0174 3.9797 -2.4761 0.9532
-11.3307 2.9817 -2.4766 0.9532
-11.5542 1.9596 -2.4772 0.9532
-11.6862 0.9215 -2.4779 0.9532
-11.1872 -1.1217 -2.3766 0.9551
-11.0466 -2.1159 -2.3775 0.9551
-9.6255 -5.8553 -2.3815 0.9550
-8.5224 -7.5524 -2.4070 0.9545
-7.8186 -8.2864 -2.4082 0.9545
-7.0517 -8.9550 -2.4094 0.9545
-3.4813 -10.8758 -2.4138 0.9544
-2.4984 -11.1478 -2.4149 0.9544
-1.4947 -11.3308 -2.4159 0.9543
-0.4783 -11.4234 -2.4168 0.9543
2.5407 -11.0454 -2.3958 0.9547
5.3779 -9.9854 -2.3974 0.9547
7.3742 -9.2572 -2.5017 0.9528
8.1710 -8.5631 -2.5019 0.9528
10.1457 -6.0938 -2.5017 0.9528
11.0641 -4.1931 -2.5010 0.9528
11.3918 -3.1889 -2.5006 0.9528
11.1464 -2.0701 -2.3964 0.9547
11.3304 -0.0567 -2.3950 0.9547
11.2865 0.9538 -2.3942 0.9547
10.8284 3.9803 -2.4386 0.9539
10.0576 4.7542 -2.3515 0.9555
6.3122 3.7059 -1.5472 0.9705
8.2592 5.8987 -2.1454 0.9594
6.6673 6.8487 -2.0204 0.9617
5.9177 7.2782 -1.9828 0.9624
5.0738 9.1989 -2.2206 0.9580
4.3224 9.8178 -2.2675 0.9571
4.0261 11.9324 -2.6620 0.9498
3.0201 12.5534 -2.7292 0.9486
-0.8779 7.2104 -1.5354 0.9707
-6.0368 9.4656 -2.3731 0.9551
-6.8562 8.8885 -2.3729 0.9551
-7.6212 8.2410 -2.3727 0.9551
-8.3257 7.5281 -2.3726 0.9551
-9.0770 6.8407 -2.4026 0.9546
-9.9435 6.1858 -2.4754 0.9533
-10.8871 4.3217 -2.4760 0.9532
-11.2312 3.3340 -2.4765 0.9532
-11.4864 2.3195 -2.4770 0.9532
-11.6505 1.2860 -2.4776 0.9532
-10.9080 -2.7541 -2.3781 0.9550
-10.6232 -3.7176 -2.3791 0.9550
-9.2723 -6.4059 -2.3822 0.9550
-8.7528 -7.2812 -2.4066 0.9545
-7.3268 -8.7289 -2.4090 0.9545
-5.6646 -9.9013 -2.4112 0.9544
-3.8188 -10.7601 -2.4135 0.9544
-1.8478 -11.2770 -2.4155 0.9544
-0.8349 -11.4014 -2.4165 0.9543
1.1934 -11.2662 -2.3948 0.9547
2.1942 -11.1183 -2.3955 0.9547
3.1780 -10.8813 -2.3962 0.9547
5.0630 -10.1479 -2.3972 0.9547
7.0811 -9.4828 -2.5017 0.9528
7.8994 -8.8141 -2.5019 0.9528
8.6543 -8.0746 -2.5019 0.9528
9.9506 -6.4080 -2.5018 0.9528
10.4815 -5.4944 -2.5015 0.9528
11.2874 -3.5436 -2.5007 0.9528
11.3243 -0.4107 -2.3953 0.9547
12.3429 2.9120 -2.6806 0.9495
8.2842 2.7545 -1.8454 0.9649
6.5646 3.5831 -1.5809 0.9699
8.5558 5.7155 -2.1749 0.9588
7.7228 6.2228 -2.0964 0.9603
6.1809 7.1343 -1.9953 0.9621
4.5857 9.5916 -2.2473 0.9575
3.3811 12.3438 -2.7053 0.9490
2.5354 14.0902 -3.0262 0.9431
1.3076 14.6997 -3.1195 0.9414
-2.1532 7.8246 -1.7154 0.9674
-5.7383 9.6501 -2.3732 0.9551
-6.1491 5.9197 -1.8042 0.9657
-8.7486 7.0324 -2.3727 0.9551
-10.2864 5.5987 -2.4755 0.9532
-11.1208 3.6831 -2.4763 0.9532
-11.6035 1.6493 -2.4774 0.9532
-11.7190 -0.4389 -2.4789 0.9532
-10.9872 -2.4116 -2.3778 0.9551
-10.7326 -3.3833 -2.3787 0.9550
-8.9745 -7.0030 -2.4063 0.9545
-7.5947 -8.4943 -2.4085 0.9545
-6.8100 -9.1422 -2.4097 0.9545
-4.1525 -10.6338 -2.4131 0.9544
-2.1989 -11.2121 -2.4152 0.9544
-1.1905 -11.3682 -2.4162 0.9543
-0.1719 -11.4334 -2.4171 0.9543
0.8407 -11.2968 -2.3945 0.9547
1.8455 -11.1803 -2.3953 0.9547
8.3978 -8.3410 -2.5019 0.9528
9.1083 -7.5588 -2.5019 0.9528
9.7458 -6.7160 -2.5018 0.9528
10.3051 -5.8194 -2.5016 0.9528
11.1970 -1.7704 -2.3962 0.9547
11.3072 -0.7644 -2.3956 0.9547
11.3267 0.2471 -2.3948 0.9547
11.2557 1.2560 -2.3940 0.9548
12.8883 2.6185 -2.7800 0.9477
10.6135 4.2277 -2.4149 0.9544
9.7696 4.9427 -2.3143 0.9562
8.0094 6.0511 -2.1219 0.9598
7.2025 6.5281 -2.0548 0.9610
6.4417 6.9821 -2.0081 0.9619
5.6935 7.3991 -1.9735 0.9625
5.3606 8.4274 -2.1112 0.9600
4.8435 9.3669 -2.2290 0.9578
2.7846 13.1104 -2.8331 0.9467
1.7475 14.4965 -3.0864 0.9421
0.4886 15.9304 -3.3690 0.9369
-1.0892 7.3068 -1.5616 0.9702
-5.1388 9.2908 -2.2443 0.9575
-6.2882 9.3000 -2.3730 0.9551
-8.5246 7.3022 -2.3726 0.9551
-9.5373 6.7945 -2.4753 0.9533
-10.5947 4.9927 -2.4757 0.9532
-11.3173 3.0319 -2.4766 0.9532
-11.5453 2.0109 -2.4772 0.9532
-11.6818 0.9733 -2.4779 0.9532
-11.7256 -0.0726 -2.4786 0.9532
-11.2306 -1.0758 -2.3848 0.9549
-11.0557 -2.0669 -2.3774 0.9551
-10.8315 -3.0459 -2.3784 0.9550
-9.1874 -6.7181 -2.4059 0.9545
-7.8550 -8.2515 -2.4081 0.9545
-7.0911 -8.9235 -2.4093 0.9545
-5.3979 -10.0510 -2.4116 0.9544
-2.5478 -11.1364 -2.4148 0.9544
-0.5289 -11.4209 -2.4168 0.9543
0.4920 -11.4267 -2.4176 0.9543
1.4952 -11.2313 -2.3950 0.9547
2.4917 -11.0564 -2.3957 0.9547
5.3336 -10.0090 -2.3973 0.9547
8.1329 -8.5992 -2.5019 0.9528
8.8677 -7.8397 -2.5019 0.9528
11.3776 -3.2394 -2.5006 0.9528
11.1372 -2.1195 -2.3964 0.9547
11.3302 -0.1070 -2.3951 0.9547
11.2908 0.9038 -2.3943 0.9547
10.3220 1.7632 -2.2135 0.9581
11.9014 3.1470 -2.6022 0.9509
10.8641 3.9389 -2.4427 0.9539
10.1060 4.7223 -2.3579 0.9554
5.4227 7.9640 -2.0366 0.9614
5.1139 9.1754 -2.2204 0.9580
4.0615 11.8636 -2.6506 0.9500
2.1764 14.2822 -3.0538 0.9426
0.9214 14.8647 -3.1481 0.9409
-6.8168 8.9188 -2.3729 0.9551
-7.5846 8.2747 -2.3727 0.9551
-8.2922 7.5650 -2.3726 0.9551
-10.8677 4.3699 -2.4760 0.9532
-11.7209 0.2938 -2.4783 0.9532
-11.7042 -0.7531 -2.4791 0.9532
-11.1134 -1.7202 -2.3771 0.9551
-10.9199 -2.7056 -2.3780 0.9550
-10.6393 -3.6703 -2.3790 0.9550
-10.2740 -4.6066 -2.3800 0.9550
-9.8265 -5.5071 -2.3811 0.9550
-8.1076 -8.0007 -2.4077 0.9545
-4.8070 -10.3504 -2.4123 0.9544
-3.8664 -10.7428 -2.4134 0.9544
-2.8940 -11.0497 -2.4145 0.9544
-1.8977 -11.2685 -2.4155 0.9544
0.1347 -11.4351 -2.4173 0.9543
1.1434 -11.2712 -2.3947 0.9547
2.1448 -11.1278 -2.3955 0.9547
3.1297 -10.8951 -2.3961 0.9547
7.8602 -8.8490 -2.5019 0.9528
9.9222 -6.4521 -2.5018 0.9528
10.4571 -5.5409 -2.5015 0.9528
11.3149 0.5506 -2.3946 0.9547
13.1949 1.8318 -2.8159 0.9470
12.4181 2.8717 -2.6942 0.9492
10.4007 4.4697 -2.3929 0.9548
6.6013 3.5652 -1.5859 0.9698
7.7631 6.1988 -2.0999 0.9602
6.2178 7.1129 -1.9970 0.9621
5.4784 7.5290 -1.9682 0.9626
4.1087 10.8796 -2.4583 0.9536
3.4316 12.3140 -2.7021 0.9491
2.5942 14.0591 -3.0220 0.9432
1.3707 14.6715 -3.1148 0.9415
-6.5350 9.1278 -2.3730 0.9551
-7.3225 8.5078 -2.3728 0.9551
-6.0431 5.8694 -1.7807 0.9661
-8.7173 7.0711 -2.3727 0.9551
-9.7162 6.5364 -2.4753 0.9533
-10.7253 4.7071 -2.4758 0.9532
-11.1043 3.7323 -2.4763 0.9532
-11.7047 0.6598 -2.4781 0.9532
-10.9976 -2.3628 -2.3777 0.9551
-10.7473 -3.3356 -2.3787 0.9550
-9.9922 -5.1966 -2.3807 0.9550
-9.4932 -6.0699 -2.3818 0.9550
-9.0053 -6.9630 -2.4062 0.9545
-8.3523 -7.7422 -2.4073 0.9545
-7.6321 -8.4604 -2.4085 0.9545
-6.0131 -9.6910 -2.4108 0.9544
-2.2485 -11.2021 -2.4151 0.9544
-0.2226 -11.4323 -2.4170 0.9543
0.7906 -11.3002 -2.3945 0.9547
1.7960 -11.1882 -2.3952 0.9547
4.6974 -10.3213 -2.3970 0.9547
5.6003 -9.8629 -2.3975 0.9547
6.7381 -9.7290 -2.5016 0.9528
9.7160 -6.7591 -2.5018 0.9528
10.2793 -5.8651 -2.5016 0.9528
10.7601 -4.9243 -2.5013 0.9528
10.9849 -2.8116 -2.3968 0.9547
11.1892 -1.8201 -2.3963 0.9547
11.3279 0.1969 -2.3948 0.9547
11.2613 1.2060 -2.3940 0.9548
12.9688 2.5749 -2.7948 0.9474
10.6489 4.1872 -2.4187 0.9543
8.9028 5.4983 -2.2118 0.9581
7.2417 6.5054 -2.0577 0.9610
6.4789 6.9603 -2.0100 0.9619
5.3698 8.3597 -2.1002 0.9602
1.8091 14.4667 -3.0818 0.9421
0.5530 15.7510 -3.3315 0.9376
-1.0536 7.2895 -1.5569 0.9703
-7.0533 8.7326 -2.3728 0.9551
-9.5071 6.8366 -2.4753 0.9533
-10.0797 5.9618 -2.4754 0.9532
-11.3036 3.0821 -2.4766 0.9532
-11.5361 2.0620 -2.4772 0.9532
-11.6772 1.0250 -2.4778 0.9532
-11.7256 -0.0206 -2.4786 0.9532
-11.0645 -2.0178 -2.3774 0.9551
-10.8447 -2.9978 -2.3783 0.9550
-10.5384 -3.9548 -2.3793 0.9550
-10.1480 -4.8811 -2.3803 0.9550
-9.6766 -5.7694 -2.3814 0.9550
-9.2169 -6.6772 -2.4058 0.9545
-3.5774 -10.8441 -2.4137 0.9544
-2.5970 -11.1247 -2.4148 0.9544
-0.5796 -11.4183 -2.4167 0.9543
0.4413 -11.4286 -2.4176 0.9543
1.4453 -11.2377 -2.3950 0.9547
2.4427 -11.0672 -2.3957 0.9547
4.3723 -10.4623 -2.3969 0.9547
5.2891 -10.0325 -2.3973 0.9547
7.2918 -9.3221 -2.5017 0.9528
9.5002 -7.0595 -2.5019 0.9528
10.0913 -6.1836 -2.5017 0.9528
10.6016 -5.2583 -2.5015 0.9528
11.0266 -4.2911 -2.5011 0.9528
11.2949 0.8538 -2.3943 0.9547
13.1619 2.1884 -2.8203 0.9469
10.9000 3.8973 -2.4469 0.9538
10.1545 4.6902 -2.3644 0.9553
8.3427 5.8474 -2.1535 0.9592
6.7424 6.8040 -2.0248 0.9616
5.4309 7.9007 -2.0265 0.9616
5.1540 9.1518 -2.2202 0.9580
4.3977 9.7534 -2.2615 0.9572
2.2364 14.2509 -3.0492 0.9427
0.9857 14.8381 -3.1434 0.9410
-5.9527 9.5189 -2.3731 0.9551
-7.5479 8.3083 -2.3727 0.9551
-8.2586 7.6017 -2.3726 0.9551
-10.4094 5.3672 -2.4756 0.9532
-11.7072 -0.7012 -2.4791 0.9532
-10.6553 -3.6231 -2.3790 0.9550
-9.3283 -6.3231 -2.3821 0.9550
-8.1428 -7.9645 -2.4077 0.9545
-5.7520 -9.8502 -2.4111 0.9544
-3.9138 -10.7253 -2.4134 0.9544
-2.9429 -11.0365 -2.4144 0.9544
1.0934 -11.2760 -2.3947 0.9547
2.0955 -11.1371 -2.3954 0.9547
4.9727 -10.1922 -2.3972 0.9547
6.9968 -9.5451 -2.5016 0.9528
8.5824 -8.1511 -2.5019 0.9528
9.2751 -7.3530 -2.5019 0.9528
10.4325 -5.5872 -2.5016 0.9528
10.8878 -4.6338 -2.5012 0.9528
11.2331 -1.5193 -2.3961 0.9547
11.3206 -0.5111 -2.3954 0.9547
11.3174 0.5005 -2.3946 0.9547
13.1998 1.7729 -2.8152 0.9470
12.4941 2.8309 -2.7079 0.9490
11.1545 3.5993 -2.4775 0.9532
7.4388 3.1578 -1.7082 0.9675
-0.3357 -10.1750 -2.3927 0.9590
3.2473 -9.6607 -2.3953 0.9590
4.9139 -8.9332 -2.3962 0.9590
6.7024 -8.2624 -2.5004 0.9572
8.0643 -6.9405 -2.5006 0.9572
8.6510 -6.1934 -2.5005 0.9572
9.1683 -5.3968 -2.5003 0.9572
9.6121 -4.5570 -2.5001 0.9572
10.2656 -2.7757 -2.4993 0.9572
10.0363 -1.7721 -2.3952 0.9590
10.1519 -0.8696 -2.3947 0.9590
10.0108 1.8474 -2.3925 0.9590
8.8563 2.4683 -2.1608 0.9629
7.9842 5.8099 -2.3207 0.9602
4.9804 4.3538 -1.5547 0.9732
5.1601 7.7994 -2.1979 0.9623
3.7726 11.5171 -2.8483 0.9514
-5.5075 8.4692 -2.3743 0.9593
-6.2404 7.9435 -2.3741 0.9593
-6.9236 7.3548 -2.3740 0.9593
-7.5519 6.7078 -2.3739 0.9593
-8.4712 6.2672 -2.4766 0.9576
-8.9970 5.4870 -2.4767 0.9576
-9.4515 4.6631 -2.4770 0.9576
-10.3540 1.9954 -2.4782 0.9576
-10.4932 1.0642 -2.4788 0.9576
-10.5491 0.1241 -2.4795 0.9576
-9.7916 -2.5648 -2.3789 0.9593
-9.5273 -3.4292 -2.3798 0.9592
-8.7734 -5.0714 -2.3816 0.9592
-8.2895 -5.8362 -2.3826 0.9592
-7.7392 -6.5551 -2.3836 0.9592
-7.1267 -7.2223 -2.3847 0.9592
-5.7911 -8.4628 -2.4101 0.9587
-5.0153 -8.9494 -2.4111 0.9587
-3.3481 -9.7061 -2.4131 0.9587
-1.5563 -10.0561 -2.3915 0.9590
-0.6533 -10.1584 -2.3924 0.9590
1.1627 -10.1192 -2.3939 0.9590
2.9437 -9.7566 -2.3951 0.9590
4.6321 -9.0819 -2.3960 0.9590
5.6593 -9.0074 -2.5001 0.9572
7.1709 -7.8599 -2.5005 0.9572
8.4534 -6.4608 -2.5005 0.9572
8.9954 -5.6807 -2.5004 0.9572
9.4654 -4.8553 -2.5002 0.9572
9.8595 -3.9912 -2.4999 0.9572
10.1746 -3.0953 -2.4995 0.9572
9.9768 -2.0849 -2.3954 0.9590
10.1207 -1.1864 -2.3949 0.9590
10.1834 -0.2790 -2.3942 0.9590
10.1647 0.6303 -2.3935 0.9590
10.0648 1.5339 -2.3928 0.9590
11.3579 2.7862 -2.7485 0.9531
10.0194 4.4645 -2.5780 0.9559
9.1199 5.0833 -2.4538 0.9580
5.1850 4.2543 -1.5763 0.9728
6.7018 6.5827 -2.2078 0.9621
5.2420 7.4093 -2.1331 0.9634
5.0296 8.6550 -2.3526 0.9597
4.3856 9.3861 -2.4348 0.9583
3.7335 10.2983 -2.5745 0.9560
3.1425 11.8855 -2.8893 0.9507
2.1289 12.4644 -2.9718 0.9494
0.5220 6.5230 -1.5379 0.9735
-0.1313 13.8858 -3.2636 0.9445
-5.9894 8.1348 -2.3742 0.9593
-7.3387 6.9405 -2.3739 0.9593
-10.0361 3.2254 -2.4775 0.9576
-10.2858 2.3178 -2.4780 0.9576
-10.5391 0.4536 -2.4792 0.9576
-10.4583 -1.4271 -2.4807 0.9576
-9.3146 -3.9773 -2.3804 0.9592
-8.9262 -4.7942 -2.3813 0.9592
-7.9390 -6.3091 -2.3833 0.9592
-6.6975 -7.6259 -2.3853 0.9592
-5.2917 -8.7870 -2.4107 0.9587
-4.4887 -9.2279 -2.4117 0.9587
-3.6492 -9.5954 -2.4127 0.9587
-1.8695 -10.0012 -2.3912 0.9591
-0.9703 -10.1318 -2.3921 0.9590
-0.0628 -10.1814 -2.3929 0.9590
2.6372 -9.8430 -2.3949 0.9590
3.5054 -9.5707 -2.3955 0.9590
4.3459 -9.2216 -2.3959 0.9590
5.3419 -9.1232 -2.4847 0.9575
6.1729 -8.6644 -2.5003 0.9572
6.9217 -8.0799 -2.5005 0.9572
7.6151 -7.4306 -2.5006 0.9572
8.8138 -5.9591 -2.5005 0.9572
9.3095 -5.1488 -2.5003 0.9572
10.0795 -1.5022 -2.3951 0.9590
10.1806 0.3124 -2.3938 0.9590
10.1090 1.2188 -2.3930 0.9590
4.8302 4.4566 -1.5446 0.9734
5.4953 7.2741 -2.1426 0.9632
5.1000 8.1770 -2.2649 0.9612
4.6388 9.1694 -2.4151 0.9587
3.4844 11.6880 -2.8664 0.9511
2.4882 12.2485 -2.9375 0.9499
1.4481 12.9805 -3.0696 0.9477
0.1461 6.7058 -1.5764 0.9728
-1.0352 15.3075 -3.6058 0.9389
-3.9387 8.7080 -2.2462 0.9615
-4.9682 8.7974 -2.3745 0.9593
-5.7324 8.3182 -2.3742 0.9593
-6.4510 7.7731 -2.3740 0.9593
-7.7291 6.5029 -2.3739 0.9593
-8.6363 6.0379 -2.4766 0.9576
-9.5734 4.4081 -2.4770 0.9576
-9.9299 3.5372 -2.4774 0.9576
-10.4045 1.7172 -2.4784 0.9576
-10.5496 -0.1588 -2.4797 0.9576
-9.9302 -1.9478 -2.3783 0.9593
-9.4330 -3.6838 -2.3800 0.9592
-9.0704 -4.5123 -2.3810 0.9592
-8.6353 -5.3055 -2.3819 0.9592
-7.5616 -6.7611 -2.3840 0.9592
-2.2021 -10.0337 -2.4143 0.9587
-1.2862 -10.0953 -2.3918 0.9590
-0.3808 -10.1733 -2.3926 0.9590
2.3282 -9.9198 -2.3947 0.9590
4.0554 -9.3523 -2.3958 0.9590
4.8742 -8.9548 -2.3962 0.9590
6.6657 -8.2921 -2.5004 0.9572
7.3791 -7.6649 -2.5005 0.9572
9.5919 -4.5996 -2.5001 0.9572
9.9625 -3.7252 -2.4998 0.9572
10.0285 -1.8165 -2.3953 0.9590
10.1480 -0.9146 -2.3947 0.9590
11.0139 3.0171 -2.6839 0.9542
10.4967 3.9113 -2.6326 0.9550
9.7522 4.6628 -2.5405 0.9566
8.8586 5.2538 -2.4206 0.9586
8.0243 5.7848 -2.3249 0.9602
5.0091 4.3399 -1.5576 0.9731
5.7498 7.1361 -2.1538 0.9630
5.1695 7.7388 -2.1873 0.9625
4.8939 8.9666 -2.4008 0.9589
4.1640 9.5729 -2.4535 0.9580
2.8435 12.0537 -2.9107 0.9504
1.8365 12.8141 -3.0424 0.9482
-5.4700 8.4936 -2.3743 0.9593
-6.2051 7.9711 -2.3741 0.9593
-6.8910 7.3854 -2.3740 0.9593
-7.5221 6.7412 -2.3739 0.9593
-8.4434 6.3047 -2.4766 0.9576
-8.9726 5.5268 -2.4767 0.9576
-9.4306 4.7049 -2.4769 0.9576
-10.1196 2.9553 -2.4777 0.9576
-10.3449 2.0413 -2.4782 0.9576
-10.4882 1.1107 -2.4788 0.9576
-10.5483 0.1708 -2.4794 0.9576
-10.5246 -0.7709 -2.4802 0.9576
-10.0513 -1.6472 -2.3938 0.9590
-9.8027 -2.5213 -2.3788 0.9593
-9.5422 -3.3869 -2.3797 0.9592
-8.7956 -5.0324 -2.3816 0.9592
-8.3151 -5.7992 -2.3826 0.9592
-7.1585 -7.1905 -2.3846 0.9592
-6.4914 -7.8037 -2.3857 0.9591
-5.0548 -8.9269 -2.4110 0.9587
-2.5141 -9.9587 -2.4140 0.9587
2.0169 -9.9868 -2.3945 0.9590
2.9004 -9.7695 -2.3951 0.9590
7.1359 -7.8916 -2.5005 0.9572
7.8116 -7.2238 -2.5006 0.9572
8.4247 -6.4982 -2.5005 0.9572
8.9702 -5.7206 -2.5004 0.9572
9.4439 -4.8972 -2.5002 0.9572
9.9676 -2.1291 -2.3955 0.9590
10.1822 -0.3241 -2.3943 0.9590
10.0716 1.4893 -2.3928 0.9590
9.1636 5.0546 -2.4596 0.9579
8.3105 5.6050 -2.3559 0.9596
5.0346 8.5757 -2.3371 0.9600
3.7248 10.1340 -2.5375 0.9566
3.1914 11.8575 -2.8860 0.9508
2.1771 12.4144 -2.9622 0.9495
0.5508 6.5195 -1.5377 0.9735
-0.0693 13.8010 -3.2436 0.9449
-2.1964 7.8457 -1.9148 0.9671
-5.2021 8.6607 -2.3744 0.9593
-9.6886 4.1500 -2.4771 0.9576
-10.2753 2.3633 -2.4780 0.9576
-10.5424 -0.4417 -2.4799 0.9576
-10.4643 -1.3807 -2.4807 0.9576
-9.8754 -2.2135 -2.3786 0.9593
-9.6421 -3.0866 -2.3794 0.9593
-7.9668 -6.2737 -2.3832 0.9592
-7.3786 -6.9623 -2.3843 0.9592
-4.5295 -9.2077 -2.4117 0.9587
-3.6917 -9.5789 -2.4127 0.9587
-1.0152 -10.1272 -2.3920 0.9590
-0.1079 -10.1808 -2.3929 0.9590
6.8857 -8.1105 -2.5005 0.9572
7.5820 -7.4643 -2.5006 0.9572
9.2866 -5.1901 -2.5003 0.9572
10.0729 -1.5469 -2.3951 0.9590
10.1681 -0.6421 -2.3945 0.9590
10.1144 1.1741 -2.3931 0.9590
11.8309 2.4583 -2.8399 0.9516
10.7915 3.2696 -2.6501 0.9547
9.4766 4.8474 -2.5017 0.9572
4.8501 4.4353 -1.5446 0.9734
3.5324 11.6598 -2.8633 0.9512
1.5038 12.9575 -3.0658 0.9478
-0.9582 15.1672 -3.5717 0.9395
-4.9292 8.8194 -2.3745 0.9593
-5.6955 8.3436 -2.3743 0.9593
-7.7002 6.5371 -2.3739 0.9593
-9.1177 5.2844 -2.4768 0.9576
-9.9140 3.5811 -2.4774 0.9576
-10.1957 2.6830 -2.4778 0.9576
-10.5500 -0.1121 -2.4796 0.9576
-9.9735 -1.9103 -2.3866 0.9591
-9.4491 -3.6419 -2.3800 0.9592
-9.0901 -4.4720 -2.3809 0.9592
-8.1577 -6.0209 -2.3829 0.9592
-7.5913 -6.7274 -2.3839 0.9592
-6.9640 -7.3808 -2.3849 0.9592
-5.6008 -8.5912 -2.4103 0.9587
-3.1304 -9.7796 -2.4133 0.9587
0.4832 -10.1720 -2.3934 0.9590
1.3890 -10.0913 -2.3941 0.9590
3.1615 -9.6888 -2.3953 0.9590
4.0138 -9.3701 -2.3957 0.9590
4.8344 -8.9762 -2.3961 0.9590
5.8596 -8.8787 -2.5002 0.9572
7.3450 -7.6975 -2.5005 0.9572
8.0025 -7.0118 -2.5006 0.9572
8.5958 -6.2699 -2.5005 0.9572
9.1202 -5.4779 -2.5004 0.9572
9.5714 -4.6421 -2.5001 0.9572
10.0204 -1.8610 -2.3953 0.9590
10.1864 -0.0510 -2.3941 0.9590
10.1473 0.8575 -2.3933 0.9590
8.9797 2.4171 -2.1856 0.9625
10.5309 3.8710 -2.6369 0.9549
9.7984 4.6317 -2.5472 0.9564
8.9014 5.2260 -2.4259 0.9585
8.0646 5.7597 -2.3291 0.9601
5.0379 4.3258 -1.5606 0.9731
6.5171 6.6944 -2.1957 0.9623
5.7860 7.1162 -2.1555 0.9630
4.9330 8.9438 -2.4005 0.9589
3.7801 11.2033 -2.7789 0.9526
0.3793 6.5924 -1.5519 0.9732
-0.4562 14.3230 -3.3679 0.9428
-1.6189 7.5781 -1.8212 0.9687
-4.6515 8.9696 -2.3747 0.9593
-6.8582 7.4159 -2.3740 0.9593
-7.4922 6.7745 -2.3739 0.9593
-8.9479 5.5665 -2.4767 0.9576
-9.4096 4.7466 -2.4769 0.9576
-10.1063 3.0001 -2.4777 0.9576
-10.5473 0.2176 -2.4794 0.9576
-10.1160 -1.6118 -2.4075 0.9588
-9.8136 -2.4778 -2.3788 0.9593
-9.5570 -3.3445 -2.3797 0.9592
-9.2241 -4.1852 -2.3806 0.9592
-8.8177 -4.9932 -2.3816 0.9592
-7.7967 -6.4859 -2.3835 0.9592
-7.1902 -7.1586 -2.3846 0.9592
-6.5258 -7.7747 -2.3856 0.9591
-5.8657 -8.4107 -2.4099 0.9587
-5.0942 -8.9042 -2.4110 0.9587
-3.4339 -9.6756 -2.4130 0.9587
-1.6453 -10.0415 -2.3915 0.9591
0.1652 -10.1811 -2.3931 0.9590
1.0729 -10.1288 -2.3938 0.9590
1.9726 -9.9955 -2.3945 0.9590
2.8570 -9.7821 -2.3951 0.9590
3.7189 -9.4903 -2.3956 0.9590
4.5514 -9.1224 -2.3960 0.9590
6.3654 -8.5243 -2.5003 0.9572
7.1009 -7.9231 -2.5005 0.9572
8.3958 -6.5355 -2.5006 0.9572
10.1469 -3.1855 -2.4995 0.9572
9.9582 -2.1734 -2.3955 0.9590
10.1100 -1.2762 -2.3949 0.9590
10.1808 -0.3692 -2.3943 0.9590
9.3914 2.2156 -2.2678 0.9611
10.7737 3.5823 -2.6684 0.9544
10.0865 4.3877 -2.5851 0.9558
9.2075 5.0257 -2.4653 0.9578
5.2440 4.2255 -1.5828 0.9727
6.7752 6.5379 -2.2128 0.9621
6.0425 6.9746 -2.1688 0.9628
5.0458 8.5083 -2.3248 0.9602
4.4580 9.3245 -2.4290 0.9584
2.2290 12.3870 -2.9580 0.9496
0.5797 6.5172 -1.5377 0.9735
-0.0081 13.7168 -3.2238 0.9452
-5.1637 8.6838 -2.3744 0.9593
-5.9170 8.1876 -2.3742 0.9593
-7.8727 6.3283 -2.3739 0.9593
-9.2564 5.0381 -2.4768 0.9576
-9.6700 4.1929 -2.4771 0.9576
-10.4409 1.4840 -2.4785 0.9576
-10.5343 0.5470 -2.4792 0.9576
-10.5441 -0.3949 -2.4799 0.9576
-10.4702 -1.3342 -2.4806 0.9576
-9.8850 -2.1697 -2.3785 0.9593
-8.9680 -4.7146 -2.3812 0.9592
-8.5153 -5.4980 -2.3822 0.9592
-7.4092 -6.9294 -2.3842 0.9592
-5.3692 -8.7394 -2.4106 0.9587
-4.5702 -9.1873 -2.4116 0.9587
-3.7340 -9.5623 -2.4126 0.9587
-1.9580 -9.9839 -2.3911 0.9591
-1.0600 -10.1224 -2.3920 0.9590
1.6592 -10.0513 -2.3943 0.9590
2.5497 -9.8658 -2.3949 0.9590
4.2639 -9.2596 -2.3959 0.9590
5.1920 -9.0503 -2.4522 0.9580
8.7606 -6.0371 -2.5005 0.9572
9.6921 -4.3837 -2.5000 0.9572
10.0430 -3.5011 -2.4996 0.9572
10.0661 -1.5916 -2.3951 0.9590
10.1832 0.2221 -2.3939 0.9590
10.1197 1.1292 -2.3931 0.9590
10.8241 3.2271 -2.6546 0.9546
9.5217 4.8173 -2.5079 0.9571
6.1039 3.8073 -1.6907 0.9709
7.8227 5.9100 -2.3042 0.9605
5.1205 8.0499 -2.2422 0.9616
3.9756 9.7296 -2.4702 0.9577
3.5802 11.6316 -2.8603 0.9512
2.5897 12.1934 -2.9296 0.9501
1.5592 12.9344 -3.0619 0.9479
0.2048 6.6773 -1.5701 0.9729
-0.8825 15.0288 -3.5382 0.9400
-6.3819 7.8301 -2.3741 0.9593
-5.9315 6.0785 -1.9960 0.9657
-7.6711 6.5712 -2.3739 0.9593
-8.5824 6.1142 -2.4766 0.9576
-10.1837 2.7282 -2.4778 0.9576
-10.3886 1.8094 -2.4783 0.9576
-10.5503 -0.0653 -2.4796 0.9576
-9.4649 -3.5999 -2.3799 0.9592
-9.1097 -4.4315 -2.3809 0.9592
-8.6817 -5.2285 -2.3818 0.9592
-8.1841 -5.9845 -2.3828 0.9592
-6.9965 -7.3497 -2.3849 0.9592
-6.3776 -8.0255 -2.4092 0.9588
-4.0304 -9.4396 -2.4123 0.9587
-2.2908 -10.0134 -2.4142 0.9587
0.4381 -10.1739 -2.3933 0.9590
3.9722 -9.3878 -2.3957 0.9590
6.5919 -8.3507 -2.5004 0.9572
7.3108 -7.7299 -2.5005 0.9572
7.9713 -7.0472 -2.5006 0.9572
9.0958 -5.5183 -2.5004 0.9572
9.5509 -4.6845 -2.5001 0.9572
9.9293 -3.8134 -2.4998 0.9572
10.0122 -1.9054 -2.3953 0.9590
10.1398 -1.0046 -2.3948 0.9590
10.1512 0.8126 -2.3934 0.9590
11.1266 2.9421 -2.7049 0.9538
7.9911 2.8972 -1.9977 0.9657
9.8448 4.6003 -2.5539 0.9563
8.9444 5.1980 -2.4313 0.9584
5.0668 4.3118 -1.5636 0.9730
4.9721 8.9209 -2.4003 0.9589
2.9429 11.9982 -2.9034 0.9505
1.9452 12.7649 -3.0347 0.9483
-0.3902 14.2351 -3.3468 0.9432
-5.3945 8.5419 -2.3744 0.9593
-6.1343 8.0258 -2.3741 0.9593
-6.8253 7.4463 -2.3740 0.9593
-8.9231 5.6061 -2.4767 0.9576
-9.3885 4.7883 -2.4769 0.9576
-9.7794 3.9323 -2.4772 0.9576
-10.3262 2.1329 -2.4781 0.9576
-10.5461 0.2643 -2.4794 0.9576
-10.1816 -1.5759 -2.4214 0.9585
-9.8243 -2.4342 -2.3788 0.9593
-9.2424 -4.1441 -2.3805 0.9592
-8.3659 -5.7250 -2.3825 0.9592
-7.8252 -6.4512 -2.3835 0.9592
-5.9027 -8.3845 -2.4099 0.9587
-4.3227 -9.3077 -2.4119 0.9587
1.0280 -10.1333 -2.3938 0.9590
3.6767 -9.5066 -2.3956 0.9590
4.5108 -9.1424 -2.3960 0.9590
6.3275 -8.5524 -2.5003 0.9572
7.0656 -7.9545 -2.5005 0.9572
7.7472 -7.2928 -2.5006 0.9572
9.8058 -4.1220 -2.4999 0.9572
9.9960 -2.2281 -2.4069 0.9588
10.1044 -1.3210 -2.3950 0.9590
10.1793 -0.4144 -2.3943 0.9590
10.1727 0.4951 -2.3936 0.9590
10.0848 1.4000 -2.3929 0.9590
9.4524 2.1859 -2.2802 0.9609
10.8019 3.5385 -2.6714 0.9544
10.1202 4.3491 -2.5888 0.9557
9.2516 4.9966 -2.4712 0.9577
6.8121 6.5154 -2.2154 0.9620
6.0790 6.9543 -2.1708 0.9628
5.0568 8.4414 -2.3127 0.9604
3.7458 9.9185 -2.4917 0.9574
3.2889 11.8016 -2.8793 0.9509
0.6086 6.5147 -1.5378 0.9735
0.0524 13.6332 -3.2041 0.9455
-6.0369 5.8634 -1.9779 0.9660
-8.7434 5.8820 -2.4766 0.9576
-9.6512 4.2357 -2.4771 0.9576
-10.2538 2.4543 -2.4779 0.9576
-10.5456 -0.3482 -2.4798 0.9576
-10.4758 -1.2878 -2.4806 0.9576
-9.3661 -3.8528 -2.3802 0.9592
-8.9887 -4.6747 -2.3812 0.9592
-8.5394 -5.4601 -2.3821 0.9592
-8.0217 -6.2026 -2.3831 0.9592
-7.4397 -6.8963 -2.3842 0.9592
-6.1609 -8.1947 -2.4095 0.9587
-5.4077 -8.7153 -2.4106 0.9587
-0.1982 -10.1791 -2.3928 0.9590
0.7108 -10.1594 -2.3935 0.9590
1.6146 -10.0584 -2.3942 0.9590
2.5060 -9.8769 -2.3948 0.9590
6.8136 -8.1712 -2.5005 0.9572
7.5155 -7.5312 -2.5006 0.9572
8.1574 -6.8309 -2.5006 0.9572
8.7338 -6.0759 -2.5005 0.9572
10.3018 -2.6367 -2.4992 0.9572
10.1623 -0.7323 -2.3946 0.9590
10.1843 0.1770 -2.3939 0.9590
10.1247 1.0843 -2.3932 0.9590
10.8583 3.1850 -2.6595 0.9546
9.5670 4.7871 -2.5142 0.9570
8.6868 5.3649 -2.3995 0.9589
6.3336 6.8042 -2.1847 0.9625
5.6035 7.2157 -2.1471 0.9632
5.1305 7.9871 -2.2310 0.9617
4.7449 9.0775 -2.4073 0.9588
3.6279 11.6034 -2.8572 0.9513
2.6404 12.1657 -2.9258 0.9501
1.6146 12.9109 -3.0580 0.9479
0.2339 6.6631 -1.5670 0.9730
-5.6214 8.3938 -2.3743 0.9593
-6.3471 7.8583 -2.3741 0.9593
-7.0224 7.2605 -2.3740 0.9593
-7.6419 6.6051 -2.3739 0.9593
-9.0704 5.3649 -2.4767 0.9576
-9.5138 4.5350 -2.4770 0.9576
-10.1713 2.7733 -2.4778 0.9576
-10.5070 0.9223 -2.4789 0.9576
-10.5503 -0.0185 -2.4796 0.9576
-9.4806 -3.5579 -2.3799 0.9592
-9.1291 -4.3910 -2.3808 0.9592
-8.7046 -5.1898 -2.3818 0.9592
-8.2104 -5.9480 -2.3828 0.9592
-7.0289 -7.3185 -2.3848 0.9592
-6.4129 -7.9971 -2.4092 0.9588
-5.6765 -8.5408 -2.4102 0.9587
-4.8942 -9.0169 -2.4112 0.9587
-3.2168 -9.7511 -2.4132 0.9587
-2.3352 -10.0030 -2.4141 0.9587
-0.5161 -10.1668 -2.3925 0.9590
2.1960 -9.9495 -2.3946 0.9590
4.7546 -9.0187 -2.3961 0.9590
5.7806 -8.9303 -2.5002 0.9572
7.2765 -7.7622 -2.5005 0.9572
7.9400 -7.0824 -2.5006 0.9572
8.5399 -6.3459 -2.5005 0.9572
9.9123 -3.8574 -2.4998 0.9572
10.0037 -1.9498 -2.3954 0.9590
11.1834 2.9041 -2.7155 0.9536
9.8915 4.5688 -2.5607 0.9562
8.1454 5.7091 -2.3377 0.9600
6.5901 6.6504 -2.2004 0.9623
5.8587 7.0763 -2.1591 0.9630
5.1969 7.5604 -2.1562 0.9630
5.0111 8.8980 -2.4001 0.9589
4.2744 9.4801 -2.4440 0.9582
1.9993 12.7401 -3.0308 0.9484
-0.3251 14.1479 -3.3260 0.9435
-0.8086 7.1704 -1.6959 0.9708
-5.3566 8.5657 -2.3744 0.9593
-6.7922 7.4765 -2.3740 0.9593
-7.4318 6.8406 -2.3739 0.9593
-8.3587 6.4164 -2.4765 0.9576
-9.3671 4.8299 -2.4769 0.9576
-9.7617 3.9756 -2.4772 0.9576
-10.3165 2.1786 -2.4781 0.9576
-10.4722 1.2501 -2.4787 0.9576
-10.5447 0.3111 -2.4793 0.9576
-10.5335 -0.6308 -2.4800 0.9576
-10.2513 -1.5402 -2.4363 0.9583
-9.8348 -2.3906 -2.3787 0.9593
-9.5859 -3.2595 -2.3796 0.9593
-9.2605 -4.1030 -2.3805 0.9592
-8.3910 -5.6877 -2.3824 0.9592
-7.2530 -7.0942 -2.3845 0.9592
-6.5942 -7.7162 -2.3855 0.9592
-5.9397 -8.3580 -2.4098 0.9587
-5.1728 -8.8583 -2.4109 0.9587
-1.7342 -10.0262 -2.3914 0.9591
-0.8333 -10.1445 -2.3922 0.9590
0.0748 -10.1818 -2.3930 0.9590
1.8838 -10.0123 -2.3944 0.9590
2.7701 -9.8068 -2.3950 0.9590
4.4702 -9.1623 -2.3960 0.9590
5.4986 -9.1061 -2.5000 0.9572
7.0303 -7.9857 -2.5005 0.9572
7.7148 -7.3271 -2.5006 0.9572
9.3781 -5.0224 -2.5002 0.9572
10.1184 -3.2754 -2.4995 0.9572
10.0985 -1.3659 -2.3950 0.9590
10.1749 0.4500 -2.3937 0.9590
10.0911 1.3553 -2.3929 0.9590
9.5143 2.1557 -2.2928 0.9607
0.5203 -9.2264 -2.3927 0.9625
1.3415 -9.1456 -2.3933 0.9625
3.7173 -8.4694 -2.3948 0.9625
5.3878 -8.0085 -2.4991 0.9609
6.7259 -6.9246 -2.4994 0.9609
8.3185 -4.8966 -2.4992 0.9609
9.1066 -1.6079 -2.3943 0.9625
9.2005 0.8597 -2.3925 0.9625
9.0844 1.6765 -2.3918 0.9625
8.8564 2.4683 -2.3805 0.9627
10.1731 3.8422 -2.8156 0.9561
6.9941 3.3823 -2.0115 0.9684
8.6035 5.1542 -2.5967 0.9594
7.7991 5.6752 -2.4974 0.9609
4.9864 4.3590 -1.7148 0.9730
2.8983 5.3668 -1.5793 0.9751
2.4086 5.6051 -1.5796 0.9751
2.5642 11.0897 -2.9471 0.9541
1.6125 11.6177 -3.0369 0.9527
0.5891 12.1102 -3.1392 0.9511
-0.5119 12.5678 -3.2567 0.9494
-1.8012 13.7752 -3.5970 0.9442
-1.6965 7.6105 -2.0189 0.9683
-4.2960 8.1073 -2.3756 0.9628
-5.0014 7.6909 -2.3753 0.9628
-5.6670 7.2135 -2.3751 0.9628
-6.2875 6.6790 -2.3750 0.9628
-6.8580 6.0914 -2.3750 0.9628
-8.5829 4.2345 -2.4780 0.9612
-8.9275 3.4525 -2.4783 0.9612
-9.4020 1.8120 -2.4792 0.9612
-9.5788 0.1127 -2.4803 0.9612
-9.5532 -0.7424 -2.4810 0.9612
-9.4517 -1.5920 -2.4817 0.9612
-8.6499 -3.1134 -2.3803 0.9627
-7.5252 -5.2981 -2.3829 0.9627
-5.8609 -7.1096 -2.3857 0.9626
-3.7739 -8.4173 -2.3884 0.9626
-3.0092 -8.7236 -2.3893 0.9626
-1.4123 -9.1258 -2.3910 0.9626
0.2318 -9.2372 -2.3924 0.9625
1.0550 -9.1822 -2.3931 0.9625
1.8703 -9.0538 -2.3937 0.9625
3.4506 -8.5810 -2.3947 0.9625
5.1348 -8.1726 -2.4990 0.9609
5.8438 -7.6828 -2.4993 0.9609
7.1165 -6.5227 -2.4995 0.9609
9.2318 -2.8086 -2.4984 0.9609
9.1833 -1.0766 -2.3940 0.9625
9.2405 -0.2531 -2.3934 0.9625
10.1740 3.4834 -2.7844 0.9565
8.8967 4.9589 -2.6372 0.9588
8.0754 5.4987 -2.5296 0.9604
7.2968 5.9872 -2.4438 0.9618
6.5517 6.4353 -2.3778 0.9628
5.8377 6.8602 -2.3323 0.9635
3.0702 5.2832 -1.5821 0.9751
2.5800 5.5217 -1.5780 0.9751
2.8977 10.9596 -2.9351 0.9542
-4.0408 8.2380 -2.3757 0.9628
-6.6644 6.3028 -2.3750 0.9628
-7.5112 5.9289 -2.4776 0.9612
-8.8148 3.7296 -2.4782 0.9612
-9.1136 2.9289 -2.4786 0.9612
-9.5697 0.4118 -2.4801 0.9612
-7.6861 -5.0597 -2.3826 0.9627
-7.2069 -5.7273 -2.3835 0.9627
-6.6699 -6.3498 -2.3844 0.9627
-6.0794 -6.9221 -2.3853 0.9626
-5.4398 -7.4396 -2.3863 0.9626
-4.7564 -7.8983 -2.3872 0.9626
-4.0345 -8.2942 -2.3881 0.9626
-2.4984 -8.8856 -2.3899 0.9626
-0.8805 -9.1943 -2.3915 0.9626
-0.0570 -9.2390 -2.3922 0.9625
0.7676 -9.2099 -2.3929 0.9625
2.3929 -8.9313 -2.3940 0.9625
3.1806 -8.6840 -2.3945 0.9625
3.9930 -8.4729 -2.4252 0.9620
6.2801 -7.3310 -2.4994 0.9609
6.9092 -6.7419 -2.4994 0.9609
8.4466 -4.6716 -2.4992 0.9609
9.3782 -2.2678 -2.4982 0.9609
9.2289 -0.5417 -2.3936 0.9625
9.1733 1.1060 -2.3923 0.9625
9.9831 4.0795 -2.7923 0.9564
9.1971 4.7560 -2.6808 0.9581
7.5653 5.8216 -2.4716 0.9613
6.8084 6.2817 -2.3985 0.9624
3.2482 5.2079 -1.5892 0.9750
2.7513 5.4384 -1.5780 0.9751
3.2279 10.8275 -2.9254 0.9544
0.2662 12.2142 -3.1632 0.9508
-0.8720 12.8945 -3.3462 0.9480
-3.7816 8.3607 -2.3759 0.9628
-5.2056 7.5538 -2.3753 0.9628
-7.0189 5.9054 -2.3750 0.9628
-8.3011 4.7620 -2.4779 0.9612
-8.6936 4.0030 -2.4781 0.9612
-9.4478 1.5593 -2.4793 0.9612
-9.5514 0.7106 -2.4799 0.9612
-9.5307 -0.9983 -2.4812 0.9612
-9.4065 -1.8450 -2.4819 0.9612
-8.5642 -3.3445 -2.3805 0.9627
-7.3813 -5.4986 -2.3832 0.9627
-6.8641 -6.1374 -2.3841 0.9627
-6.2918 -6.7279 -2.3850 0.9627
-5.0002 -7.7448 -2.3869 0.9626
-4.2911 -8.1630 -2.3878 0.9626
-3.5473 -8.5164 -2.3887 0.9626
-1.1672 -9.1613 -2.3912 0.9626
1.3010 -9.1514 -2.3933 0.9625
2.1125 -9.0010 -2.3938 0.9625
2.9076 -8.7786 -2.3944 0.9625
3.6796 -8.4858 -2.3948 0.9625
5.3523 -8.0323 -2.4991 0.9609
6.0479 -7.5235 -2.4993 0.9609
6.6951 -6.9544 -2.4994 0.9609
7.2888 -6.3296 -2.4995 0.9609
9.3033 -2.5599 -2.4983 0.9609
9.0995 -1.6483 -2.3944 0.9625
9.2082 -0.8299 -2.3938 0.9625
9.2432 -0.0053 -2.3932 0.9625
9.2043 0.8190 -2.3926 0.9625
10.1736 3.7909 -2.8111 0.9561
5.6193 4.0511 -1.7936 0.9718
5.0151 4.3450 -1.7181 0.9730
3.4206 5.1207 -1.5945 0.9749
1.9395 5.8333 -1.5916 0.9749
0.6420 12.0924 -3.1353 0.9512
-0.4541 12.5144 -3.2423 0.9496
-1.7310 13.7108 -3.5781 0.9445
-3.5187 8.4752 -2.3760 0.9628
-4.9673 7.7130 -2.3754 0.9628
-5.6349 7.2386 -2.3751 0.9628
-6.8310 6.1218 -2.3750 0.9628
-7.6675 5.7254 -2.4777 0.9612
-8.1481 5.0189 -2.4778 0.9612
-8.5640 4.2725 -2.4780 0.9612
-9.1894 2.6836 -2.4787 0.9612
-9.5237 1.0086 -2.4797 0.9612
-9.5780 0.1551 -2.4803 0.9612
-9.4585 -1.5500 -2.4817 0.9612
-8.9002 -2.2892 -2.3794 0.9627
-8.6635 -3.0749 -2.3802 0.9627
-8.3576 -3.8368 -2.3811 0.9627
-7.0516 -5.9192 -2.3837 0.9627
-6.4980 -6.5271 -2.3847 0.9627
-5.2390 -7.5837 -2.3865 0.9626
-3.8111 -8.4004 -2.3884 0.9626
-3.0478 -8.7100 -2.3893 0.9626
-2.2596 -8.9503 -2.3901 0.9626
-1.4527 -9.1193 -2.3909 0.9626
1.0143 -9.1867 -2.3931 0.9625
1.8301 -9.0619 -2.3937 0.9625
2.6317 -8.8645 -2.3942 0.9625
3.4125 -8.5961 -2.3946 0.9625
4.3466 -8.6163 -2.4987 0.9609
5.8097 -7.7086 -2.4992 0.9609
6.4745 -7.1601 -2.4994 0.9609
8.1388 -5.1903 -2.4993 0.9609
8.9297 -3.6610 -2.4988 0.9609
9.2193 -2.8495 -2.4985 0.9609
8.9798 2.1606 -2.3914 0.9626
10.1737 3.4329 -2.7801 0.9566
9.7869 4.3090 -2.7687 0.9568
8.9389 4.9306 -2.6432 0.9587
5.8732 6.8403 -2.3343 0.9634
3.0946 5.2713 -1.5827 0.9751
2.6043 5.5099 -1.5779 0.9751
3.5654 9.7003 -2.6758 0.9582
2.9448 10.9413 -2.9337 0.9543
2.0017 11.4141 -3.0004 0.9532
0.5499 6.5094 -1.6914 0.9734
-2.1964 7.8457 -2.1095 0.9669
-4.0043 8.2559 -2.3758 0.9628
-4.7240 7.8648 -2.3754 0.9628
-6.0453 6.8991 -2.3751 0.9628
-6.2188 5.9338 -2.2255 0.9651
-7.9871 5.2709 -2.4777 0.9612
-9.3307 2.1461 -2.4790 0.9612
-9.5677 0.4542 -2.4800 0.9612
-9.5726 -0.4011 -2.4807 0.9612
-9.5013 -1.2536 -2.4814 0.9612
-8.7543 -2.8024 -2.3799 0.9627
-8.4723 -3.5733 -2.3808 0.9627
-8.1228 -4.3163 -2.3816 0.9627
-7.7083 -5.0255 -2.3825 0.9627
-7.2321 -5.6952 -2.3834 0.9627
-6.6979 -6.3200 -2.3844 0.9627
-5.4727 -7.4153 -2.3862 0.9626
-3.3180 -8.6094 -2.3889 0.9626
-2.5378 -8.8743 -2.3898 0.9626
1.5460 -9.1139 -2.3935 0.9625
3.1421 -8.6980 -2.3945 0.9625
3.9358 -8.4485 -2.4132 0.9622
4.8397 -8.3502 -2.4989 0.9609
6.2475 -7.3588 -2.4994 0.9609
6.8792 -6.7724 -2.4994 0.9609
7.9728 -5.4422 -2.4994 0.9609
8.8114 -3.9383 -2.4989 0.9609
9.1263 -3.1363 -2.4986 0.9609
9.3681 -2.3094 -2.4982 0.9609
9.1398 -1.4036 -2.3942 0.9625
9.1783 1.0654 -2.3924 0.9625
9.0439 1.8792 -2.3916 0.9626
10.1675 3.0805 -2.7507 0.9571
10.0157 4.0411 -2.7963 0.9564
6.8452 6.2598 -2.4017 0.9624
6.1227 6.6957 -2.3492 0.9632
5.4103 7.0960 -2.3104 0.9638
3.2712 5.1934 -1.5892 0.9750
2.7756 5.4265 -1.5782 0.9751
1.3643 11.7557 -3.0642 0.9523
0.3199 12.1975 -3.1592 0.9508
-0.8112 12.8400 -3.3311 0.9482
-3.7446 8.3774 -2.3759 0.9628
-4.4762 8.0089 -2.3755 0.9628
-5.8269 7.0848 -2.3751 0.9628
-5.9429 6.0364 -2.1933 0.9656
-6.9926 5.9365 -2.3750 0.9628
-7.8184 5.5178 -2.4777 0.9612
-8.2799 4.7987 -2.4778 0.9612
-9.0028 3.2520 -2.4784 0.9612
-9.5480 0.7529 -2.4798 0.9612
-9.5795 -0.1018 -2.4805 0.9612
-8.8365 -2.5273 -2.3797 0.9627
-8.2526 -4.0599 -2.3813 0.9627
-7.8605 -4.7816 -2.3822 0.9627
-5.7009 -7.2397 -2.3859 0.9626
-5.0344 -7.7224 -2.3868 0.9626
-3.5849 -8.5005 -2.3886 0.9626
-2.8135 -8.7895 -2.3895 0.9626
-2.0190 -9.0087 -2.3904 0.9626
-0.3865 -9.2300 -2.3919 0.9625
0.4384 -9.2304 -2.3926 0.9625
1.2604 -9.1569 -2.3932 0.9625
2.0726 -9.0102 -2.3938 0.9625
2.8686 -8.7913 -2.3943 0.9625
3.6420 -8.5019 -2.3948 0.9625
5.3166 -8.0559 -2.4991 0.9609
7.2607 -6.3618 -2.4995 0.9609
7.7990 -5.6887 -2.4994 0.9609
8.2748 -4.9701 -2.4993 0.9609
8.6844 -4.2119 -2.4990 0.9609
9.2920 -2.6011 -2.4983 0.9609
9.0921 -1.6886 -2.3944 0.9625
9.2432 -0.0463 -2.3933 0.9625
9.2080 0.7782 -2.3926 0.9625
9.0992 1.5959 -2.3919 0.9625
8.6860 5.0995 -2.6079 0.9592
5.0439 4.3310 -1.7213 0.9729
5.6588 6.9597 -2.3225 0.9636
4.9607 7.3555 -2.2971 0.9640
2.9471 5.3431 -1.5799 0.9751
2.4572 5.5814 -1.5790 0.9751
2.6583 11.0496 -2.9426 0.9541
0.6947 12.0744 -3.1314 0.9513
-1.6615 13.6467 -3.5595 0.9448
-3.4812 8.4908 -2.3760 0.9628
-4.2240 8.1452 -2.3757 0.9628
-5.6028 7.2636 -2.3752 0.9628
-6.2280 6.7345 -2.3750 0.9628
-9.3854 1.8953 -2.4791 0.9612
-9.5771 0.1976 -2.4802 0.9612
-9.5592 -0.6576 -2.4809 0.9612
-8.9102 -2.2496 -2.3794 0.9627
-8.6768 -3.0365 -2.3802 0.9627
-8.3744 -3.7996 -2.3810 0.9627
-8.0050 -4.5330 -2.3819 0.9627
-7.5716 -5.2310 -2.3828 0.9627
-7.0776 -5.8877 -2.3837 0.9627
-5.9235 -7.0571 -2.3856 0.9626
-5.2725 -7.5603 -2.3865 0.9626
-3.8482 -8.3832 -2.3883 0.9626
-2.2991 -8.9401 -2.3901 0.9626
-1.4931 -9.1126 -2.3909 0.9626
-0.6746 -9.2124 -2.3916 0.9626
1.7899 -9.0698 -2.3936 0.9625
2.5923 -8.8760 -2.3942 0.9625
4.2987 -8.6158 -2.4930 0.9610
5.0621 -8.2178 -2.4990 0.9609
5.7754 -7.7342 -2.4992 0.9609
6.4427 -7.1887 -2.4994 0.9609
7.0583 -6.5856 -2.4995 0.9609
8.5488 -4.4813 -2.4991 0.9609
8.9135 -3.7005 -2.4988 0.9609
9.2067 -2.8903 -2.4985 0.9609
9.2381 -0.3351 -2.3935 0.9625
9.2287 0.4902 -2.3928 0.9625
8.3048 2.7613 -2.2660 0.9645
8.9812 4.9021 -2.6492 0.9586
8.1547 5.4476 -2.5392 0.9603
7.3726 5.9407 -2.4515 0.9616
4.6854 4.5212 -1.6858 0.9735
5.1979 7.2106 -2.3015 0.9639
3.1190 5.2594 -1.5832 0.9751
3.6030 9.6702 -2.6719 0.9583
2.0492 11.3882 -2.9959 0.9533
-1.1901 13.2025 -3.4322 0.9467
-1.3488 7.4452 -1.9591 0.9692
-2.1532 7.8247 -2.1013 0.9670
-3.9676 8.2736 -2.3758 0.9628
-6.1105 5.8825 -2.1961 0.9656
-7.9636 5.3063 -2.4777 0.9612
-8.4058 4.5751 -2.4779 0.9612
-8.7813 3.8076 -2.4782 0.9612
-9.5655 0.4967 -2.4800 0.9612
-8.1417 -4.2802 -2.3816 0.9627
-6.7257 -6.2902 -2.3843 0.9627
-5.5054 -7.3908 -2.3862 0.9626
-4.8261 -7.8555 -2.3871 0.9626
-2.5771 -8.8628 -2.3898 0.9626
-1.7769 -9.0605 -2.3906 0.9626
-0.1389 -9.2379 -2.3921 0.9625
3.1035 -8.7117 -2.3945 0.9625
3.8792 -8.4243 -2.4013 0.9624
8.4050 -4.7464 -2.4992 0.9609
8.7939 -3.9774 -2.4990 0.9609
9.3579 -2.3509 -2.4982 0.9609
9.1336 -1.4441 -2.3942 0.9625
9.2239 -0.6236 -2.3937 0.9625
9.2404 0.2016 -2.3931 0.9625
9.0523 1.8391 -2.3917 0.9626
10.1795 3.0350 -2.7503 0.9571
9.2837 4.6969 -2.6938 0.9579
6.1040 3.8073 -1.8627 0.9707
3.2959 5.1814 -1.5900 0.9749
2.7999 5.4147 -1.5783 0.9751
2.3099 5.6531 -1.5812 0.9751
3.3208 10.7887 -2.9227 0.9544
2.3789 11.2006 -2.9647 0.9538
0.2050 6.6853 -1.7317 0.9727
-3.7074 8.3940 -2.3759 0.9628
-6.9662 5.9674 -2.3750 0.9628
-7.7938 5.5524 -2.4777 0.9612
-8.6577 4.0799 -2.4781 0.9612
-8.9882 3.2918 -2.4784 0.9612
-9.2475 2.4774 -2.4788 0.9612
-9.4334 1.6430 -2.4793 0.9612
-9.5445 0.7952 -2.4798 0.9612
-9.5797 -0.0593 -2.4804 0.9612
-9.5389 -0.9138 -2.4811 0.9612
-8.5932 -3.2683 -2.3804 0.9627
-7.4295 -5.4327 -2.3831 0.9627
-6.9180 -6.0761 -2.3840 0.9627
-6.3510 -6.6715 -2.3849 0.9627
-5.0685 -7.6998 -2.3868 0.9626
-3.6225 -8.4843 -2.3886 0.9626
-2.0588 -8.9995 -2.3903 0.9626
-1.2484 -9.1503 -2.3911 0.9626
0.3975 -9.2321 -2.3926 0.9625
4.5386 -8.5171 -2.4988 0.9609
5.9809 -7.5767 -2.4993 0.9609
7.2324 -6.3940 -2.4995 0.9609
7.7737 -5.7233 -2.4994 0.9609
8.6657 -4.2504 -2.4990 0.9609
9.0091 -3.4601 -2.4987 0.9609
9.2804 -2.6423 -2.4984 0.9609
9.0847 -1.7289 -2.3944 0.9625
9.2115 0.7373 -2.3926 0.9625
9.1063 1.5556 -2.3919 0.9625
8.9284 2.3609 -2.3912 0.9626
7.9161 5.6009 -2.5107 0.9607
7.1445 6.0799 -2.4290 0.9620
4.5093 4.5911 -1.6662 0.9738
5.6942 6.9401 -2.3243 0.9636
4.9862 7.3231 -2.2939 0.9641
2.9714 5.3312 -1.5803 0.9751
2.4816 5.5696 -1.5787 0.9751
2.7060 11.0321 -2.9411 0.9541
-0.3402 12.4080 -3.2139 0.9500
-1.5927 13.5829 -3.5409 0.9451
-5.5706 7.2883 -2.3752 0.9628
-6.1981 6.7621 -2.3750 0.9628
-6.7764 6.1821 -2.3750 0.9628
-7.6164 5.7931 -2.4777 0.9612
-9.3768 1.9368 -2.4791 0.9612
-9.5760 0.2400 -2.4802 0.9612
-9.5619 -0.6152 -2.4809 0.9612
-8.0249 -4.4975 -2.3818 0.9627
-5.3058 -7.5367 -2.3865 0.9626
-4.6143 -7.9830 -2.3874 0.9626
-2.3387 -8.9296 -2.3900 0.9626
-1.5334 -9.1058 -2.3908 0.9626
-0.7154 -9.2092 -2.3916 0.9626
2.5529 -8.8873 -2.3941 0.9625
3.3361 -8.6259 -2.3946 0.9625
4.2360 -8.5854 -2.4788 0.9612
6.4107 -7.2172 -2.4994 0.9609
7.0291 -6.6168 -2.4995 0.9609
7.5912 -5.9634 -2.4994 0.9609
8.0925 -5.2623 -2.4993 0.9609
8.5289 -4.5192 -2.4991 0.9609
8.8971 -3.7401 -2.4989 0.9609
9.1939 -2.9311 -2.4985 0.9609
9.1977 -2.0502 -2.4399 0.9618
9.2367 -0.3760 -2.3935 0.9625
8.9989 2.0810 -2.3914 0.9626
8.3339 2.7301 -2.2706 0.9644
8.1946 5.4218 -2.5441 0.9602
5.9444 6.8002 -2.3386 0.9634
4.8312 8.0648 -2.4341 0.9619
2.6529 5.4862 -1.5778 0.9751
3.0388 10.9043 -2.9309 0.9543
0.0471 12.2802 -3.1796 0.9505
-1.1259 13.1405 -3.4148 0.9470
-5.3403 7.4590 -2.3752 0.9628
-5.9839 6.9525 -2.3751 0.9628
-6.0307 5.8574 -2.1767 0.9659
-7.4316 6.0282 -2.4776 0.9612
-9.0737 3.0498 -2.4785 0.9612
-9.4747 1.3896 -2.4794 0.9612
-9.5755 -0.3161 -2.4806 0.9612
-9.5118 -1.1693 -2.4813 0.9612
-8.5034 -3.4979 -2.3807 0.9627
-8.1604 -4.2440 -2.3815 0.9627
-7.2820 -5.6306 -2.3833 0.9627
-6.7534 -6.2601 -2.3843 0.9627
-6.1705 -6.8402 -2.3852 0.9627
-1.0027 -9.1813 -2.3913 0.9626
-0.1798 -9.2370 -2.3921 0.9625
2.2738 -8.9620 -2.3940 0.9625
4.7654 -8.3927 -2.4989 0.9609
5.4957 -7.9351 -2.4992 0.9609
6.1820 -7.4138 -2.4993 0.9609
6.8189 -6.8331 -2.4994 0.9609
9.0983 -3.2172 -2.4986 0.9609
9.2212 -0.6645 -2.3937 0.9625
9.1876 0.9839 -2.3924 0.9625
9.0605 1.7989 -2.3917 0.9626
10.2106 2.9950 -2.7551 0.9570
9.3273 4.6671 -2.7004 0.9578
8.4788 5.2364 -2.5802 0.9597
6.9191 6.2156 -2.4082 0.9623
6.1933 6.6534 -2.3535 0.9631
2.3343 5.6412 -1.5807 0.9751
2.4250 11.1734 -2.9603 0.9539
0.7998 6.3959 -1.6689 0.9737
-0.6911 12.7317 -3.3013 0.9487
-3.6702 8.4104 -2.3759 0.9628
-4.4051 8.0483 -2.3756 0.9628
-5.1048 7.6225 -2.3753 0.9628
-5.9077 6.1080 -2.2002 0.9655
-6.9665 6.0214 -2.3841 0.9627
-7.7691 5.5869 -2.4777 0.9612
-8.9735 3.3316 -2.4784 0.9612
-9.4259 1.6848 -2.4792 0.9612
-9.5407 0.8375 -2.4798 0.9612
-9.5798 -0.0168 -2.4804 0.9612
-6.9447 -6.0452 -2.3839 0.9627
-6.3803 -6.6432 -2.3849 0.9627
-2.0987 -8.9901 -2.3903 0.9626
-1.2889 -9.1445 -2.3911 0.9626
-0.4683 -9.2259 -2.3918 0.9625
1.1791 -9.1675 -2.3932 0.9625
1.9926 -9.0280 -2.3938 0.9625
2.7905 -8.8162 -2.3943 0.9625
3.5664 -8.5338 -2.3947 0.9625
7.7483 -5.7577 -2.4994 0.9609
8.2305 -5.0434 -2.4993 0.9609
9.2687 -2.6835 -2.4984 0.9609
9.1967 -0.9523 -2.3939 0.9625
9.2427 -0.1283 -2.3933 0.9625
9.2148 0.6965 -2.3927 0.9625
9.1133 1.5152 -2.3920 0.9625
8.9390 2.3212 -2.3912 0.9626
10.1744 3.6378 -2.7977 0.9563
8.7690 5.0443 -2.6193 0.9591
7.9553 5.5758 -2.5153 0.9607
5.7296 6.9204 -2.3262 0.9636
5.0212 7.3046 -2.2950 0.9640
2.9958 5.3194 -1.5807 0.9751
1.8074 11.5178 -3.0186 0.9530
-0.2843 12.3730 -3.2044 0.9501
-3.4058 8.5215 -2.3761 0.9628
-6.1681 6.7895 -2.3750 0.9628
-6.7490 6.2121 -2.3750 0.9628
-7.5907 5.8268 -2.4776 0.9612
-8.8646 3.6102 -2.4782 0.9612
-9.3681 1.9783 -2.4791 0.9612
-9.5748 0.2825 -2.4802 0.9612
-9.5643 -0.5728 -2.4808 0.9612
-9.4779 -1.4240 -2.4815 0.9612
-8.9627 -2.1786 -2.3882 0.9626
-8.7031 -2.9593 -2.3801 0.9627
-7.1292 -5.8246 -2.3836 0.9627
-6.5839 -6.4397 -2.3845 0.9627
-5.9856 -7.0040 -2.3855 0.9626
-5.3391 -7.5129 -2.3864 0.9626
-4.6495 -7.9623 -2.3873 0.9626
-3.9222 -8.3485 -2.3882 0.9626
-3.1632 -8.6682 -2.3891 0.9626
-0.7562 -9.2058 -2.3916 0.9626
0.0679 -9.2394 -2.3923 0.9625
1.7094 -9.0851 -2.3936 0.9625
2.5135 -8.8984 -2.3941 0.9625
3.2978 -8.6405 -2.3946 0.9625
4.1740 -8.5553 -2.4647 0.9614
4.9890 -8.2622 -2.4990 0.9609
5.7066 -7.7851 -2.4992 0.9609
8.0691 -5.2981 -2.4993 0.9609
9.3586 -2.1296 -2.4850 0.9611
9.2350 -0.4170 -2.3935 0.9625
9.1571 1.2298 -2.3922 0.9625
8.3844 2.7054 -2.2811 0.9643
7.4389 3.1579 -2.0924 0.9672
-0.2785 -8.4428 -2.3914 0.9655
1.9680 -8.2213 -2.3931 0.9655
4.9259 -7.3219 -2.4982 0.9640
6.6895 -5.7573 -2.4985 0.9640
