ply
format ascii 1.0
element vertex 1586
property float32 x
property float32 y
property float32 z
property float32 I
end_header
10.3975 -4.1131 -2.3635 0.9553
10.9868 -2.2041 -2.3687 0.9552
11.7048 0.8215 -2.4802 0.9532
11.1129 3.9076 -2.4900 0.9530
10.7341 4.8901 -2.4933 0.9529
9.3167 6.4588 -2.3963 0.9547
8.7142 7.2736 -2.3993 0.9547
8.0401 8.0320 -2.4023 0.9546
7.2999 8.7275 -2.4051 0.9545
5.3564 9.4020 -2.2873 0.9567
5.3989 11.8190 -2.7466 0.9483
4.3576 12.3523 -2.7687 0.9479
2.2481 13.8916 -2.9746 0.9441
-0.2691 14.7286 -3.1138 0.9416
-1.5829 7.9316 -1.7097 0.9675
-4.5353 7.3250 -1.8211 0.9654
-5.3585 7.1412 -1.8872 0.9642
-7.6606 7.1131 -2.2097 0.9582
-8.4813 6.5689 -2.2676 0.9571
-9.6168 6.1593 -2.4140 0.9544
-10.1190 5.2719 -2.4118 0.9544
-11.7619 1.4528 -2.5051 0.9527
-11.8301 0.3969 -2.5020 0.9528
-9.3297 -6.2729 -2.3764 0.9551
-8.7218 -7.0715 -2.3734 0.9551
-8.0462 -7.8121 -2.3706 0.9552
-7.3086 -8.4891 -2.3678 0.9552
-5.4319 -9.2262 -2.2631 0.9572
-4.2821 -9.0311 -2.1127 0.9600
-2.9383 -10.8679 -2.3797 0.9550
-1.9554 -11.0794 -2.3782 0.9550
0.0450 -11.2390 -2.3757 0.9551
1.0473 -11.1862 -2.3749 0.9551
3.0180 -10.8181 -2.3741 0.9551
4.8936 -10.1105 -2.3743 0.9551
9.3999 -6.2112 -2.3816 0.9550
9.8292 -5.3005 -2.3605 0.9554
11.3471 -1.5661 -2.4213 0.9542
11.7007 -0.5597 -2.4761 0.9532
11.6434 1.5329 -2.4824 0.9531
11.4752 2.5692 -2.4857 0.9531
10.8646 4.5802 -2.4923 0.9529
10.4263 5.5387 -2.4956 0.9529
8.9145 7.0194 -2.3984 0.9547
8.2627 7.7965 -2.4014 0.9546
7.5429 8.5128 -2.4042 0.9546
6.7608 9.1622 -2.4069 0.9545
5.7492 11.6919 -2.7541 0.9481
-2.7809 7.6860 -1.7277 0.9671
-8.0975 6.6494 -2.2148 0.9581
-9.9675 5.5599 -2.4125 0.9544
-11.0499 2.7130 -2.4051 0.9545
-11.8186 0.7343 -2.5030 0.9527
-11.7309 -1.3747 -2.4967 0.9529
-11.5463 -2.4128 -2.4934 0.9529
-9.5086 -6.0068 -2.3774 0.9551
-6.2072 -5.6919 -1.7802 0.9662
-7.5504 -8.2803 -2.3687 0.9552
-6.7737 -8.9110 -2.3660 0.9553
-4.6138 -9.0546 -2.1481 0.9593
-1.2777 -11.1733 -2.3772 0.9551
-0.2754 -11.2372 -2.3760 0.9551
1.7253 -11.1000 -2.3745 0.9551
3.6702 -10.6145 -2.3740 0.9551
4.6031 -10.2454 -2.3742 0.9551
5.5001 -9.7957 -2.3747 0.9551
6.3541 -9.2687 -2.3754 0.9551
7.1589 -8.6684 -2.3764 0.9551
7.9081 -7.9993 -2.3777 0.9551
9.6714 -5.5770 -2.3599 0.9554
10.1398 -4.6960 -2.3620 0.9553
10.5288 -3.7763 -2.3644 0.9553
10.8355 -2.8247 -2.3670 0.9553
11.0569 -1.8487 -2.3697 0.9552
11.6754 -0.8927 -2.4752 0.9533
11.7230 0.1529 -2.4782 0.9532
11.3079 3.2651 -2.4879 0.9530
10.0792 6.1679 -2.4978 0.9528
8.4783 7.5548 -2.4004 0.9546
7.7797 8.2912 -2.4033 0.9546
7.0168 8.9625 -2.4061 0.9545
6.1870 11.7256 -2.8024 0.9472
2.9288 13.2548 -2.8694 0.9460
1.7995 13.9690 -2.9772 0.9440
-6.6094 6.8790 -2.0165 0.9617
-7.7308 6.7263 -2.1661 0.9590
-9.8077 5.8435 -2.4132 0.9544
-11.8313 0.0143 -2.5009 0.9528
-11.7702 -1.0402 -2.4977 0.9528
-11.3679 -3.1076 -2.4911 0.9530
-11.0306 -4.1042 -2.4878 0.9530
-9.1179 -6.5681 -2.3753 0.9551
-7.7862 -8.0646 -2.3696 0.9552
-7.0275 -8.7174 -2.3669 0.9553
-4.4979 -10.3367 -2.3829 0.9550
-3.5546 -10.6879 -2.3809 0.9550
-2.5848 -10.9545 -2.3791 0.9550
-1.5960 -11.1344 -2.3776 0.9551
-0.5958 -11.2264 -2.3764 0.9551
4.3090 -10.3721 -2.3741 0.9551
5.2182 -9.9478 -2.3745 0.9551
6.0866 -9.4451 -2.3751 0.9551
7.6754 -8.2200 -2.3772 0.9551
8.3834 -7.5068 -2.3787 0.9550
9.0261 -6.7336 -2.3804 0.9550
9.5058 -5.8489 -2.3592 0.9554
10.7468 -3.1313 -2.3661 0.9553
11.7179 -0.1813 -2.4772 0.9532
11.3917 2.9402 -2.4869 0.9530
11.0985 3.9502 -2.4902 0.9530
9.2926 6.4947 -2.3965 0.9547
8.6868 7.3071 -2.3995 0.9547
8.0098 8.0630 -2.4024 0.9546
7.2669 8.7558 -2.4052 0.9545
5.3094 9.4025 -2.2825 0.9568
3.2775 13.0548 -2.8452 0.9465
0.9649 14.3208 -3.0340 0.9430
-1.6842 15.0514 -3.2014 0.9400
-3.0405 7.6237 -1.7350 0.9670
-4.5601 7.3026 -1.8199 0.9654
-5.3953 7.1334 -1.8906 0.9641
-8.5341 6.5578 -2.2750 0.9570
-9.6398 6.1224 -2.4139 0.9544
-11.1272 2.3533 -2.4041 0.9546
-11.8308 0.3518 -2.5019 0.9528
-11.4568 -2.7834 -2.4922 0.9529
-11.1479 -3.7896 -2.4889 0.9530
-7.2758 -8.5165 -2.3677 0.9552
-4.2691 -9.0931 -2.1234 0.9598
-1.9132 -11.0864 -2.3781 0.9550
3.0593 -10.8065 -2.3741 0.9551
4.0114 -10.4904 -2.3741 0.9551
4.9321 -10.0919 -2.3743 0.9551
5.8144 -9.6138 -2.3749 0.9551
9.8497 -5.2632 -2.3606 0.9554
10.2899 -4.3674 -2.3629 0.9553
10.6495 -3.4353 -2.3653 0.9553
-9.1687 -5.2454 -2.4826 0.9575
-8.2952 -5.7853 -2.3769 0.9593
-7.7372 -6.4951 -2.3742 0.9593
-7.1190 -7.1519 -2.3716 0.9594
-5.7229 -8.2868 -2.3669 0.9595
-4.9561 -8.7564 -2.3647 0.9595
-3.3477 -9.5754 -2.3840 0.9592
-2.4782 -9.8293 -2.3824 0.9592
1.1151 -10.0574 -2.3782 0.9593
2.0078 -9.9158 -2.3777 0.9593
2.8843 -9.6963 -2.3775 0.9593
3.7381 -9.4004 -2.3776 0.9593
4.5626 -9.0305 -2.3779 0.9593
5.3515 -8.5892 -2.3784 0.9593
7.9558 -6.1262 -2.3599 0.9596
8.4768 -5.3957 -2.3616 0.9596
8.9315 -4.6214 -2.3635 0.9595
9.3163 -3.8093 -2.3655 0.9595
10.4561 -1.2617 -2.4752 0.9576
10.5373 0.6184 -2.4808 0.9576
10.4523 1.5581 -2.4837 0.9575
9.2907 5.1407 -2.4955 0.9573
8.8052 5.9562 -2.4984 0.9573
7.3076 7.1349 -2.4003 0.9589
5.1723 8.8420 -2.4075 0.9588
2.2251 12.8176 -3.0575 0.9479
0.6979 8.4364 -1.9895 0.9658
-1.3138 13.6192 -3.2157 0.9453
-2.6934 14.3505 -3.4316 0.9418
-8.5761 5.6323 -2.4114 0.9587
-9.4250 4.0114 -2.4074 0.9588
-9.7362 3.1514 -2.4051 0.9588
-10.6312 0.4785 -2.5011 0.9572
-10.5227 -1.4156 -2.4953 0.9573
-10.3421 -2.3461 -2.4924 0.9574
-9.7371 -4.1372 -2.4864 0.9575
-7.9220 -6.2741 -2.3750 0.9593
-5.9586 -8.1227 -2.3676 0.9595
-5.2051 -8.6140 -2.3654 0.9595
-3.6202 -9.4783 -2.3846 0.9592
-2.7580 -9.7566 -2.3829 0.9592
-0.9787 -10.0800 -2.3802 0.9592
3.4686 -9.5030 -2.3775 0.9593
5.1040 -8.7376 -2.3782 0.9593
7.2446 -7.0822 -2.3811 0.9592
7.7763 -6.3492 -2.3594 0.9596
8.7938 -4.8729 -2.3628 0.9595
9.5367 -3.2378 -2.3670 0.9595
10.4123 -1.5587 -2.4744 0.9577
10.5213 -0.6240 -2.4771 0.9576
10.5468 0.3177 -2.4799 0.9576
10.4885 1.2590 -2.4827 0.9575
10.1216 3.1107 -2.4886 0.9574
9.4299 4.8719 -2.4946 0.9573
6.8652 7.5715 -2.4020 0.9589
5.4206 8.6884 -2.4068 0.9588
4.6279 9.1456 -2.4089 0.9588
3.5975 9.0306 -2.2846 0.9608
2.5912 12.7568 -3.0594 0.9479
-3.8154 15.1719 -3.6768 0.9377
-7.8615 6.6077 -2.4136 0.9587
-8.4141 5.8758 -2.4120 0.9587
-8.8980 5.0977 -2.4101 0.9587
-9.6454 3.4288 -2.4059 0.9588
-10.5163 1.7279 -2.5047 0.9572
-10.6170 0.7817 -2.5020 0.9572
-10.6324 -0.1686 -2.4992 0.9572
-10.5627 -1.1154 -2.4963 0.9573
-10.1721 -2.9682 -2.4904 0.9574
-9.4599 -4.7178 -2.4844 0.9575
-8.1005 -6.0479 -2.3759 0.9593
-6.1897 -7.9520 -2.3683 0.9594
-4.6690 -8.9092 -2.3640 0.9595
-3.8899 -9.3735 -2.3851 0.9592
-2.1588 -9.9020 -2.3819 0.9592
0.5402 -10.1063 -2.3786 0.9593
3.1962 -9.5979 -2.3775 0.9593
4.0402 -9.2750 -2.3777 0.9593
4.8525 -8.8789 -2.3780 0.9593
7.0386 -7.2846 -2.3807 0.9592
7.6648 -6.6312 -2.3820 0.9592
8.6491 -5.1203 -2.3622 0.9595
9.0790 -4.3316 -2.3642 0.9595
9.4376 -3.5073 -2.3663 0.9595
9.7223 -2.6537 -2.3686 0.9594
10.1562 -1.8178 -2.4249 0.9585
10.5478 0.0169 -2.4790 0.9576
10.5162 0.9591 -2.4818 0.9575
10.2023 2.8198 -2.4877 0.9574
9.9219 3.7234 -2.4907 0.9574
9.1236 5.4406 -2.4966 0.9573
5.6645 8.5278 -2.4061 0.9588
4.9979 11.5745 -2.9630 0.9495
0.6605 13.1454 -3.0934 0.9474
-0.5294 13.5160 -3.1790 0.9459
-3.9307 7.4424 -1.9781 0.9660
-7.5873 6.7556 -2.3876 0.9591
-8.2450 6.1147 -2.4125 0.9587
-8.7513 5.3506 -2.4107 0.9587
-9.5466 3.7035 -2.4066 0.9588
-9.8295 2.8341 -2.4043 0.9588
-10.6368 0.1346 -2.5001 0.9572
-10.5942 -0.8142 -2.4972 0.9573
-9.9646 -3.5783 -2.4883 0.9574
-9.1482 -5.2800 -2.4825 0.9575
-8.2726 -5.8166 -2.3767 0.9593
-7.7120 -6.5243 -2.3741 0.9593
-6.4159 -7.7748 -2.3691 0.9594
-4.9224 -8.7749 -2.3646 0.9595
-3.3111 -9.5878 -2.3839 0.9592
-2.4407 -9.8384 -2.3823 0.9592
-1.5521 -10.0111 -2.3809 0.9592
2.0456 -9.9080 -2.3777 0.9593
2.9213 -9.6852 -2.3775 0.9593
3.7740 -9.3861 -2.3776 0.9593
4.5971 -9.0131 -2.3779 0.9593
6.8269 -7.4811 -2.3803 0.9592
7.4713 -6.8457 -2.3816 0.9592
9.6397 -2.9289 -2.3678 0.9594
9.8725 -2.0591 -2.3702 0.9594
10.4613 -1.2218 -2.4754 0.9576
10.5402 -0.2838 -2.4781 0.9576
10.2746 2.5269 -2.4867 0.9575
9.6849 4.3233 -2.4927 0.9574
9.2715 5.1764 -2.4956 0.9573
7.8821 6.4777 -2.3978 0.9589
7.2806 7.1630 -2.4004 0.9589
6.6193 7.7923 -2.4029 0.9589
5.1387 8.8620 -2.4076 0.9588
5.3043 11.3813 -2.9511 0.9497
1.4544 8.5719 -2.0434 0.9649
1.0264 13.0124 -3.0677 0.9478
-0.0877 8.2466 -1.9383 0.9667
-1.3669 13.6249 -3.2182 0.9453
-2.2323 7.8013 -1.9071 0.9672
-8.0691 6.3487 -2.4130 0.9587
-9.7478 3.1141 -2.4050 0.9588
-9.9767 2.2296 -2.4026 0.9589
-10.5626 1.3865 -2.5038 0.9572
-10.6324 0.4380 -2.5010 0.9572
-10.6170 -0.5120 -2.4981 0.9573
-10.5167 -1.4556 -2.4952 0.9573
-10.3326 -2.3854 -2.4923 0.9574
-10.0665 -3.2940 -2.4893 0.9574
-7.8976 -6.3040 -2.3749 0.9593
-7.2956 -6.9760 -2.3723 0.9594
-6.6371 -7.5912 -2.3698 0.9594
-5.1720 -8.6334 -2.3653 0.9595
-3.5839 -9.4917 -2.3845 0.9592
-2.7207 -9.7668 -2.3828 0.9592
-0.9402 -10.0835 -2.3801 0.9592
-0.0367 -10.1229 -2.3791 0.9593
1.7624 -9.9628 -2.3778 0.9593
4.3380 -9.1400 -2.3778 0.9593
6.6099 -7.6715 -2.3799 0.9592
7.2718 -7.0546 -2.3811 0.9592
8.3392 -5.6022 -2.3611 0.9596
9.5494 -3.2015 -2.3671 0.9595
10.3386 2.2320 -2.4858 0.9575
9.4118 4.9081 -2.4947 0.9573
7.4793 6.9502 -2.3996 0.9589
6.8365 7.5979 -2.4022 0.9589
3.5597 9.0357 -2.2825 0.9609
0.2379 13.3089 -3.1284 0.9468
-0.9722 13.5786 -3.1995 0.9456
-3.8915 15.2287 -3.6941 0.9375
-2.0085 4.3923 -1.1351 0.9804
-5.0155 7.2130 -2.0648 0.9645
-7.8865 6.5775 -2.4135 0.9587
-8.4361 5.8435 -2.4119 0.9587
-8.9171 5.0635 -2.4100 0.9587
-9.3254 4.2440 -2.4080 0.9588
-9.6580 3.3918 -2.4058 0.9588
-9.9123 2.5140 -2.4034 0.9589
-10.5224 1.6877 -2.5046 0.9572
-10.6194 0.7411 -2.5019 0.9572
-10.6312 -0.2092 -2.4991 0.9572
-10.5579 -1.1556 -2.4962 0.9573
-10.4003 -2.0907 -2.4932 0.9573
-9.8395 -3.8968 -2.4873 0.9574
-8.9690 -5.5706 -2.4814 0.9575
-6.2151 -5.6125 -1.9681 0.9662
-6.8530 -7.4013 -2.3706 0.9594
-6.1590 -7.9752 -2.3682 0.9594
-5.4177 -8.4850 -2.3660 0.9595
-4.6348 -8.9267 -2.3639 0.9595
-2.9987 -9.6874 -2.3833 0.9592
-2.1209 -9.9099 -2.3818 0.9592
-1.2275 -10.0541 -2.3805 0.9592
-0.3253 -10.1190 -2.3794 0.9593
0.5788 -10.1041 -2.3786 0.9593
1.4777 -10.0096 -2.3780 0.9593
7.0665 -7.2579 -2.3807 0.9592
8.6689 -5.0874 -2.3623 0.9595
9.0957 -4.2971 -2.3643 0.9595
10.5481 0.0571 -2.4791 0.9576
10.5130 0.9993 -2.4819 0.9575
10.3941 1.9357 -2.4849 0.9575
9.1032 5.4756 -2.4967 0.9573
8.2325 6.0136 -2.3961 0.9590
7.6717 6.7317 -2.3988 0.9589
5.6321 8.5497 -2.4062 0.9588
4.9481 11.5804 -2.9597 0.9496
2.8929 8.8947 -2.1983 0.9623
2.8930 12.6344 -3.0462 0.9481
-3.3380 14.8110 -3.5682 0.9395
-10.4736 1.9876 -2.5055 0.9571
-10.6367 0.0940 -2.5000 0.9572
-10.5904 -0.8545 -2.4971 0.9573
-10.4596 -1.7940 -2.4942 0.9573
-10.2456 -2.7170 -2.4912 0.9574
-9.1276 -5.3146 -2.4823 0.9575
-7.6866 -6.5534 -2.3740 0.9593
-5.6590 -8.3295 -2.3667 0.9595
-4.8887 -8.7933 -2.3645 0.9595
-4.1211 -9.2766 -2.3857 0.9591
-3.2744 -9.6001 -2.3839 0.9592
-1.5139 -10.0167 -2.3809 0.9592
-0.6137 -10.1069 -2.3797 0.9592
0.2905 -10.1175 -2.3788 0.9593
2.0833 -9.9001 -2.3777 0.9593
2.9583 -9.6740 -2.3775 0.9593
4.6315 -8.9955 -2.3779 0.9593
5.4170 -8.5484 -2.3785 0.9593
8.0028 -6.0657 -2.3601 0.9596
8.5182 -5.3312 -2.3617 0.9595
8.9671 -4.5534 -2.3636 0.9595
10.4664 -1.1819 -2.4755 0.9576
10.5417 -0.2436 -2.4782 0.9576
10.4411 1.6380 -2.4839 0.9575
10.0075 3.4761 -2.4898 0.9574
9.6689 4.3604 -2.4928 0.9574
9.2521 5.2120 -2.4958 0.9573
7.2536 7.1911 -2.4005 0.9589
6.5898 7.8179 -2.4031 0.9589
5.8718 8.3830 -2.4054 0.9588
-1.5525 7.9374 -1.9008 0.9673
-2.2626 7.7948 -1.9076 0.9672
-6.2260 6.9672 -2.1960 0.9623
-8.6183 5.5663 -2.4112 0.9587
-9.0734 4.7712 -2.4093 0.9588
-10.5673 1.3462 -2.5036 0.9572
-10.6336 0.3974 -2.5009 0.9572
-7.8731 -6.3338 -2.3748 0.9593
-6.6078 -7.6161 -2.3697 0.9594
-5.8959 -8.1673 -2.3674 0.9595
-5.1389 -8.6528 -2.3652 0.9595
-4.3049 -8.9906 -2.3427 0.9599
-0.9017 -10.0868 -2.3801 0.9592
0.0020 -10.1228 -2.3791 0.9593
1.8004 -9.9559 -2.3778 0.9593
2.6812 -9.7545 -2.3776 0.9593
3.5410 -9.4763 -2.3776 0.9593
4.3729 -9.1234 -2.3778 0.9593
5.1706 -8.6986 -2.3783 0.9593
5.9280 -8.2050 -2.3790 0.9593
7.2988 -7.0270 -2.3812 0.9592
7.8250 -6.2901 -2.3596 0.9596
8.8313 -4.8060 -2.3630 0.9595
9.2328 -4.0021 -2.3650 0.9595
9.5619 -3.1652 -2.3672 0.9595
10.5267 -0.5438 -2.4773 0.9576
10.0987 3.1881 -2.4889 0.9574
9.7855 4.0814 -2.4919 0.9574
8.9253 5.7695 -2.4977 0.9573
8.0372 6.2791 -2.3970 0.9590
7.4531 6.9790 -2.3997 0.9589
6.8079 7.6243 -2.4023 0.9589
3.4879 12.0332 -2.9445 0.9498
1.3421 12.9313 -3.0555 0.9480
-2.3484 14.1347 -3.3675 0.9428
-3.9769 15.3191 -3.7197 0.9370
-5.0512 7.2055 -2.0681 0.9645
-9.6705 3.3548 -2.4057 0.9588
-10.6298 -0.2497 -2.4989 0.9573
-10.5528 -1.1958 -2.4960 0.9573
-10.1481 -3.0454 -2.4901 0.9574
-9.8241 -3.9341 -2.4871 0.9574
-9.4227 -4.7894 -2.4842 0.9575
-8.9473 -5.6045 -2.4813 0.9575
-6.8244 -7.4271 -2.3705 0.9594
-6.1283 -7.9983 -2.3681 0.9594
-5.3850 -8.5052 -2.3659 0.9595
-3.8180 -9.4023 -2.3850 0.9592
-0.2867 -10.1200 -2.3794 0.9593
1.5159 -10.0038 -2.3780 0.9593
2.4021 -9.8272 -2.3776 0.9593
4.9202 -8.8418 -2.3781 0.9593
6.4177 -7.8315 -2.3796 0.9592
9.4649 -3.4355 -2.3665 0.9595
9.7431 -2.5797 -2.3688 0.9594
10.5032 -0.8433 -2.4764 0.9576
10.5484 0.0973 -2.4792 0.9576
10.1815 2.8979 -2.4879 0.9574
9.8942 3.7994 -2.4909 0.9574
9.5270 4.6727 -2.4939 0.9573
8.2099 6.0452 -2.3962 0.9590
7.6463 6.7613 -2.3989 0.9589
7.0201 7.4247 -2.4015 0.9589
6.3360 8.0297 -2.4039 0.9588
5.5997 8.5714 -2.4063 0.9588
2.8514 12.6750 -3.0534 0.9480
0.5617 13.1847 -3.1015 0.9472
-0.6335 13.5317 -3.1838 0.9459
-1.8968 13.8471 -3.2848 0.9442
-3.4100 14.8660 -3.5846 0.9393
-8.2909 6.0513 -2.4124 0.9587
-8.0493 3.0522 -2.0232 0.9652
-10.5866 -0.8949 -2.4970 0.9573
-9.9360 -3.6538 -2.4881 0.9574
-7.6612 -6.5823 -2.3739 0.9593
-6.3558 -7.8229 -2.3689 0.9594
-2.3654 -9.8562 -2.3822 0.9592
2.1211 -9.8921 -2.3777 0.9593
3.8455 -9.3571 -2.3776 0.9593
6.8841 -7.4291 -2.3804 0.9592
7.5236 -6.7888 -2.3817 0.9592
8.5388 -5.2988 -2.3618 0.9595
8.9847 -4.5193 -2.3637 0.9595
9.3604 -3.7028 -2.3658 0.9595
9.6626 -2.8555 -2.3680 0.9594
10.4713 -1.1421 -2.4756 0.9576
10.5430 -0.2033 -2.4783 0.9576
10.2561 2.6054 -2.4870 0.9575
9.9946 3.5144 -2.4900 0.9574
9.6527 4.3975 -2.4929 0.9574
9.2327 5.2475 -2.4959 0.9573
8.7378 6.0574 -2.4988 0.9573
7.8332 6.5382 -2.3980 0.9589
7.2264 7.2190 -2.4006 0.9589
6.5603 7.8433 -2.4032 0.9589
5.0713 8.9016 -2.4078 0.9588
3.1565 12.3725 -3.0010 0.9489
2.0779 12.8397 -3.0569 0.9480
0.5980 8.3986 -1.9789 0.9660
-0.2461 13.4700 -3.1663 0.9461
-1.5827 7.9310 -1.9007 0.9673
-3.7529 7.4800 -1.9668 0.9662
-4.5353 7.3250 -2.0248 0.9652
-7.6605 7.1130 -2.4568 0.9580
-8.6392 5.5332 -2.4112 0.9587
-9.0912 4.7364 -2.4092 0.9588
-9.4692 3.9028 -2.4071 0.9588
-10.0054 2.1560 -2.4055 0.9588
-10.6117 -0.5929 -2.4979 0.9573
-10.5042 -1.5357 -2.4950 0.9573
-9.6876 -4.2478 -2.4861 0.9575
-9.2590 -5.0892 -2.4831 0.9575
-8.5991 -5.7817 -2.4353 0.9583
-5.8645 -8.1894 -2.3673 0.9595
-5.1056 -8.6720 -2.3651 0.9595
-3.5111 -9.5182 -2.3843 0.9592
-1.7610 -9.9778 -2.3812 0.9592
-0.8632 -10.0900 -2.3800 0.9592
0.0406 -10.1225 -2.3791 0.9593
0.9434 -10.0754 -2.3783 0.9593
4.4077 -9.1067 -2.3778 0.9593
7.3257 -6.9993 -2.3812 0.9592
8.3823 -5.5388 -2.3613 0.9596
8.8499 -4.7724 -2.3631 0.9595
9.2484 -3.9670 -2.3651 0.9595
9.8249 -2.2642 -2.3696 0.9594
10.0869 3.2268 -2.4890 0.9574
9.3750 4.9803 -2.4949 0.9573
7.4267 7.0077 -2.3998 0.9589
6.0754 8.2333 -2.4048 0.9588
5.3215 8.7509 -2.4071 0.9588
4.4800 11.6313 -2.9294 0.9501
0.8447 8.4536 -1.9967 0.9657
0.1368 13.3463 -3.1369 0.9466
-2.4105 14.1739 -3.3790 0.9426
-2.0393 4.3712 -1.1336 0.9804
-7.9360 6.5168 -2.4134 0.9587
-9.6828 3.3178 -2.4056 0.9588
-10.5340 1.6072 -2.5044 0.9572
-10.6237 0.6601 -2.5016 0.9572
-10.6282 -0.2902 -2.4988 0.9573
-10.1358 -3.0839 -2.4900 0.9574
-8.9254 -5.6383 -2.4812 0.9575
-8.0296 -6.1393 -2.3755 0.9593
-6.7958 -7.4527 -2.3704 0.9594
-6.0975 -8.0213 -2.3680 0.9594
-4.5662 -8.9611 -2.3637 0.9595
-3.7820 -9.4165 -2.3849 0.9592
-2.9245 -9.7094 -2.3832 0.9592
-1.1507 -10.0628 -2.3804 0.9592
0.6558 -10.0991 -2.3785 0.9593
1.5540 -9.9979 -2.3779 0.9593
3.3059 -9.5607 -2.3775 0.9593
4.1461 -9.2283 -2.3777 0.9593
6.4476 -7.8071 -2.3797 0.9592
7.1219 -7.2041 -2.3808 0.9592
7.7408 -6.5436 -2.3822 0.9592
8.2190 -5.7742 -2.3607 0.9596
9.1289 -4.2279 -2.3644 0.9595
9.7533 -2.5426 -2.3689 0.9594
10.5061 1.0795 -2.4822 0.9575
10.3801 2.0151 -2.4851 0.9575
9.5096 4.7092 -2.4940 0.9573
7.6208 6.7907 -2.3990 0.9589
6.3057 8.0542 -2.4040 0.9588
5.5672 8.5931 -2.4064 0.9588
4.7825 9.0637 -2.4085 0.9588
4.8488 11.5920 -2.9531 0.9497
3.7312 11.7767 -2.9034 0.9505
1.6612 12.8955 -3.0558 0.9480
-3.4827 14.9213 -3.6011 0.9390
-8.3137 6.0194 -2.4123 0.9587
-8.8110 5.2496 -2.4105 0.9587
-9.2366 4.4387 -2.4085 0.9588
-9.8600 2.7211 -2.4040 0.9588
-9.9215 -3.6915 -2.4880 0.9574
-9.5412 -4.5567 -2.4850 0.9575
-8.2152 -5.9178 -2.3795 0.9593
-7.6357 -6.6112 -2.3737 0.9593
-7.0078 -7.2584 -2.3712 0.9594
-6.3256 -7.8467 -2.3688 0.9594
-4.8212 -8.8297 -2.3644 0.9595
-4.0499 -9.3071 -2.3855 0.9592
-3.2008 -9.6242 -2.3837 0.9592
-1.4373 -10.0275 -2.3808 0.9592
-0.5366 -10.1110 -2.3797 0.9592
0.3677 -10.1147 -2.3788 0.9593
2.1588 -9.8838 -2.3777 0.9593
3.0319 -9.6511 -2.3775 0.9593
5.4821 -8.5071 -2.3785 0.9593
6.2216 -7.9867 -2.3794 0.9593
8.0493 -6.0048 -2.3602 0.9596
8.5592 -5.2664 -2.3619 0.9595
9.0022 -4.4852 -2.3638 0.9595
9.3748 -3.6672 -2.3659 0.9595
9.6738 -2.8187 -2.3681 0.9594
10.5442 -0.1631 -2.4784 0.9576
10.4294 1.7177 -2.4842 0.9575
10.2466 2.6446 -2.4871 0.9574
9.6363 4.4345 -2.4931 0.9573
7.8086 6.5684 -2.3981 0.9589
5.2019 11.5035 -2.9672 0.9494
4.0664 11.6688 -2.9042 0.9505
3.1163 12.4128 -3.0078 0.9488
2.0288 12.8469 -3.0567 0.9480
-0.2977 13.4787 -3.1686 0.9461
-1.5271 13.6471 -3.2274 0.9451
-2.9540 14.5142 -3.4811 0.9410
-7.6464 7.0458 -2.4437 0.9582
-8.1405 6.2554 -2.4128 0.9587
-9.1088 4.7016 -2.4091 0.9588
-9.7815 3.0020 -2.4047 0.9588
-10.5763 1.2654 -2.5034 0.9572
-10.6353 0.3162 -2.5006 0.9572
-10.6089 -0.6334 -2.4978 0.9573
-10.4977 -1.5757 -2.4948 0.9573
-9.6709 -4.2845 -2.4859 0.9575
-8.5039 -5.7648 -2.4145 0.9587
-7.8239 -6.3930 -2.3746 0.9593
-7.2143 -7.0580 -2.3720 0.9594
-6.5489 -7.6656 -2.3695 0.9594
-5.8330 -8.2114 -2.3672 0.9595
-5.0724 -8.6911 -2.3650 0.9595
-4.2691 -9.0930 -2.3609 0.9596
-3.4747 -9.5312 -2.3843 0.9592
-2.6085 -9.7965 -2.3826 0.9592
-1.7230 -9.9842 -2.3812 0.9592
0.0792 -10.1222 -2.3790 0.9593
1.8762 -9.9418 -2.3778 0.9593
4.4424 -9.0899 -2.3778 0.9593
5.9906 -8.1598 -2.3791 0.9593
7.3525 -6.9715 -2.3813 0.9592
8.4036 -5.5069 -2.3613 0.9596
8.8684 -4.7388 -2.3632 0.9595
9.2638 -3.9319 -2.3652 0.9595
9.5865 -3.0924 -2.3674 0.9595
-8.3247 -4.7625 -2.4832 0.9611
-7.8582 -5.4806 -2.4806 0.9612
-7.0263 -5.8984 -2.3753 0.9628
-5.8547 -7.0399 -2.3707 0.9629
-5.1985 -7.5276 -2.3686 0.9629
-4.5023 -7.9549 -2.3667 0.9629
-3.7717 -8.3185 -2.3649 0.9630
-3.0123 -8.6160 -2.3632 0.9630
-2.2518 -8.9314 -2.3849 0.9627
1.0135 -9.1401 -2.3810 0.9627
2.6213 -8.8121 -2.3804 0.9627
4.1465 -8.2069 -2.3807 0.9627
4.8634 -7.8058 -2.3812 0.9627
5.5422 -7.3429 -2.3820 0.9627
6.1179 -6.7558 -2.3598 0.9630
6.6996 -6.1858 -2.3610 0.9630
7.2289 -5.5665 -2.3623 0.9630
7.7018 -4.9023 -2.3638 0.9630
8.1143 -4.1986 -2.3655 0.9630
9.3470 -1.9867 -2.4742 0.9613
9.5700 -0.2942 -2.4790 0.9612
9.5679 0.5615 -2.4816 0.9612
9.1067 3.0855 -2.4895 0.9610
8.8045 3.8901 -2.4922 0.9610
8.4313 4.6652 -2.4949 0.9610
7.9899 5.4047 -2.4976 0.9609
7.1735 5.8496 -2.3966 0.9625
6.6295 6.4729 -2.3990 0.9624
6.0312 7.0454 -2.4013 0.9624
5.3834 7.5623 -2.4035 0.9624
3.9599 8.4125 -2.4074 0.9623
3.1957 8.7386 -2.4091 0.9623
3.0498 11.4077 -3.0574 0.9524
1.4905 8.5862 -2.2564 0.9646
0.9879 11.9431 -3.1028 0.9517
-2.4648 13.1328 -3.4597 0.9463
-6.7535 6.4163 -2.4119 0.9622
-7.2950 5.7848 -2.4106 0.9623
-8.1959 4.3900 -2.4073 0.9623
-8.5482 3.6382 -2.4054 0.9623
-8.8312 2.8585 -2.4034 0.9624
-9.5782 1.2945 -2.5025 0.9609
-9.5494 -1.2846 -2.4948 0.9610
-9.1492 -2.9553 -2.4894 0.9611
-8.8394 -3.7558 -2.4867 0.9611
-6.0548 -6.8721 -2.3714 0.9629
-5.4125 -7.3783 -2.3693 0.9629
-4.7286 -7.8253 -2.3673 0.9629
-4.0083 -8.2096 -2.3654 0.9630
-3.2574 -8.5284 -2.3637 0.9630
-2.5060 -8.8652 -2.3853 0.9626
-0.8894 -9.1600 -2.3828 0.9627
-0.0684 -9.1993 -2.3819 0.9627
1.5671 -9.0604 -2.3807 0.9627
3.1523 -8.6365 -2.3804 0.9627
4.6385 -7.9407 -2.3811 0.9627
5.3300 -7.4971 -2.3817 0.9627
5.9799 -6.9941 -2.3826 0.9627
7.0660 -5.7692 -2.3619 0.9630
7.9894 -4.4271 -2.3650 0.9630
8.6629 -2.9412 -2.3687 0.9629
8.8987 -2.1583 -2.3708 0.9629
9.4566 -1.4156 -2.4758 0.9613
9.5546 -0.5667 -2.4782 0.9612
9.5768 0.2884 -2.4807 0.9612
9.5229 1.1431 -2.4833 0.9611
9.3929 1.9904 -2.4860 0.9611
8.9088 3.6362 -2.4914 0.9610
8.1380 5.1729 -2.4967 0.9609
6.8092 6.2793 -2.3982 0.9625
6.2278 6.8685 -2.4006 0.9624
4.9165 7.8802 -2.4049 0.9623
4.1971 8.2942 -2.4068 0.9623
3.4428 8.6420 -2.4086 0.9623
1.3251 11.8838 -3.0960 0.9518
0.1804 8.3126 -2.1528 0.9662
-2.0482 12.9372 -3.3914 0.9473
-2.0009 4.4203 -1.2563 0.9802
-6.5689 6.6073 -2.4123 0.9622
-8.4432 3.8815 -2.4060 0.9623
-8.7486 3.1100 -2.4040 0.9624
-9.0920 2.3429 -2.4310 0.9619
-9.6476 -0.1530 -2.4983 0.9609
-9.5854 -1.0122 -2.4956 0.9610
-9.4467 -1.8615 -2.4930 0.9610
-9.2329 -2.6942 -2.4903 0.9610
-8.1633 -5.0271 -2.4822 0.9612
-7.4203 -5.5400 -2.3976 0.9625
-5.6222 -7.2231 -2.3699 0.9629
-4.9510 -7.6893 -2.3679 0.9629
-4.2417 -8.0939 -2.3660 0.9629
-2.7583 -8.7919 -2.3858 0.9626
-1.1503 -9.1322 -2.3832 0.9627
1.3082 -9.1019 -2.3809 0.9627
2.1149 -8.9476 -2.3805 0.9627
2.9048 -8.7228 -2.3804 0.9627
3.6718 -8.4292 -2.3805 0.9627
6.3341 -6.5555 -2.3602 0.9630
6.8974 -5.9672 -2.3614 0.9630
8.2481 -3.9352 -2.3662 0.9629
8.5732 -3.1861 -2.3681 0.9629
8.8311 -2.4104 -2.3702 0.9629
9.4095 -1.6841 -2.4750 0.9613
9.5484 0.8708 -2.4825 0.9612
9.2613 2.5597 -2.4878 0.9611
9.0057 3.3796 -2.4905 0.9610
7.8139 5.6622 -2.4985 0.9609
6.4191 6.6861 -2.3998 0.9624
5.8023 7.2391 -2.4021 0.9624
5.1378 7.7348 -2.4042 0.9624
3.6869 8.5384 -2.4081 0.9623
2.9122 8.8394 -2.4097 0.9623
1.6597 11.8155 -3.0893 0.9519
-7.4765 5.5448 -2.4101 0.9623
-7.9361 4.8522 -2.4084 0.9623
-8.6587 3.3591 -2.4047 0.9624
-8.9190 2.5716 -2.4034 0.9624
-9.4947 1.8394 -2.5041 0.9608
-9.6512 0.1221 -2.4991 0.9609
-8.3061 -4.7940 -2.4831 0.9611
-7.0035 -5.9249 -2.3752 0.9628
-5.8276 -7.0619 -2.3706 0.9629
-0.5927 -9.1826 -2.3825 0.9627
0.2289 -9.1956 -2.3816 0.9627
3.4299 -8.5303 -2.3805 0.9627
5.5702 -7.3218 -2.3820 0.9627
6.7233 -6.1604 -2.3610 0.9630
8.1305 -4.1677 -2.3656 0.9630
9.3549 -1.9511 -2.4743 0.9613
9.5007 -1.1096 -2.4766 0.9612
9.3273 2.2939 -2.4870 0.9611
9.0952 3.1204 -2.4897 0.9610
8.4139 4.6976 -2.4950 0.9610
7.1515 5.8772 -2.3967 0.9625
6.0046 7.0686 -2.4014 0.9624
3.1624 8.7510 -2.4092 0.9623
3.0073 11.4231 -3.0584 0.9524
-1.2624 12.5834 -3.2744 0.9491
-2.5219 13.1600 -3.4694 0.9461
-4.0829 14.2689 -3.8428 0.9405
-4.4612 7.3296 -2.2217 0.9652
-5.2841 7.1551 -2.3030 0.9639
-7.7963 5.0776 -2.4090 0.9623
-8.2123 4.3585 -2.4072 0.9623
-9.5827 1.2579 -2.5024 0.9609
-9.6470 0.3974 -2.4999 0.9609
-9.6340 -0.4646 -2.4973 0.9609
-9.5440 -1.3210 -2.4947 0.9610
-9.3779 -2.1650 -2.4920 0.9610
-9.1374 -2.9900 -2.4893 0.9611
-8.8246 -3.7893 -2.4866 0.9611
-7.1718 -5.7247 -2.3759 0.9628
-4.6985 -7.8430 -2.3672 0.9629
-3.9768 -8.2246 -2.3653 0.9630
-3.2247 -8.5405 -2.3637 0.9630
-1.6694 -9.0546 -2.3839 0.9627
-0.8544 -9.1632 -2.3828 0.9627
-0.0333 -9.1993 -2.3819 0.9627
1.6016 -9.0543 -2.3807 0.9627
2.4029 -8.8743 -2.3805 0.9627
3.1852 -8.6244 -2.3804 0.9627
6.0067 -6.9714 -2.3826 0.9627
7.5769 -5.0901 -2.3634 0.9630
8.0065 -4.3967 -2.3650 0.9630
8.3733 -3.6676 -2.3668 0.9629
8.9072 -2.1244 -2.3709 0.9629
9.5761 0.3250 -2.4808 0.9612
9.3857 2.0263 -2.4861 0.9611
9.1773 2.8588 -2.4888 0.9611
8.8952 3.6704 -2.4915 0.9610
8.1186 5.2042 -2.4968 0.9609
7.5548 5.8559 -2.4749 0.9613
6.2018 6.8925 -2.4007 0.9624
1.7218 8.6454 -2.2824 0.9642
0.2186 12.2267 -3.1662 0.9507
-0.8983 12.5462 -3.2568 0.9494
-2.0081 4.3915 -1.2503 0.9802
-7.1511 5.9642 -2.4110 0.9623
-8.0867 4.5920 -2.4078 0.9623
-8.7601 3.0765 -2.4039 0.9624
-9.5459 1.5310 -2.5032 0.9608
-9.6349 0.6724 -2.5007 0.9609
-9.5810 -1.0487 -2.4955 0.9610
-9.2222 -2.7292 -2.4901 0.9610
-8.9321 -3.5374 -2.4874 0.9611
-6.2243 -6.7223 -2.3720 0.9629
-5.5945 -7.2442 -2.3699 0.9629
-4.9215 -7.7079 -2.3678 0.9629
-2.7246 -8.8021 -2.3857 0.9626
-1.9272 -9.0049 -2.3843 0.9627
-1.1154 -9.1364 -2.3831 0.9627
-0.2956 -9.1957 -2.3821 0.9627
1.3429 -9.0968 -2.3808 0.9627
5.1428 -7.6258 -2.3815 0.9627
5.8047 -7.1389 -2.3823 0.9627
6.3592 -6.5315 -2.3603 0.9630
6.9202 -5.9410 -2.3615 0.9630
7.4272 -5.3029 -2.3629 0.9630
8.2633 -3.9038 -2.3663 0.9629
8.5856 -3.1535 -2.3682 0.9629
9.4163 -1.6483 -2.4751 0.9613
9.5350 -0.8022 -2.4775 0.9612
9.5783 0.0519 -2.4800 0.9612
9.4364 1.7573 -2.4853 0.9611
8.2608 4.9690 -2.4960 0.9610
7.7927 5.6922 -2.4986 0.9609
6.9603 6.1075 -2.3976 0.9625
6.3938 6.7108 -2.3999 0.9624
5.1084 7.7546 -2.4043 0.9624
4.3996 8.1863 -2.4063 0.9623
3.6544 8.5527 -2.4081 0.9623
2.8786 8.8507 -2.4098 0.9623
1.9900 8.6911 -2.3085 0.9638
0.5628 12.1223 -3.1421 0.9511
-0.5358 12.4636 -3.2300 0.9498
-1.7009 12.7798 -3.3381 0.9481
-6.9794 6.1667 -2.4114 0.9622
-7.9543 4.8218 -2.4084 0.9623
-8.3466 4.0897 -2.4066 0.9623
-8.9255 2.5366 -2.4025 0.9624
-9.6512 0.0853 -2.4990 0.9609
-9.6103 -0.7754 -2.4964 0.9609
-8.2873 -4.8254 -2.4830 0.9612
-6.9805 -5.9513 -2.3751 0.9628
-5.1406 -7.5665 -2.3685 0.9629
-4.4412 -7.9884 -2.3665 0.9629
-3.7079 -8.3466 -2.3647 0.9630
-2.1836 -8.9478 -2.3847 0.9627
0.2640 -9.1945 -2.3816 0.9627
1.0831 -9.1319 -2.3810 0.9627
1.8934 -8.9973 -2.3806 0.9627
2.6885 -8.7919 -2.3804 0.9627
3.4624 -8.5171 -2.3805 0.9627
4.2091 -8.1752 -2.3808 0.9627
6.1695 -6.7092 -2.3599 0.9630
6.7469 -6.1348 -2.3611 0.9630
7.2716 -5.5114 -2.3624 0.9630
8.1466 -4.1368 -2.3657 0.9630
8.7666 -2.6271 -2.3696 0.9629
9.3626 -1.9155 -2.4744 0.9613
9.5053 -1.0734 -2.4767 0.9612
9.5727 -0.2212 -2.4792 0.9612
9.5642 0.6346 -2.4818 0.9612
9.4794 1.4871 -2.4844 0.9611
9.0837 3.1552 -2.4898 0.9610
8.3963 4.7299 -2.4952 0.9610
6.5805 6.5238 -2.3992 0.9624
3.8958 8.4431 -2.4076 0.9623
2.9647 11.4384 -3.0595 0.9523
1.4194 8.5639 -2.2476 0.9648
0.8979 11.9657 -3.1068 0.9516
-0.1785 12.3556 -3.1994 0.9502
-1.3123 12.5964 -3.2791 0.9490
-1.5524 7.9368 -2.0939 0.9671
-4.1741 14.3800 -3.8769 0.9400
-5.3207 7.1474 -2.3071 0.9639
-6.8019 6.3643 -2.4118 0.9622
-7.3385 5.7287 -2.4105 0.9623
-7.8153 5.0477 -2.4089 0.9623
-8.2287 4.3270 -2.4072 0.9623
-8.5751 3.5727 -2.4052 0.9623
-8.8521 2.7908 -2.4032 0.9624
-9.4488 2.0739 -2.5047 0.9608
-9.6317 -0.5013 -2.4972 0.9609
-9.5384 -1.3573 -2.4946 0.9610
-9.1255 -3.0247 -2.4892 0.9611
-8.8097 -3.8228 -2.4865 0.9611
-8.4244 -4.5887 -2.4838 0.9611
-7.9729 -5.3166 -2.4812 0.9612
-7.1496 -5.7517 -2.3758 0.9628
-4.6684 -7.8606 -2.3671 0.9629
-3.9453 -8.2394 -2.3653 0.9630
-2.4382 -8.8836 -2.3852 0.9627
-1.6349 -9.0607 -2.3839 0.9627
0.0018 -9.1992 -2.3818 0.9627
0.8224 -9.1597 -2.3812 0.9627
2.4368 -8.8651 -2.3805 0.9627
3.2181 -8.6122 -2.3804 0.9627
3.9741 -8.2915 -2.3807 0.9627
4.6990 -7.9052 -2.3811 0.9627
7.1101 -5.7154 -2.3620 0.9630
8.6858 -2.8752 -2.3689 0.9629
9.4679 -1.3436 -2.4760 0.9613
9.3783 2.0622 -2.4862 0.9611
8.5248 4.4870 -2.4943 0.9610
8.0990 5.2354 -2.4970 0.9609
6.7617 6.3316 -2.3984 0.9624
4.1339 8.3266 -2.4070 0.9623
1.2351 11.9005 -3.0978 0.9518
0.1721 12.2407 -3.1697 0.9507
-2.1575 12.9856 -3.4083 0.9471
-3.5402 13.6366 -3.6478 0.9434
-5.0598 7.2178 -2.2823 0.9642
-6.6188 6.5567 -2.4122 0.9622
-7.1736 5.9367 -2.4109 0.9623
-7.6699 5.2696 -2.4094 0.9623
-8.7714 3.0429 -2.4039 0.9624
-9.2411 2.3062 -2.4661 0.9614
-9.5765 -1.0852 -2.4954 0.9610
-9.4314 -1.9334 -2.4927 0.9610
-9.2112 -2.7642 -2.4900 0.9610
-8.5547 -4.3482 -2.4847 0.9611
-5.5666 -7.2652 -2.3698 0.9629
-1.8928 -9.0120 -2.3843 0.9627
-1.0806 -9.1404 -2.3831 0.9627
-0.2605 -9.1966 -2.3821 0.9627
2.1831 -8.9311 -2.3805 0.9627
4.4714 -8.0354 -2.3809 0.9627
6.9430 -5.9147 -2.3615 0.9630
7.4476 -5.2747 -2.3630 0.9630
7.8939 -4.5922 -2.3646 0.9630
8.2784 -3.8724 -2.3663 0.9629
8.8498 -2.3432 -2.3703 0.9629
9.5385 -0.7659 -2.4776 0.9612
9.5784 0.0884 -2.4801 0.9612
9.4301 1.7934 -2.4854 0.9611
8.6463 4.2407 -2.4934 0.9610
6.9373 6.1343 -2.3977 0.9625
6.3684 6.7355 -2.4000 0.9624
3.6219 8.5668 -2.4082 0.9623
2.8449 8.8619 -2.4098 0.9623
1.5704 11.8347 -3.0911 0.9519
0.5171 12.1366 -3.1452 0.9510
-0.3834 8.1910 -2.1231 0.9667
-3.0776 13.4168 -3.5641 0.9447
-7.0027 6.1399 -2.4114 0.9622
-7.5181 5.4873 -2.4099 0.9623
-7.9724 4.7913 -2.4083 0.9623
-8.3619 4.0577 -2.4065 0.9623
-8.0496 3.0523 -2.2290 0.9651
-9.6180 0.9104 -2.5014 0.9609
-9.4859 -1.6643 -2.4936 0.9610
-9.2895 -2.5014 -2.4909 0.9610
-9.0195 -3.3168 -2.4882 0.9611
-8.2685 -4.8568 -2.4829 0.9612
-7.7940 -5.5694 -2.4803 0.9612
-6.9575 -5.9777 -2.3750 0.9628
-6.3901 -6.5682 -2.3727 0.9628
-5.1115 -7.5857 -2.3684 0.9629
-4.4106 -8.0050 -2.3664 0.9629
-2.1493 -8.9559 -2.3847 0.9627
-1.3409 -9.1072 -2.3834 0.9627
-0.5227 -9.1865 -2.3824 0.9627
0.2991 -9.1933 -2.3816 0.9627
1.9277 -8.9900 -2.3806 0.9627
2.7220 -8.7816 -2.3804 0.9627
3.4948 -8.5039 -2.3805 0.9627
4.9525 -7.7499 -2.3813 0.9627
6.7704 -6.1092 -2.3611 0.9630
7.2927 -5.4838 -2.3625 0.9630
7.7580 -4.8143 -2.3640 0.9630
8.1626 -4.1058 -2.3657 0.9630
8.5032 -3.3637 -2.3676 0.9629
9.5097 -1.0372 -2.4768 0.9612
9.4741 1.5233 -2.4845 0.9611
9.3104 2.3652 -2.4872 0.9611
9.0720 3.1900 -2.4899 0.9610
8.7607 3.9911 -2.4926 0.9610
8.3786 4.7620 -2.4953 0.9610
7.1070 5.9321 -2.3969 0.9625
6.5558 6.5492 -2.3993 0.9624
5.9510 7.1148 -2.4016 0.9624
5.2971 7.6243 -2.4037 0.9624
4.5995 8.0733 -2.4058 0.9623
3.8637 8.4581 -2.4076 0.9623
3.0957 8.7754 -2.4093 0.9623
2.9220 11.4535 -3.0605 0.9523
0.8537 11.9890 -3.1120 0.9516
-0.2260 12.3704 -3.2035 0.9502
-4.2669 14.4929 -3.9117 0.9395
-4.5353 7.3250 -2.2307 0.9650
-7.3601 5.7005 -2.4104 0.9623
-8.5884 3.5398 -2.4052 0.9623
-9.5912 1.1846 -2.5022 0.9609
-7.1273 -5.7787 -2.3757 0.9628
-4.6382 -7.8781 -2.3670 0.9629
-3.1593 -8.5644 -2.3635 0.9630
-0.7845 -9.1691 -2.3827 0.9627
0.8573 -9.1565 -2.3811 0.9627
1.6707 -9.0417 -2.3807 0.9627
3.2510 -8.5999 -2.3805 0.9627
4.0058 -8.2763 -2.3807 0.9627
6.0599 -6.9256 -2.3827 0.9627
8.0403 -4.3358 -2.3652 0.9630
8.4017 -3.6038 -2.3670 0.9629
8.6970 -2.8421 -2.3690 0.9629
8.9916 -2.0722 -2.3891 0.9626
9.4733 -1.3075 -2.4761 0.9613
9.5617 -0.4574 -2.4785 0.9612
9.5104 1.2521 -2.4837 0.9611
9.3708 2.0981 -2.4863 0.9611
8.8678 3.7384 -2.4917 0.9610
7.3973 5.8248 -2.4378 0.9618
6.7378 6.3576 -2.3985 0.9624
5.5107 7.4681 -2.4031 0.9624
4.1023 8.3425 -2.4071 0.9623
3.3439 8.6817 -2.4088 0.9623
3.2231 11.2805 -3.0376 0.9527
2.2324 11.6740 -3.0774 0.9521
0.1256 12.2565 -3.1736 0.9506
-0.9954 12.5570 -3.2614 0.9493
-2.0389 4.3703 -1.2486 0.9803
-7.6898 5.2402 -2.4094 0.9623
-9.5565 1.4580 -2.5030 0.9608
-9.6389 0.5989 -2.5005 0.9609
-9.5719 -1.1217 -2.4953 0.9610
-9.4235 -1.9692 -2.4926 0.9610
-8.9041 -3.6051 -2.4872 0.9611
-8.5377 -4.3806 -2.4845 0.9611
-6.1985 -5.6839 -2.1775 0.9658
-6.1723 -6.7690 -2.3718 0.9629
-5.5386 -7.2861 -2.3697 0.9629
-3.4029 -8.4727 -2.3640 0.9630
-2.6573 -8.8221 -2.3856 0.9626
-1.8584 -9.0189 -2.3842 0.9627
-1.0457 -9.1443 -2.3830 0.9627
1.4123 -9.0861 -2.3808 0.9627
3.7680 -8.3868 -2.3806 0.9627
4.5021 -8.0184 -2.3810 0.9627
5.2010 -7.5866 -2.3816 0.9627
5.8592 -7.0946 -2.3824 0.9627
6.4091 -6.4830 -2.3604 0.9630
7.4678 -5.2464 -2.3630 0.9630
7.9116 -4.5622 -2.3646 0.9630
8.6101 -3.0881 -2.3683 0.9629
8.8601 -2.3098 -2.3707 0.9629
9.4293 -1.5765 -2.4753 0.9613
9.5417 -0.7295 -2.4777 0.9612
9.4236 1.8294 -2.4855 0.9611
9.2327 2.6659 -2.4882 0.9611
8.9677 3.4829 -2.4909 0.9610
6.9141 6.1610 -2.3978 0.9625
6.3429 6.7600 -2.4001 0.9624
5.7198 7.3058 -2.4024 0.9624
4.3374 8.2202 -2.4065 0.9623
3.5892 8.5809 -2.4083 0.9623
2.8112 8.8729 -2.4099 0.9623
1.5257 11.8440 -3.0920 0.9519
0.4712 12.1508 -3.1484 0.9510
-7.0259 6.1130 -2.4113 0.9623
-8.9439 2.4683 -2.4023 0.9624
-9.5140 1.7304 -2.5037 0.9608
-9.6032 -0.8487 -2.4961 0.9609
-9.2795 -2.5367 -2.4908 0.9610
-8.2496 -4.8880 -2.4827 0.9612
-7.7724 -5.5988 -2.4802 0.9612
-5.0824 -7.6049 -2.3683 0.9629
-2.8801 -8.6600 -2.3630 0.9630
-0.4876 -9.1883 -2.3824 0.9627
0.3342 -9.1920 -2.3815 0.9627
1.1528 -9.1232 -2.3809 0.9627
4.9821 -7.7311 -2.3813 0.9627
5.6539 -7.2579 -2.3821 0.9627
6.7938 -6.0834 -2.3612 0.9630
7.7766 -4.7849 -2.3641 0.9630
9.3777 -1.8442 -2.4746 0.9613
9.5140 -1.0010 -2.4769 0.9612
9.4687 1.5594 -2.4846 0.9611
7.0847 5.9594 -2.3970 0.9625
6.5311 6.5744 -2.3994 0.9624
5.2682 7.6447 -2.4038 0.9624
4.5688 8.0911 -2.4058 0.9623
3.8316 8.4731 -2.4077 0.9623
3.0623 8.7874 -2.4094 0.9623
1.3513 8.5569 -2.2430 0.9648
-1.4150 12.6457 -3.2946 0.9488
-3.0401 7.6226 -2.1248 0.9667
-6.8500 6.3119 -2.4117 0.9622
-8.2609 4.2639 -2.4070 0.9623
-8.6015 3.5069 -2.4051 0.9623
-9.4637 2.0015 -2.5045 0.9608
-9.5952 1.1480 -2.5021 0.9609
-9.6496 0.2869 -2.4996 0.9609
-9.6268 -0.5747 -2.4970 0.9609
-9.5270 -1.4300 -2.4943 0.9610
-9.3513 -2.2719 -2.4916 0.9610
-9.1014 -3.0939 -2.4889 0.9611
-8.3884 -4.6525 -2.4836 0.9611
-7.9315 -5.3767 -2.4810 0.9612
-7.1050 -5.8056 -2.3756 0.9628
-5.9483 -6.9626 -2.3710 0.9629
-5.2985 -7.4590 -2.3689 0.9629
-3.8821 -8.2687 -2.3651 0.9630
-2.3702 -8.9015 -2.3851 0.9627
-1.5656 -9.0725 -2.3838 0.9627
-0.7495 -9.1718 -2.3827 0.9627
0.0720 -9.1987 -2.3818 0.9627
0.8923 -9.1530 -2.3811 0.9627
1.7052 -9.0352 -2.3807 0.9627
2.5043 -8.8462 -2.3804 0.9627
4.0373 -8.2610 -2.3807 0.9627
4.7593 -7.8693 -2.3812 0.9627
6.0863 -6.9026 -2.3827 0.9627
6.6165 -6.2736 -2.3608 0.9630
7.1539 -5.6613 -2.3621 0.9630
7.6353 -5.0035 -2.3636 0.9630
8.0570 -4.3053 -2.3653 0.9630
8.4156 -3.5719 -2.3671 0.9629
8.7081 -2.8091 -2.3691 0.9629
-7.6154 -4.3567 -2.4837 0.9642
-5.3577 -6.4422 -2.3720 0.9658
-4.7576 -6.8890 -2.3701 0.9658
-4.1207 -7.2806 -2.3683 0.9658
-3.4522 -7.6139 -2.3667 0.9658
-2.7573 -7.8866 -2.3652 0.9659
-2.0414 -8.0966 -2.3638 0.9659
-1.3101 -8.2425 -2.3627 0.9659
0.9278 -8.3679 -2.3834 0.9656
1.6705 -8.2505 -2.3830 0.9656
2.3999 -8.0679 -2.3829 0.9656
3.7963 -7.5137 -2.3832 0.9656
4.4094 -7.0772 -2.3606 0.9659
5.0247 -6.6573 -2.3612 0.9659
5.6007 -6.1846 -2.3621 0.9659
6.1330 -5.6627 -2.3631 0.9659
7.0497 -4.4873 -2.3657 0.9659
7.7457 -3.1671 -2.3690 0.9658
8.5532 -1.8180 -2.4754 0.9643
8.7531 0.5137 -2.4822 0.9642
8.6808 1.2940 -2.4846 0.9642
8.3289 2.8220 -2.4895 0.9641
8.0518 3.5575 -2.4920 0.9641
7.7098 4.2660 -2.4944 0.9640
7.3055 4.9417 -2.4969 0.9640
6.8418 5.5792 -2.4992 0.9640
6.0606 5.9174 -2.3979 0.9654
3.6190 7.6883 -2.4056 0.9653
2.9204 7.9858 -2.4072 0.9653
1.4559 8.3869 -2.4098 0.9652
0.7021 8.4870 -2.4108 0.9652
-5.0346 6.8719 -2.4116 0.9652
-5.6257 6.3930 -2.4108 0.9652
-7.1071 4.6675 -2.4071 0.9653
-7.4903 4.0121 -2.4055 0.9653
-7.8128 3.3253 -2.4038 0.9653
-8.7563 1.1834 -2.5014 0.9639
-8.8108 -0.3912 -2.4967 0.9640
-8.5842 -1.9473 -2.4919 0.9641
-8.3678 -2.7029 -2.4894 0.9641
-7.7389 -4.1391 -2.4845 0.9642
-4.3276 -7.1618 -2.3689 0.9658
-3.6687 -7.5140 -2.3672 0.9658
-2.2718 -8.0365 -2.3642 0.9659
-1.5448 -8.2030 -2.3630 0.9659
-0.8142 -8.3856 -2.3851 0.9656
-0.0626 -8.4219 -2.3842 0.9656
0.6889 -8.3916 -2.3836 0.9656
1.4348 -8.2951 -2.3831 0.9656
3.5804 -7.6186 -2.3831 0.9656
4.8324 -6.7972 -2.3610 0.9659
5.4215 -6.3410 -2.3618 0.9659
6.4681 -5.2811 -2.3639 0.9659
6.9175 -4.6855 -2.3652 0.9659
8.6530 -1.2953 -2.4769 0.9643
8.7420 -0.5185 -2.4791 0.9642
8.7615 0.2639 -2.4815 0.9642
8.7114 1.0457 -2.4838 0.9642
8.5917 1.8206 -2.4863 0.9641
8.4033 2.5826 -2.4887 0.9641
7.8259 4.0432 -2.4937 0.9640
7.4411 4.7300 -2.4961 0.9640
6.9960 5.3802 -2.4985 0.9640
6.2250 5.7406 -2.3972 0.9654
5.6930 6.2787 -2.3993 0.9654
4.4936 7.2025 -2.4033 0.9653
3.8358 7.5803 -2.4050 0.9653
3.1462 7.8977 -2.4067 0.9653
2.4304 8.1519 -2.4081 0.9653
-0.7868 11.6112 -3.2946 0.9528
-1.2671 8.0034 -2.2939 0.9669
-1.9751 7.8539 -2.2926 0.9669
-4.8371 7.0133 -2.4119 0.9652
-5.4418 6.5516 -2.4111 0.9652
-6.5139 5.4750 -2.4089 0.9652
-6.9725 4.8692 -2.4075 0.9653
-7.7167 3.5475 -2.4043 0.9653
-7.9964 2.8426 -2.4025 0.9653
-8.5662 2.2074 -2.5042 0.9639
-8.8066 0.6484 -2.4998 0.9640
-8.8210 -0.1399 -2.4975 0.9640
-8.7649 -0.9256 -2.4951 0.9640
-8.1825 -3.2045 -2.4877 0.9641
-6.2456 -5.5969 -2.3742 0.9657
-5.7192 -6.1297 -2.3733 0.9657
-5.1451 -6.6101 -2.3713 0.9658
-1.7783 -8.1569 -2.3634 0.9659
-0.3028 -8.4175 -2.3845 0.9656
2.6595 -7.9861 -2.3829 0.9656
3.3616 -7.7173 -2.3830 0.9656
5.2379 -6.4922 -2.3615 0.9659
6.3139 -5.4625 -2.3635 0.9659
7.8462 -2.9158 -2.3696 0.9658
8.6102 -1.5411 -2.4762 0.9643
8.7350 0.7966 -2.4831 0.9642
7.9355 3.8173 -2.4929 0.9641
7.1444 5.1771 -2.4977 0.9640
6.4664 5.6306 -2.4273 0.9650
5.8680 6.1122 -2.3987 0.9654
5.3038 6.6171 -2.4007 0.9654
4.0494 7.4662 -2.4045 0.9653
3.3694 7.8032 -2.4062 0.9653
1.9309 8.2877 -2.4090 0.9652
1.1843 8.4310 -2.4102 0.9652
-0.4520 11.5394 -3.2692 0.9531
-1.0403 8.0512 -2.2982 0.9668
-1.7492 7.9016 -2.2910 0.9669
-4.6355 7.1490 -2.4121 0.9652
-6.3562 5.6594 -2.4093 0.9652
-7.2526 4.4343 -2.4065 0.9653
-7.6142 3.7669 -2.4049 0.9653
-8.5020 2.4513 -2.5049 0.9639
-8.6795 1.6815 -2.5028 0.9639
-8.7905 -0.6755 -2.4959 0.9640
-8.6867 -1.4558 -2.4934 0.9640
-8.5137 -2.2230 -2.4910 0.9641
-7.9672 -3.6936 -2.4860 0.9642
-7.1698 -5.0412 -2.4812 0.9642
-6.4079 -5.4210 -2.3761 0.9657
-5.8933 -5.9659 -2.3740 0.9657
-4.7311 -6.9069 -2.3700 0.9658
-2.7271 -7.8969 -2.3651 0.9659
-1.2787 -8.2473 -2.3626 0.9659
-0.5426 -8.4064 -2.3847 0.9656
0.9597 -8.3643 -2.3834 0.9656
2.4307 -8.0587 -2.3829 0.9656
3.1402 -7.8098 -2.3829 0.9656
3.8250 -7.4992 -2.3832 0.9656
4.4364 -7.0604 -2.3606 0.9659
5.6244 -6.1633 -2.3621 0.9659
8.0132 -2.4347 -2.3709 0.9658
8.5604 -1.7854 -2.4755 0.9643
8.6932 -1.0153 -2.4777 0.9643
8.7571 -0.2358 -2.4800 0.9642
8.7514 0.5471 -2.4823 0.9642
8.6761 1.3272 -2.4847 0.9642
8.5315 2.0981 -2.4872 0.9641
8.0385 3.5883 -2.4921 0.9641
7.2869 4.9697 -2.4970 0.9640
6.8208 5.6054 -2.4993 0.9640
6.0382 5.9407 -2.3980 0.9654
5.4888 6.4615 -2.4001 0.9654
4.8944 6.9312 -2.4021 0.9653
3.5897 7.7023 -2.4056 0.9653
2.8900 7.9971 -2.4072 0.9653
2.1661 8.2279 -2.4086 0.9652
1.4239 8.3925 -2.4098 0.9652
0.6697 8.4898 -2.4109 0.9652
-0.0877 8.2453 -2.3343 0.9663
-1.5233 7.9493 -2.2913 0.9669
-2.2318 7.7997 -2.2967 0.9668
-5.0607 6.8526 -2.4116 0.9652
-5.6500 6.3714 -2.4107 0.9652
-6.6862 5.2606 -2.4084 0.9653
-7.8252 3.2953 -2.4037 0.9653
-8.0817 2.5819 -2.4018 0.9653
-8.8200 0.3633 -2.4990 0.9640
-8.8089 -0.4248 -2.4966 0.9640
-8.3571 -2.7347 -2.4893 0.9641
-7.3129 -4.8362 -2.4820 0.9642
-5.5164 -6.3094 -2.3726 0.9658
-4.9273 -6.7709 -2.3706 0.9658
-3.6399 -7.5278 -2.3671 0.9658
-2.2411 -8.0450 -2.3642 0.9659
-1.5135 -8.2087 -2.3630 0.9659
-0.7822 -8.3885 -2.3850 0.9656
2.2000 -8.1248 -2.3829 0.9656
3.6095 -7.6049 -2.3831 0.9656
4.2744 -7.2537 -2.3835 0.9656
5.4457 -6.3204 -2.3618 0.9659
5.9905 -5.8117 -2.3628 0.9659
7.6635 -3.3567 -2.3685 0.9658
7.9385 -2.6615 -2.3703 0.9658
8.5037 -2.0282 -2.4749 0.9643
8.7608 0.2973 -2.4816 0.9642
8.7077 1.0789 -2.4839 0.9642
8.5851 1.8535 -2.4864 0.9641
8.3938 2.6147 -2.4888 0.9641
7.8107 4.0732 -2.4938 0.9640
7.4233 4.7585 -2.4962 0.9640
6.9757 5.4071 -2.4986 0.9640
6.2074 5.7683 -2.3989 0.9654
3.1162 7.9099 -2.4067 0.9653
2.3994 8.1613 -2.4082 0.9653
0.9113 8.4661 -2.4106 0.9652
-1.2974 7.9970 -2.2935 0.9669
-4.2212 7.4027 -2.4124 0.9652
-5.4667 6.5307 -2.4110 0.9652
-7.7299 3.5179 -2.4042 0.9653
-8.0069 2.8120 -2.4024 0.9653
-8.8086 0.6148 -2.4997 0.9640
-8.8201 -0.1735 -2.4974 0.9640
-8.7610 -0.9590 -2.4950 0.9640
-8.4343 -2.4961 -2.4901 0.9641
-7.8409 -3.9478 -2.4852 0.9642
-7.4501 -4.6272 -2.4827 0.9642
-7.0008 -5.2685 -2.4804 0.9642
-5.6956 -6.1513 -2.3732 0.9657
-4.5041 -7.0542 -2.3694 0.9658
-3.8539 -7.4226 -2.3676 0.9658
-1.7471 -8.1635 -2.3633 0.9659
-0.2706 -8.4185 -2.3844 0.9656
1.9675 -8.1844 -2.3830 0.9656
2.6899 -7.9759 -2.3829 0.9656
3.3910 -7.7044 -2.3830 0.9656
4.0656 -7.3721 -2.3833 0.9656
4.6627 -6.9140 -2.3608 0.9659
5.2627 -6.4723 -2.3615 0.9659
5.8215 -5.9792 -2.3624 0.9659
6.3348 -5.4385 -2.3636 0.9659
7.2090 -4.2307 -2.3663 0.9658
8.2560 -2.2197 -2.4202 0.9651
8.6163 -1.5083 -2.4763 0.9643
8.7243 -0.7340 -2.4785 0.9643
8.7631 0.0474 -2.4808 0.9642
8.7322 0.8300 -2.4832 0.9642
8.4622 2.3736 -2.4881 0.9641
8.2248 3.1224 -2.4905 0.9641
7.1249 5.2045 -2.4978 0.9640
4.6691 7.0878 -2.4028 0.9653
3.3397 7.8162 -2.4062 0.9653
1.8994 8.2951 -2.4091 0.9652
-1.7794 7.8952 -2.2911 0.9669
-4.6627 7.1312 -2.4120 0.9652
-6.3776 5.6350 -2.4092 0.9652
-7.2693 4.4065 -2.4065 0.9653
-7.9254 3.0398 -2.4030 0.9653
-8.6855 1.6483 -2.5027 0.9639
-8.7901 0.8659 -2.5005 0.9639
-8.8241 0.0780 -2.4981 0.9640
-8.7875 -0.7091 -2.4958 0.9640
-8.2614 -3.0023 -2.4884 0.9641
-7.9527 -3.7238 -2.4859 0.9642
-7.5813 -4.4143 -2.4835 0.9642
-6.3869 -5.4452 -2.3760 0.9657
-5.3080 -6.4825 -2.3719 0.9658
-4.7046 -6.9247 -2.3699 0.9658
-4.0648 -7.3114 -2.3682 0.9658
-1.2471 -8.2519 -2.3626 0.9659
-0.5106 -8.4083 -2.3847 0.9656
0.2417 -8.4176 -2.3839 0.9656
0.9916 -8.3605 -2.3834 0.9656
3.8536 -7.4846 -2.3832 0.9656
5.0755 -6.6190 -2.3613 0.9659
5.6479 -6.1419 -2.3621 0.9659
8.7583 -0.2024 -2.4801 0.9642
8.7496 0.5805 -2.4824 0.9642
8.6713 1.3603 -2.4848 0.9642
8.5238 2.1307 -2.4873 0.9641
8.0251 3.6191 -2.4922 0.9641
7.6777 4.3251 -2.4946 0.9640
6.0157 5.9639 -2.3981 0.9654
5.4643 6.4826 -2.4002 0.9654
4.2317 7.3624 -2.4040 0.9653
3.5604 7.7162 -2.4057 0.9653
2.8595 8.0083 -2.4073 0.9653
0.6373 8.4924 -2.4109 0.9652
-0.1658 11.4718 -3.2479 0.9534
-1.5523 7.9362 -2.2893 0.9669
-4.4579 7.2618 -2.4122 0.9652
-5.0867 6.8332 -2.4116 0.9652
-5.6741 6.3497 -2.4107 0.9652
-7.1421 4.6129 -2.4069 0.9653
-7.5203 3.9546 -2.4053 0.9653
-7.8375 3.2654 -2.4036 0.9653
-8.1085 2.5564 -2.4069 0.9653
-8.7644 1.1165 -2.5012 0.9639
-8.8068 -0.4584 -2.4965 0.9640
-8.5683 -2.0126 -2.4916 0.9641
-8.0581 -3.4967 -2.4867 0.9641
-7.7064 -4.1977 -2.4843 0.9642
-6.0403 -5.8199 -2.3745 0.9657
-5.4921 -6.3302 -2.3725 0.9658
-4.2726 -7.1942 -2.3687 0.9658
-3.6110 -7.5414 -2.3670 0.9658
-2.9218 -7.8284 -2.3655 0.9659
-1.4821 -8.2142 -2.3629 0.9659
-0.7502 -8.3913 -2.3850 0.9656
0.0016 -8.4219 -2.3842 0.9656
1.4980 -8.2838 -2.3831 0.9656
4.8842 -6.7603 -2.3610 0.9659
6.0127 -5.7888 -2.3628 0.9659
6.5085 -5.2319 -2.3640 0.9659
6.9534 -4.6328 -2.3654 0.9659
7.6765 -3.3275 -2.3685 0.9658
8.7464 -0.4518 -2.4793 0.9642
8.7600 0.3308 -2.4817 0.9642
8.5783 1.8863 -2.4865 0.9641
7.4054 4.7870 -2.4963 0.9640
6.1816 5.7884 -2.3974 0.9654
5.6454 6.3224 -2.3995 0.9654
4.4388 7.2370 -2.4034 0.9653
3.0860 7.9219 -2.4068 0.9653
2.3682 8.1706 -2.4082 0.9653
1.6306 8.3537 -2.4095 0.9652
-2.0231 4.3801 -1.3659 0.9801
-4.8904 6.9761 -2.4118 0.9652
-5.4915 6.5097 -2.4110 0.9652
-6.0480 5.9912 -2.4100 0.9652
-6.5552 5.4249 -2.4088 0.9652
-7.0091 4.8156 -2.4074 0.9653
-7.4061 4.1683 -2.4059 0.9653
-8.0173 2.7813 -2.4023 0.9653
-8.8106 0.5812 -2.4996 0.9640
-8.7569 -0.9923 -2.4949 0.9640
-8.6249 -1.7681 -2.4924 0.9641
-8.4244 -2.5281 -2.4900 0.9641
-8.1571 -3.2666 -2.4875 0.9641
-7.4321 -4.6554 -2.4826 0.9642
-6.9804 -5.2950 -2.4803 0.9642
-6.1972 -5.6394 -2.3720 0.9658
-5.6719 -6.1727 -2.3731 0.9658
-4.4770 -7.0711 -2.3693 0.9658
-3.8254 -7.4370 -2.3675 0.9658
-1.7160 -8.1699 -2.3633 0.9659
-0.9892 -8.3676 -2.3853 0.9656
0.5136 -8.4046 -2.3837 0.9656
3.4204 -7.6915 -2.3830 0.9656
5.2874 -6.4523 -2.3616 0.9659
6.3557 -5.4144 -2.3636 0.9659
7.2253 -4.2033 -2.3664 0.9658
7.5768 -3.5442 -2.3680 0.9658
7.8687 -2.8561 -2.3698 0.9658
8.3263 -2.2046 -2.4383 0.9648
8.6223 -1.4755 -2.4764 0.9643
8.7274 -0.7008 -2.4786 0.9643
8.7294 0.8633 -2.4833 0.9642
8.6259 1.6404 -2.4857 0.9642
8.2132 3.1538 -2.4906 0.9641
7.9068 3.8780 -2.4931 0.9641
7.5366 4.5725 -2.4955 0.9640
5.8217 6.1572 -2.3988 0.9654
3.9926 7.4973 -2.4046 0.9653
1.1200 8.4401 -2.4103 0.9652
-0.5411 11.5592 -3.2759 0.9530
-6.8703 5.0144 -2.4079 0.9653
-7.2858 4.3786 -2.4064 0.9653
-7.6422 3.7085 -2.4047 0.9653
-7.9367 3.0095 -2.4029 0.9653
-8.5199 2.3862 -2.5047 0.9639
-8.8240 0.0444 -2.4980 0.9640
-8.7844 -0.7425 -2.4957 0.9640
-8.4958 -2.2877 -2.4908 0.9641
-8.2495 -3.0336 -2.4883 0.9641
-7.9381 -3.7539 -2.4858 0.9642
-7.5641 -4.4430 -2.4834 0.9642
-7.1306 -5.0954 -2.4810 0.9642
-4.6780 -6.9423 -2.3699 0.9658
-0.4785 -8.4100 -2.3847 0.9656
1.7648 -8.2307 -2.3830 0.9656
2.4921 -8.0399 -2.3829 0.9656
3.1996 -7.7857 -2.3829 0.9656
4.4903 -7.0265 -2.3606 0.9659
5.1008 -6.5997 -2.3613 0.9659
5.6715 -6.1204 -2.3622 0.9659
7.1011 -4.4067 -2.3659 0.9659
7.4710 -3.7579 -2.3675 0.9658
8.0321 -2.3737 -2.3710 0.9658
8.7593 -0.1689 -2.4802 0.9642
8.7478 0.6139 -2.4825 0.9642
8.5159 2.1633 -2.4874 0.9641
8.2971 2.9175 -2.4898 0.9641
8.0116 3.6499 -2.4923 0.9641
7.2494 5.0256 -2.4972 0.9640
5.9932 5.9871 -2.3982 0.9654
4.2038 7.3787 -2.4041 0.9653
3.5311 7.7299 -2.4058 0.9653
2.8290 8.0193 -2.4073 0.9653
2.1033 8.2445 -2.4087 0.9652
1.3600 8.4035 -2.4099 0.9652
0.6049 8.4949 -2.4109 0.9652
-0.8736 8.0864 -2.3025 0.9668
-1.5825 7.9298 -2.2892 0.9669
-2.2926 7.7868 -2.2980 0.9668
-5.6982 6.3279 -2.4106 0.9652
-6.2373 5.7916 -2.4096 0.9652
-6.7258 5.2092 -2.4083 0.9653
-7.1595 4.5855 -2.4069 0.9653
-7.5351 3.9257 -2.4053 0.9653
-7.8496 3.2353 -2.4035 0.9653
-8.8218 0.2960 -2.4988 0.9640
-8.0444 -3.5273 -2.4866 0.9641
-7.6900 -4.2269 -2.4842 0.9642
-7.2752 -4.8915 -2.4818 0.9642
-5.4677 -6.3509 -2.3724 0.9658
-4.8752 -6.8079 -2.3705 0.9658
-4.2450 -7.2102 -2.3686 0.9658
-3.5821 -7.5549 -2.3670 0.9658
-2.1795 -8.0614 -2.3641 0.9659
-1.4507 -8.2197 -2.3629 0.9659
0.0337 -8.4217 -2.3841 0.9656
0.7849 -8.3829 -2.3835 0.9656
1.5295 -8.2780 -2.3831 0.9656
2.2619 -8.1077 -2.3829 0.9656
3.6674 -7.5772 -2.3831 0.9656
5.4939 -6.2789 -2.3619 0.9659
6.0349 -5.7660 -2.3629 0.9659
6.9712 -4.6064 -2.3654 0.9659
7.3592 -3.9685 -2.3669 0.9658
7.6894 -3.2983 -2.3686 0.9658
8.5196 -1.9634 -2.4750 0.9643
8.6683 -1.1963 -2.4772 0.9643
8.7483 -0.4185 -2.4794 0.9642
8.7590 0.3642 -2.4818 0.9642
8.6999 1.1454 -2.4842 0.9642
8.5714 1.9191 -2.4866 0.9641
8.3743 2.6789 -2.4891 0.9641
8.1099 3.4189 -2.4915 0.9641
7.7801 4.1330 -2.4940 0.9640
7.3874 4.8154 -2.4964 0.9640
6.1597 5.8121 -2.3975 0.9654
5.6214 6.3442 -2.3996 0.9654
2.3371 8.1797 -2.4083 0.9653
1.5987 8.3601 -2.4096 0.9652
0.8467 8.4731 -2.4106 0.9652
0.1168 11.3994 -3.2273 0.9537
-2.0385 4.3695 -1.3650 0.9802
-4.2775 7.3701 -2.4124 0.9652
-4.9168 6.9573 -2.4118 0.9652
-6.0706 5.9680 -2.4099 0.9652
-6.5757 5.3998 -2.4087 0.9652
-7.4218 4.1398 -2.4058 0.9653
-7.7561 3.4586 -2.4041 0.9653
-8.0428 2.7558 -2.4068 0.9653
-8.5900 2.1090 -2.5040 0.9639
-8.7363 1.3329 -2.5018 0.9639
-8.8178 -0.2408 -2.4972 0.9640
-8.6178 -1.8008 -2.4923 0.9641
-7.8098 -4.0072 -2.4849 0.9642
-6.9598 -5.3214 -2.4802 0.9642
-6.1837 -5.6704 -2.3751 0.9657
-5.6481 -6.1941 -2.3730 0.9658
-5.0686 -6.6678 -2.3711 0.9658
-4.4499 -7.0879 -2.3692 0.9658
-2.4089 -7.9975 -2.3645 0.9659
-1.6847 -8.1762 -2.3632 0.9659
0.5456 -8.4025 -2.3837 0.9656
1.2930 -8.3186 -2.3832 0.9656
2.0299 -8.1691 -2.3829 0.9656
2.7507 -7.9551 -2.3829 0.9656
3.4498 -7.6784 -2.3830 0.9656
6.8357 -4.8024 -2.3650 0.9659
7.8797 -2.8262 -2.3698 0.9658
8.7304 -0.6675 -2.4787 0.9643
8.7632 0.1143 -2.4810 0.9642
8.7264 0.8966 -2.4834 0.9642
8.6200 1.6734 -2.4858 0.9642
8.2014 3.1853 -2.4907 0.9641
7.8923 3.9083 -2.4932 0.9640
7.5194 4.6014 -2.4956 0.9640
7.0856 5.2591 -2.4980 0.9640
4.6152 7.1237 -2.4029 0.9653
3.2801 7.8419 -2.4064 0.9653
2.5689 8.1083 -2.4079 0.9653
0.4369 11.2674 -3.1921 0.9542
-0.5858 11.5690 -3.2793 0.9530
-1.8398 7.8825 -2.2915 0.9669
-4.7169 7.0953 -2.4120 0.9652
-5.3296 6.6440 -2.4112 0.9652
-6.4202 5.5859 -2.4091 0.9652
-7.3023 4.3507 -2.4063 0.9653
-7.9479 2.9791 -2.4029 0.9653
-8.5286 2.3537 -2.5046 0.9639
-8.6972 1.5819 -2.5025 0.9639
-8.8237 0.0107 -2.4979 0.9640
-8.6684 -1.5549 -2.4931 0.9641
-8.4866 -2.3200 -2.4906 0.9641
-7.1108 -5.1223 -2.4809 0.9642
-5.8240 -6.0322 -2.3737 0.9657
-5.2580 -6.5223 -2.3717 0.9658
-4.0087 -7.3417 -2.3680 0.9658
-3.3353 -7.6649 -2.3664 0.9658
-2.6363 -7.9270 -2.3649 0.9659
-1.1841 -8.2609 -2.3625 0.9659
-0.4464 -8.4117 -2.3846 0.9656
1.0554 -8.3525 -2.3833 0.9656
1.7962 -8.2239 -2.3830 0.9656
3.2294 -7.7734 -2.3829 0.9656
