ply
format ascii 1.0
element vertex 1560
property float32 x
property float32 y
property float32 z
property float32 I
end_header
8.6392 13.2059 -2.5997 0.9380
7.4351 13.9409 -2.6028 0.9380
4.6439 14.4360 -2.4982 0.9404
3.3374 14.7941 -2.4984 0.9404
-0.7476 16.1688 -2.6665 0.9365
-2.0037 14.6894 -2.4423 0.9417
-2.1825 9.5386 -1.6120 0.9611
-4.6127 14.1899 -2.4581 0.9413
-6.2124 14.5455 -2.6056 0.9379
-1.9448 3.6199 -0.6770 0.9835
-9.2126 13.9891 -2.7594 0.9344
-13.2597 13.9204 -3.1671 0.9250
-9.4501 -1.6540 -1.5805 0.9619
-10.1172 -2.7200 -1.7259 0.9584
-10.9499 -4.0217 -1.9217 0.9538
-12.0054 -5.6717 -2.1874 0.9476
-12.1005 -7.1014 -2.3114 0.9447
-11.3880 -8.1312 -2.3052 0.9449
-10.5915 -9.0932 -2.2997 0.9450
-10.1373 -10.4126 -2.3940 0.9428
-8.0982 -12.0094 -2.3862 0.9430
-6.9860 -12.6696 -2.3834 0.9430
-5.8227 -13.2317 -2.3815 0.9431
-4.6165 -13.6920 -2.3804 0.9431
-3.3758 -14.0475 -2.3801 0.9431
4.1905 -10.2036 -1.8172 0.9563
11.4801 -8.6360 -2.3666 0.9434
12.2508 -7.6054 -2.3755 0.9432
14.3643 -2.8839 -2.4136 0.9423
14.7920 1.0363 -2.4428 0.9417
12.9947 7.3842 -2.4622 0.9412
12.0379 10.0466 -2.5830 0.9384
10.1038 12.0786 -2.5942 0.9382
2.4224 14.9686 -2.4980 0.9404
-0.3052 16.6934 -2.7505 0.9346
-2.9603 14.8315 -2.4915 0.9405
-7.1988 14.3461 -2.6442 0.9370
-8.7477 14.1265 -2.7372 0.9349
-12.7667 14.1752 -3.1427 0.9256
-9.2881 -1.3596 -1.5464 0.9627
-11.6454 -5.1089 -2.0949 0.9498
-12.3049 -6.7668 -2.3134 0.9447
-9.9984 -9.7120 -2.2963 0.9451
-9.4668 -11.0014 -2.3910 0.9429
-8.4339 -11.7837 -2.3872 0.9429
-6.1913 -13.0668 -2.3820 0.9431
-2.4032 -13.6394 -2.2816 0.9454
0.0599 -13.8668 -2.2844 0.9453
3.2577 -11.6618 -1.9947 0.9521
3.9836 -10.5270 -1.8542 0.9554
4.6188 -9.5342 -1.7453 0.9580
5.1878 -8.6450 -1.6609 0.9600
5.7083 -7.8316 -1.5965 0.9615
10.3421 -9.8736 -2.3555 0.9437
11.2217 -8.9430 -2.3639 0.9435
12.0194 -7.9351 -2.3727 0.9433
12.7283 -6.8571 -2.3818 0.9431
13.8542 -4.5209 -2.4008 0.9426
14.7396 1.9477 -2.4493 0.9415
13.1832 7.0118 -2.4599 0.9413
12.5420 8.1846 -2.4672 0.9411
11.4169 10.7843 -2.5872 0.9383
9.3542 12.6912 -2.5973 0.9381
8.1959 13.4945 -2.6010 0.9380
5.5060 14.3191 -2.5273 0.9397
2.8397 14.8966 -2.4982 0.9404
1.4982 15.0839 -2.4971 0.9404
-1.2460 15.5976 -2.5777 0.9385
-2.5209 14.7677 -2.4680 0.9411
-3.8804 14.6790 -2.5013 0.9403
-5.1380 14.1724 -2.4835 0.9407
-6.7983 14.5477 -2.6453 0.9370
-10.1941 14.4042 -2.9071 0.9310
-12.6218 14.8265 -3.2077 0.9241
-11.0988 -8.5002 -2.3030 0.9449
-9.7758 -10.7387 -2.3923 0.9428
-5.3750 -13.4164 -2.3810 0.9431
-1.5617 -13.7650 -2.2822 0.9454
5.0159 -8.9136 -1.6849 0.9594
5.5499 -8.0790 -1.6147 0.9610
6.1791 -7.4673 -1.5967 0.9615
10.0516 -10.1477 -2.3530 0.9437
10.9553 -9.2423 -2.3612 0.9436
11.7793 -8.2580 -2.3699 0.9433
12.5167 -7.2011 -2.3789 0.9431
13.1608 -6.0790 -2.3882 0.9429
14.1450 -3.6720 -2.4075 0.9425
14.4749 -2.4048 -2.4173 0.9423
13.8538 5.3979 -2.4494 0.9415
12.7542 7.8242 -2.4650 0.9411
10.7492 11.4819 -2.5911 0.9382
6.0853 14.5957 -2.6051 0.9379
1.9192 15.0389 -2.4976 0.9404
-2.2276 9.4918 -1.6062 0.9612
-9.3696 14.0557 -2.7828 0.9338
-13.4577 13.9712 -3.1957 0.9244
-9.4832 -1.7144 -1.5876 0.9617
-10.1642 -2.7935 -1.7365 0.9582
-11.3406 -8.1934 -2.3048 0.9449
-10.5391 -9.1509 -2.2994 0.9450
-5.7485 -13.2634 -2.3814 0.9431
-1.9451 -13.7141 -2.2819 0.9454
-0.7139 -13.8410 -2.2832 0.9454
0.5247 -13.8623 -2.2853 0.9453
2.7426 -12.4668 -2.1029 0.9496
4.8388 -9.1903 -1.7110 0.9588
8.8396 -9.4372 -2.1302 0.9489
12.2960 -7.5387 -2.3760 0.9432
12.9699 -6.4362 -2.3853 0.9430
14.0192 -4.0603 -2.4044 0.9425
14.3838 -2.8044 -2.4142 0.9423
14.6359 -1.5157 -2.4240 0.9421
14.7720 -0.2043 -2.4338 0.9419
12.9557 7.4580 -2.4627 0.9412
12.2737 8.6093 -2.4698 0.9410
11.9835 10.1152 -2.5834 0.9384
11.0584 11.1700 -2.5894 0.9383
10.0374 12.1362 -2.5945 0.9381
7.7426 13.7676 -2.6021 0.9380
6.4891 14.4170 -2.6045 0.9379
4.9648 14.3276 -2.4980 0.9404
-1.7104 15.0420 -2.4940 0.9405
-4.3232 14.3847 -2.4744 0.9409
-5.7685 14.3875 -2.5536 0.9391
-7.2698 14.2879 -2.6409 0.9371
-8.8398 14.0988 -2.7414 0.9348
-11.2889 14.8685 -3.0754 0.9271
-12.7891 14.0415 -3.1289 0.9259
-9.3200 -1.4174 -1.5530 0.9625
-10.7244 -3.6692 -1.8673 0.9551
-11.7149 -5.2176 -2.1127 0.9493
-12.2647 -6.8342 -2.3130 0.9447
-9.9428 -9.7664 -2.2960 0.9451
-9.4042 -11.0528 -2.3907 0.9429
-7.2691 -12.5135 -2.3841 0.9430
-4.9217 -13.5866 -2.3806 0.9431
-2.3269 -13.6529 -2.2816 0.9454
-1.0999 -13.8127 -2.2827 0.9454
0.1373 -13.8671 -2.2846 0.9453
2.4633 -12.9035 -2.1641 0.9481
3.3062 -11.5858 -1.9848 0.9523
4.0257 -10.4613 -1.8466 0.9556
5.2216 -8.5922 -1.6563 0.9601
5.7395 -7.7828 -1.5931 0.9616
12.7695 -6.7875 -2.3824 0.9431
13.3770 -5.6431 -2.3918 0.9428
14.7969 0.7050 -2.4404 0.9417
14.5466 3.3496 -2.4591 0.9413
13.1463 7.0867 -2.4603 0.9413
12.4984 8.2560 -2.4676 0.9411
10.3662 11.8444 -2.5930 0.9382
9.2842 12.7445 -2.5975 0.9381
8.1211 13.5411 -2.6012 0.9380
6.8874 14.2267 -2.6039 0.9379
5.3622 14.1815 -2.4977 0.9404
4.0766 14.6077 -2.4984 0.9404
2.7564 14.9119 -2.4982 0.9404
1.4140 15.0914 -2.4970 0.9404
-2.5316 14.3465 -2.7382 0.9424
-3.8378 14.1966 -2.7642 0.9419
-5.0672 13.7369 -2.7521 0.9421
-6.6074 13.9354 -2.8988 0.9392
-7.7850 13.2227 -2.8841 0.9395
-9.6481 13.4725 -3.1147 0.9348
-11.1921 12.9994 -3.2242 0.9326
-8.5736 -0.2886 -1.6124 0.9657
-9.0959 -1.1245 -1.7227 0.9634
-10.4588 -3.2551 -2.0588 0.9564
-11.3773 -4.6912 -2.3131 0.9511
-10.9621 -5.7132 -2.3235 0.9509
-9.7258 -7.5353 -2.3126 0.9512
-8.9966 -8.3565 -2.3079 0.9513
-8.5551 -9.5040 -2.4035 0.9493
-5.7119 -11.3904 -2.3951 0.9495
-3.5929 -12.2137 -2.3930 0.9495
0.8715 -12.1950 -2.2980 0.9515
1.9587 -12.0833 -2.3008 0.9514
3.8121 -10.7963 -2.1521 0.9545
4.4673 -9.7721 -2.0196 0.9572
6.3351 -7.5693 -1.8553 0.9606
11.0243 -6.2607 -2.3830 0.9497
12.0450 -4.2304 -2.3996 0.9494
12.9456 0.2548 -2.4337 0.9487
12.7801 2.5694 -2.4502 0.9483
11.6356 5.8591 -2.4487 0.9484
11.0957 6.8924 -2.4552 0.9482
10.9146 8.2151 -2.5677 0.9459
9.3183 10.0655 -2.5782 0.9457
7.4022 11.5957 -2.5858 0.9455
6.3442 12.2223 -2.5884 0.9455
5.2317 12.7484 -2.5901 0.9455
2.7638 12.9221 -2.4838 0.9476
1.5991 13.1132 -2.4830 0.9477
-0.8868 15.4384 -2.9066 0.9390
-2.1117 14.2873 -2.7146 0.9429
-4.6176 13.6833 -2.7144 0.9429
-1.9752 3.5799 -0.7685 0.9835
-9.1071 13.4980 -3.0606 0.9359
-10.6597 13.1039 -3.1751 0.9336
-12.8571 13.1993 -3.4634 0.9277
-9.5117 -1.7745 -1.8187 0.9614
-11.0667 -4.2055 -2.2252 0.9530
-9.9392 -7.2658 -2.3141 0.9511
-7.9472 -10.0010 -2.4010 0.9493
-3.9328 -12.1093 -2.3931 0.9495
-2.8362 -12.4110 -2.3929 0.9495
-1.6464 -12.0939 -2.2941 0.9515
-0.5609 -12.1991 -2.2954 0.9515
1.6199 -12.1283 -2.2999 0.9514
2.6996 -11.9522 -2.3031 0.9514
3.5887 -11.1455 -2.2008 0.9535
5.4209 -8.2816 -1.8605 0.9605
5.9246 -7.4945 -1.7957 0.9619
9.4338 -8.3265 -2.3651 0.9501
10.1715 -7.4751 -2.3726 0.9499
10.8338 -6.5592 -2.3805 0.9498
12.3119 -3.4915 -2.4054 0.9492
12.9336 -0.1066 -2.4311 0.9487
12.9361 1.0516 -2.4395 0.9485
11.2747 6.5746 -2.4532 0.9483
10.8309 7.6879 -2.4965 0.9474
10.4054 8.8832 -2.5716 0.9458
7.7202 11.3802 -2.5848 0.9456
6.6811 12.0370 -2.5876 0.9455
4.2564 12.5086 -2.4835 0.9476
0.7906 13.1815 -2.4820 0.9477
-0.4687 15.9090 -2.9916 0.9373
-4.2671 13.9158 -2.7358 0.9425
-3.2220 7.9081 -1.6051 0.9658
-10.1863 13.2618 -3.1432 0.9342
-11.8411 12.8557 -3.2852 0.9313
-8.5946 0.1909 -1.6159 0.9656
-8.7531 -0.5887 -1.6490 0.9649
-9.9784 -2.5041 -1.9337 0.9590
-10.7786 -3.7551 -2.1454 0.9546
-11.2826 -5.1009 -2.3274 0.9509
-10.7543 -6.0715 -2.3213 0.9510
-10.1453 -6.9903 -2.3157 0.9511
-9.4606 -7.8508 -2.3108 0.9512
-7.3116 -10.4606 -2.3989 0.9494
-6.3421 -11.0595 -2.3963 0.9494
-2.0653 -12.5402 -2.3888 0.9496
0.1893 -12.2171 -2.2966 0.9515
1.2801 -12.1641 -2.2990 0.9514
3.3547 -11.5113 -2.2537 0.9524
4.0677 -10.3968 -2.0984 0.9556
4.6934 -9.4187 -1.9780 0.9581
5.2555 -8.5402 -1.8848 0.9600
10.6353 -6.8520 -2.3780 0.9498
11.2423 -5.8954 -2.3860 0.9496
11.7642 -4.8855 -2.3943 0.9495
12.1961 -3.8296 -2.4028 0.9493
12.9466 0.6893 -2.4369 0.9486
12.5793 2.9707 -2.4295 0.9488
12.3025 4.0943 -2.4371 0.9486
11.9235 5.1913 -2.4444 0.9484
11.4444 6.2521 -2.4512 0.9483
10.8687 7.2671 -2.4575 0.9482
10.6422 8.5834 -2.5699 0.9459
8.9816 10.3787 -2.5798 0.9457
5.9329 12.4317 -2.5891 0.9455
4.8025 12.9188 -2.5906 0.9454
2.3291 13.0065 -2.4836 0.9476
1.1586 13.1568 -2.4825 0.9477
-0.0251 16.4144 -3.0853 0.9354
-1.3577 14.8973 -2.8117 0.9409
-5.1666 13.7691 -2.7643 0.9419
-6.6766 13.8807 -2.8952 0.9392
-7.9016 13.2511 -2.8999 0.9391
-9.7378 13.4386 -3.1194 0.9347
-11.2995 12.9768 -3.2342 0.9324
-11.4305 -4.7879 -2.3294 0.9508
-10.9283 -5.7734 -2.3231 0.9509
-9.0257 -8.4779 -2.3275 0.9508
-8.5011 -9.5507 -2.4033 0.9493
-7.6038 -10.2563 -2.3998 0.9494
-5.6480 -11.4215 -2.3949 0.9495
-4.6035 -11.8733 -2.3936 0.9495
-2.4189 -12.4997 -2.3930 0.9495
0.9397 -12.1908 -2.2982 0.9515
2.0264 -12.0732 -2.3010 0.9514
3.1004 -11.8622 -2.3045 0.9513
4.5057 -9.7121 -2.0124 0.9574
5.0856 -8.8058 -1.9113 0.9595
5.6140 -7.9798 -1.8339 0.9611
8.9372 -8.8233 -2.3606 0.9502
9.7189 -8.0152 -2.3679 0.9500
10.4290 -7.1389 -2.3755 0.9499
11.0615 -6.2004 -2.3835 0.9497
11.6105 -5.2064 -2.3917 0.9495
12.0711 -4.1641 -2.4001 0.9494
12.7090 -1.9657 -2.4172 0.9490
12.8793 -0.8266 -2.4258 0.9488
12.9468 0.3272 -2.4343 0.9487
12.4001 3.7456 -2.4347 0.9486
12.0528 4.8519 -2.4421 0.9485
11.6047 5.9250 -2.4491 0.9483
10.8701 8.2771 -2.5680 0.9459
10.1099 9.2340 -2.5736 0.9458
8.3363 10.9222 -2.5826 0.9456
5.1606 12.7779 -2.5902 0.9455
3.8353 12.6453 -2.4837 0.9476
2.6915 12.9372 -2.4838 0.9476
1.5258 13.1216 -2.4830 0.9477
0.3485 13.1968 -2.4813 0.9477
-2.1951 14.2992 -2.7192 0.9428
-4.6869 13.6369 -2.7104 0.9430
-9.2584 13.5584 -3.0859 0.9354
-13.0898 13.2890 -3.5061 0.9269
-8.5852 -0.0971 -1.6138 0.9657
-9.5519 -1.8373 -1.8283 0.9612
-10.5351 -6.4225 -2.3191 0.9510
-9.8971 -7.3201 -2.3138 0.9511
-7.8906 -10.0443 -2.4008 0.9493
-6.9540 -10.6950 -2.3978 0.9494
-5.9661 -11.2621 -2.3955 0.9495
-3.8650 -12.1309 -2.3931 0.9495
-2.7669 -12.4267 -2.3929 0.9495
1.6877 -12.1200 -2.3001 0.9514
2.7666 -11.9381 -2.3034 0.9513
3.6341 -11.0745 -2.1908 0.9537
4.9107 -9.0792 -1.9401 0.9589
8.6793 -9.0609 -2.3584 0.9502
9.4820 -8.2753 -2.3655 0.9501
10.2152 -7.4197 -2.3731 0.9499
10.8725 -6.5000 -2.3810 0.9497
11.4482 -5.5226 -2.3891 0.9496
11.9370 -4.4945 -2.3975 0.9494
12.6351 -2.3173 -2.4145 0.9491
12.9368 -0.0344 -2.4316 0.9487
12.9328 1.1241 -2.4400 0.9485
11.2397 6.6385 -2.4536 0.9483
10.9306 7.8508 -2.5296 0.9467
10.3571 8.9424 -2.5719 0.9458
9.5365 9.8504 -2.5770 0.9457
8.6340 10.6802 -2.5814 0.9456
6.6142 12.0749 -2.5878 0.9455
5.5144 12.6266 -2.5898 0.9455
3.0518 12.8575 -2.4838 0.9476
1.8918 13.0756 -2.4833 0.9476
-3.1213 14.3788 -2.7656 0.9419
-8.6270 13.4238 -2.9993 0.9371
-11.9764 12.8577 -3.3027 0.9310
-10.0239 -2.5751 -1.9453 0.9588
-10.8346 -3.8426 -2.1608 0.9543
-11.2521 -5.1629 -2.3270 0.9509
-10.7185 -6.1305 -2.3209 0.9510
-10.1046 -7.0459 -2.3154 0.9511
-6.2799 -11.0941 -2.3962 0.9494
-5.2608 -11.6015 -2.3943 0.9495
-4.2026 -12.0192 -2.3933 0.9495
-3.1127 -12.3444 -2.3929 0.9495
-1.9695 -12.3898 -2.3580 0.9502
-0.8331 -12.1816 -2.2950 0.9515
0.2575 -12.2166 -2.2967 0.9515
1.3482 -12.1577 -2.2992 0.9514
2.4310 -12.0050 -2.3023 0.9514
4.1090 -10.3321 -2.0900 0.9558
4.7302 -9.3612 -1.9714 0.9582
5.2889 -8.4879 -1.8798 0.9601
9.9939 -7.6942 -2.3707 0.9500
11.2774 -5.8338 -2.3865 0.9496
12.2200 -3.7623 -2.4033 0.9493
12.9453 0.7617 -2.4374 0.9486
12.5650 3.0415 -2.4299 0.9487
12.2818 4.1638 -2.4376 0.9486
11.8965 5.2587 -2.4448 0.9484
9.8021 9.5746 -2.5755 0.9458
7.9698 11.2012 -2.5839 0.9456
6.9467 11.8818 -2.5870 0.9455
5.8636 12.4651 -2.5892 0.9455
-0.1160 16.3111 -3.0659 0.9358
-2.5387 8.9912 -1.7561 0.9627
-3.0943 8.1084 -1.6313 0.9653
-6.7456 13.8258 -2.8915 0.9393
-8.0194 13.2796 -2.9159 0.9388
-9.8275 13.4042 -3.1241 0.9346
-8.5956 0.3832 -1.6172 0.9656
-9.1683 -1.2376 -1.7389 0.9630
-10.5625 -3.4172 -2.0866 0.9558
-11.4016 -4.8509 -2.3289 0.9508
-10.8942 -5.8335 -2.3228 0.9509
-10.3048 -6.7658 -2.3171 0.9511
-8.4468 -9.5970 -2.4030 0.9493
-5.5838 -11.4524 -2.3948 0.9495
-3.4562 -12.2529 -2.3929 0.9495
-0.0837 -12.2157 -2.2961 0.9515
1.0078 -12.1862 -2.2983 0.9515
2.0939 -12.0628 -2.3012 0.9514
3.1592 -11.8169 -2.2991 0.9514
5.1199 -8.7520 -1.9059 0.9596
8.1452 -9.5141 -2.3541 0.9503
8.9881 -8.7749 -2.3610 0.9502
11.6420 -5.1426 -2.3922 0.9495
12.0968 -4.0975 -2.4006 0.9493
12.4584 -3.0123 -2.4092 0.9492
12.7226 -1.8951 -2.4177 0.9490
12.8865 -0.7549 -2.4263 0.9488
12.9476 0.3996 -2.4348 0.9486
12.9042 1.5587 -2.4431 0.9485
12.7558 2.7131 -2.4512 0.9483
11.5734 5.9908 -2.4495 0.9483
11.0215 7.0181 -2.4559 0.9482
10.8253 8.3388 -2.5684 0.9459
9.2073 10.1711 -2.5787 0.9457
8.2759 10.9696 -2.5828 0.9456
7.2733 11.6793 -2.5861 0.9455
6.2080 12.2937 -2.5886 0.9455
0.2747 13.1979 -2.4812 0.9477
-1.0473 15.2546 -2.8740 0.9397
-3.5934 14.2349 -2.7595 0.9420
-10.8717 13.0637 -3.1945 0.9332
-13.3279 13.3804 -3.5498 0.9260
-8.5827 -0.1450 -1.6134 0.9657
-8.9899 -0.9587 -1.6993 0.9639
-9.5924 -1.9007 -1.8381 0.9610
-10.3083 -3.0198 -2.0190 0.9572
-11.1881 -4.3953 -2.2594 0.9523
-9.8547 -7.3743 -2.3135 0.9511
-4.8681 -11.7688 -2.3939 0.9495
4.3506 -9.9546 -2.0420 0.9567
4.9460 -9.0238 -1.9342 0.9590
5.4859 -8.1801 -1.8513 0.9607
8.7314 -9.0140 -2.3588 0.9502
9.5299 -8.2238 -2.3660 0.9501
10.2586 -7.3640 -2.3736 0.9499
10.9109 -6.4405 -2.3815 0.9497
11.4814 -5.4597 -2.3896 0.9496
12.3557 -3.3552 -2.4065 0.9492
12.8463 -1.1131 -2.4236 0.9489
12.9291 1.1966 -2.4405 0.9485
12.4709 3.4650 -2.4328 0.9487
11.2042 6.7023 -2.4540 0.9482
11.0411 8.0241 -2.5655 0.9460
10.3083 9.0012 -2.5723 0.9458
8.5750 10.7292 -2.5816 0.9456
6.5471 12.1123 -2.5879 0.9455
5.4441 12.6577 -2.5899 0.9455
4.1166 12.5558 -2.4836 0.9476
2.9800 12.8742 -2.4838 0.9476
1.8187 13.0857 -2.4832 0.9476
-3.1933 14.3239 -2.7584 0.9420
-3.2844 7.8104 -1.5926 0.9661
-8.7524 13.4529 -3.0167 0.9368
-10.3657 13.1878 -3.1528 0.9340
-12.1894 12.9407 -3.3415 0.9302
-8.8193 -0.6922 -1.6628 0.9646
-9.3938 -1.5901 -1.7908 0.9620
-10.8913 -3.9313 -2.1764 0.9540
-11.2212 -5.2248 -2.3266 0.9509
-10.6825 -6.1893 -2.3206 0.9510
-10.0637 -7.1012 -2.3151 0.9511
-9.3699 -7.9540 -2.3102 0.9512
-8.9786 -9.1200 -2.4055 0.9492
-6.2175 -11.1284 -2.3960 0.9494
-4.1353 -12.0423 -2.3932 0.9495
-3.0437 -12.3616 -2.3929 0.9495
-1.8774 -12.2512 -2.3296 0.9508
2.4983 -11.9923 -2.3025 0.9514
3.4496 -11.3629 -2.2320 0.9528
4.1501 -10.2679 -2.0816 0.9559
5.3222 -8.4359 -1.8748 0.9602
5.8328 -7.6380 -1.8064 0.9616
8.4685 -9.2458 -2.3566 0.9503
10.7156 -6.7356 -2.3790 0.9498
11.3123 -5.7719 -2.3870 0.9496
12.2436 -3.6948 -2.4038 0.9493
12.7960 -1.4698 -2.4210 0.9489
12.9216 -0.3231 -2.4295 0.9488
12.5504 3.1123 -2.4304 0.9487
12.2607 4.2331 -2.4380 0.9486
11.3777 6.3816 -2.4520 0.9483
9.7496 9.6304 -2.5758 0.9458
7.9079 11.2465 -2.5842 0.9456
6.8806 11.9212 -2.5872 0.9455
5.7942 12.4983 -2.5894 0.9455
3.3383 12.7861 -2.4838 0.9476
-1.1447 11.1775 -2.1119 0.9553
-2.7870 14.3812 -2.7534 0.9421
-4.0537 14.0560 -2.7497 0.9422
-8.5958 0.3351 -1.6169 0.9656
-8.6558 -0.4366 -1.6290 0.9653
-9.2049 -1.2949 -1.7472 0.9629
-9.8454 -2.2961 -1.9002 0.9597
-10.8597 -5.8933 -2.3224 0.9510
-10.2654 -6.8223 -2.3167 0.9511
-8.3922 -9.6431 -2.4028 0.9493
-7.4876 -10.3390 -2.3994 0.9494
-6.5277 -10.9536 -2.3967 0.9494
-5.5196 -11.4829 -2.3947 0.9495
-3.3878 -12.2719 -2.3929 0.9495
-2.2792 -12.5263 -2.3931 0.9495
-1.1048 -12.1582 -2.2947 0.9515
3.2088 -11.7394 -2.2875 0.9517
4.5816 -9.5935 -1.9983 0.9577
5.6772 -7.8811 -1.8257 0.9612
7.3808 -8.5243 -2.1194 0.9551
11.1348 -6.0791 -2.3845 0.9497
11.6731 -5.0786 -2.3927 0.9495
12.7358 -1.8245 -2.4183 0.9490
12.8934 -0.6830 -2.4268 0.9488
12.9479 0.4719 -2.4353 0.9486
12.8980 1.6311 -2.4436 0.9485
12.7430 2.7848 -2.4517 0.9483
12.3623 3.8854 -2.4357 0.9486
12.0023 4.9881 -2.4430 0.9485
11.5418 6.0564 -2.4499 0.9483
10.0086 9.3487 -2.5742 0.9458
9.1513 10.2235 -2.5790 0.9457
7.2084 11.7206 -2.5863 0.9455
6.1395 12.3288 -2.5888 0.9455
3.6939 12.6876 -2.4838 0.9476
2.5468 12.9662 -2.4837 0.9476
0.2010 13.1985 -2.4811 0.9477
-0.8621 11.6071 -2.1877 0.9537
-1.6985 10.2961 -1.9615 0.9584
-3.6824 14.2515 -2.7667 0.9419
-6.4682 14.0450 -2.9064 0.9390
-7.5549 13.1663 -2.8532 0.9401
-13.7761 13.6767 -3.6487 0.9240
-8.5799 -0.1928 -1.6131 0.9657
-9.0249 -1.0135 -1.7070 0.9637
-9.6334 -1.9648 -1.8480 0.9608
-11.2502 -4.4924 -2.2769 0.9519
-9.8120 -7.4282 -2.3132 0.9511
-9.1206 -8.2839 -2.3159 0.9511
-8.6625 -9.4097 -2.4040 0.9493
-7.7766 -10.1301 -2.4004 0.9494
-6.8332 -10.7705 -2.3975 0.9494
-5.8394 -11.3269 -2.3953 0.9495
-4.8022 -11.7954 -2.3938 0.9495
-3.7292 -12.1730 -2.3930 0.9495
-2.6280 -12.4570 -2.3930 0.9495
-0.3565 -12.2084 -2.2957 0.9515
0.7351 -12.2024 -2.2977 0.9515
1.8233 -12.1024 -2.3004 0.9514
2.9003 -11.9088 -2.3038 0.9513
3.7239 -10.9342 -2.1711 0.9541
4.9812 -8.9688 -1.9283 0.9591
5.5182 -8.1297 -1.8468 0.9608
10.3016 -7.3081 -2.3741 0.9499
10.9491 -6.3808 -2.3820 0.9497
12.6659 -2.1769 -2.4156 0.9490
12.8551 -1.0417 -2.4242 0.9489
12.9421 0.1101 -2.4327 0.9487
12.4538 3.5353 -2.4333 0.9487
11.6963 5.7268 -2.4478 0.9484
11.0026 8.0902 -2.5669 0.9459
6.4796 12.1494 -2.5881 0.9455
5.3734 12.6884 -2.5900 0.9455
1.7456 13.0953 -2.4832 0.9477
-0.7222 15.6185 -2.9388 0.9383
-3.2648 14.2691 -2.7513 0.9422
-1.9445 3.6193 -0.7723 0.9834
-12.4070 13.0253 -3.3812 0.9294
-8.5911 0.0468 -1.6148 0.9656
-9.4327 -1.6510 -1.7999 0.9618
-10.9489 -4.0214 -2.1924 0.9536
-11.1900 -5.2865 -2.3262 0.9509
-9.3242 -8.0052 -2.3099 0.9512
-6.1549 -11.1623 -2.3959 0.9494
-1.7889 -12.1251 -2.3037 0.9513
2.5654 -11.9793 -2.3027 0.9514
3.4964 -11.2898 -2.2215 0.9530
4.1908 -10.2043 -2.0735 0.9561
5.3552 -8.3843 -1.8699 0.9603
5.8635 -7.5900 -1.8027 0.9617
10.0833 -7.5852 -2.3716 0.9499
10.7553 -6.6770 -2.3795 0.9498
11.8522 -4.6908 -2.3959 0.9494
12.2667 -3.6272 -2.4043 0.9493
12.5862 -2.5270 -2.4129 0.9491
12.9260 -0.2509 -2.4300 0.9487
12.9415 0.9066 -2.4385 0.9486
12.5353 3.1830 -2.4309 0.9487
12.2392 4.3024 -2.4385 0.9486
11.8412 5.3932 -2.4457 0.9484
11.3438 6.4461 -2.4524 0.9483
10.7503 7.4515 -2.4586 0.9482
10.5012 8.7641 -2.5709 0.9459
9.6969 9.6858 -2.5761 0.9457
8.8091 10.5309 -2.5806 0.9457
7.8455 11.2914 -2.5844 0.9456
4.4822 12.7047 -2.5322 0.9466
2.1107 13.0430 -2.4835 0.9476
0.9380 13.1729 -2.4823 0.9477
-0.2305 12.6094 -2.3705 0.9500
-2.8727 14.3927 -2.7586 0.9420
-4.1252 14.0092 -2.7450 0.9423
-3.1587 8.0075 -1.6180 0.9656
-8.2588 13.3369 -2.9485 0.9381
-10.0069 13.3340 -3.1336 0.9344
-11.6234 12.9059 -3.2646 0.9317
-8.5957 0.2870 -1.6165 0.9656
-9.2420 -1.3528 -1.7556 0.9627
-9.8892 -2.3646 -1.9112 0.9595
-10.6690 -3.5838 -2.1155 0.9552
-11.3428 -4.9762 -2.3281 0.9508
-10.8249 -5.9529 -2.3220 0.9510
-8.3374 -9.6889 -2.4026 0.9493
-7.4291 -10.3799 -2.3992 0.9494
-6.4661 -10.9892 -2.3966 0.9494
-5.4551 -11.5131 -2.3946 0.9495
-3.3191 -12.2906 -2.3929 0.9495
-2.2093 -12.5390 -2.3931 0.9495
-1.0370 -12.1646 -2.2948 0.9515
1.1440 -12.1759 -2.2987 0.9514
2.2289 -12.0407 -2.3016 0.9514
3.2579 -11.6626 -2.2760 0.9519
4.6191 -9.5348 -1.9914 0.9578
9.0890 -8.6772 -2.3619 0.9501
9.8577 -7.8559 -2.3693 0.9500
10.5537 -6.9675 -2.3770 0.9498
11.1709 -6.0181 -2.3850 0.9497
12.4968 -2.8742 -2.4102 0.9491
12.3428 3.9551 -2.4362 0.9486
9.9575 9.4057 -2.5746 0.9458
8.1543 11.0633 -2.5833 0.9456
7.1433 11.7614 -2.5865 0.9455
6.0708 12.3635 -2.5889 0.9455
4.9463 12.8637 -2.5904 0.9455
1.3055 13.1440 -2.4827 0.9477
0.1273 13.1987 -2.4810 0.9477
-2.4471 14.3347 -2.7334 0.9425
-3.7653 14.2436 -2.7692 0.9418
-7.6693 13.1945 -2.8686 0.9398
-9.5584 13.5059 -3.1100 0.9349
-14.0190 13.7633 -3.6927 0.9232
-11.3132 -4.5909 -2.2949 0.9515
-10.9957 -5.6528 -2.3239 0.9509
-9.7691 -7.4818 -2.3129 0.9512
-7.7192 -10.1725 -2.4002 0.9494
-2.5584 -12.4716 -2.3930 0.9495
-0.2883 -12.2108 -2.2958 0.9515
0.8033 -12.1989 -2.2979 0.9515
1.8911 -12.0930 -2.3006 0.9514
3.7682 -10.8649 -2.1615 0.9543
5.0162 -8.9141 -1.9226 0.9592
5.5503 -8.0795 -1.8424 0.9609
6.1824 -7.4713 -1.8228 0.9613
9.6250 -8.1200 -2.3669 0.9500
10.9868 -6.3209 -2.3825 0.9497
11.5466 -5.3334 -2.3907 0.9496
12.0186 -4.2967 -2.3990 0.9494
12.6806 -2.1067 -2.4161 0.9490
12.8635 -0.9700 -2.4247 0.9489
12.9441 0.1825 -2.4332 0.9487
12.9204 1.3414 -2.4416 0.9485
12.4363 3.6054 -2.4338 0.9487
12.1018 4.7153 -2.4412 0.9485
10.9587 8.1528 -2.5673 0.9459
10.2098 9.1182 -2.5729 0.9458
9.3733 10.0122 -2.5779 0.9457
8.4563 10.8264 -2.5821 0.9456
7.4663 11.5533 -2.5856 0.9456
6.4120 12.1860 -2.5882 0.9455
5.3027 12.7186 -2.5901 0.9455
0.4959 13.1934 -2.4816 0.9477
-2.0285 14.2752 -2.7101 0.9430
-9.0069 13.5117 -3.0522 0.9360
-10.5542 13.1232 -3.1654 0.9338
-12.6293 13.1114 -3.4218 0.9286
-8.5894 -0.0011 -1.6145 0.9656
-11.0073 -4.1127 -2.2086 0.9533
-11.1584 -5.3480 -2.3258 0.9509
-9.9810 -7.2111 -2.3144 0.9511
-9.2782 -8.0561 -2.3096 0.9512
-8.8743 -9.2177 -2.4050 0.9493
-8.0037 -9.9573 -2.4012 0.9493
-7.0740 -10.6182 -2.3982 0.9494
-1.7140 -12.0842 -2.2941 0.9515
2.6325 -11.9660 -2.3029 0.9514
3.5427 -11.2174 -2.2111 0.9533
4.8392 -9.1909 -1.9523 0.9586
5.3882 -8.3328 -1.8652 0.9604
8.5744 -9.1540 -2.3575 0.9502
9.3853 -8.3775 -2.3646 0.9501
10.1276 -7.5303 -2.3721 0.9499
12.8173 -1.3274 -2.4220 0.9489
12.9300 -0.1788 -2.4306 0.9487
12.9390 0.9792 -2.4390 0.9486
10.7422 7.5350 -2.4663 0.9480
10.4535 8.8237 -2.5712 0.9458
6.7479 11.9988 -2.5875 0.9455
4.3261 12.4844 -2.4835 0.9476
3.1953 12.8226 -2.4838 0.9476
-1.6549 14.5531 -2.7531 0.9421
-3.1905 7.9576 -1.6115 0.9657
-6.9510 13.6613 -2.8811 0.9395
-8.3802 13.3657 -2.9652 0.9378
-10.0966 13.2982 -3.1383 0.9343
-11.7322 12.8810 -3.2749 0.9315
-8.5953 0.2390 -1.6162 0.9656
-8.7204 -0.5375 -1.6422 0.9651
-9.2794 -1.4112 -1.7642 0.9625
-9.9336 -2.4340 -1.9224 0.9592
-10.7897 -6.0123 -2.3216 0.9510
-10.1856 -6.9345 -2.3161 0.9511
-9.1332 -8.9712 -2.4063 0.9492
-8.2824 -9.7344 -2.4023 0.9493
-5.3905 -11.5429 -2.3945 0.9495
-4.3368 -11.9720 -2.3934 0.9495
-3.2504 -12.3089 -2.3929 0.9495
-2.1392 -12.5514 -2.3932 0.9495
-0.9691 -12.1706 -2.2948 0.9515
1.2121 -12.1702 -2.2988 0.9514
2.2963 -12.0292 -2.3018 0.9514
4.6564 -9.4766 -1.9846 0.9579
5.2219 -8.5927 -1.8899 0.9599
5.7398 -7.7833 -1.8177 0.9614
7.7748 -8.7794 -2.2042 0.9534
9.1390 -8.6280 -2.3624 0.9501
9.9034 -7.8023 -2.3697 0.9500
10.5947 -6.9098 -2.3775 0.9498
11.7341 -4.9501 -2.3938 0.9495
12.7611 -1.6829 -2.4194 0.9490
12.9474 0.6168 -2.4364 0.9486
12.7162 2.9281 -2.4527 0.9483
11.4773 6.1870 -2.4508 0.9483
10.6886 8.5226 -2.5695 0.9459
8.0932 11.1096 -2.5835 0.9456
7.0781 11.8019 -2.5867 0.9455
4.8745 12.8915 -2.5905 0.9454
3.5521 12.7282 -2.4838 0.9476
0.0474 11.6842 -2.4698 0.9534
-3.6087 13.3490 -2.9230 0.9450
-4.9033 13.2927 -2.9949 0.9437
-3.5345 7.4546 -1.7439 0.9668
-7.3646 12.5088 -3.0684 0.9424
-4.3718 6.1048 -1.5872 0.9698
-9.9604 11.5688 -3.2269 0.9395
-12.4181 12.0560 -3.6585 0.9317
-8.0874 0.4511 -1.7122 0.9674
-8.5603 -0.2881 -1.8105 0.9656
-9.0953 -1.1244 -1.9372 0.9632
-9.7160 -2.0949 -2.1010 0.9602
-10.4579 -3.2548 -2.3152 0.9562
-8.6775 -6.7231 -2.3204 0.9561
-7.6361 -8.4830 -2.4126 0.9544
-4.1700 -10.5796 -2.4038 0.9546
-3.2085 -10.9067 -2.4031 0.9546
-2.2224 -11.1498 -2.4032 0.9546
-1.2065 -11.1926 -2.3796 0.9550
-0.1965 -10.9048 -2.3054 0.9564
0.7781 -10.8878 -2.3073 0.9564
2.7078 -10.6018 -2.3129 0.9563
5.0513 -8.8604 -2.1559 0.9592
5.5826 -8.0300 -2.0673 0.9608
7.9191 -7.9060 -2.3654 0.9553
9.2502 -6.4081 -2.3787 0.9550
9.8143 -5.5736 -2.3857 0.9549
10.7148 -3.7633 -2.4005 0.9546
11.0426 -2.8008 -2.4081 0.9545
11.2841 -1.8099 -2.4157 0.9544
11.3556 1.2432 -2.4147 0.9544
10.7111 4.2425 -2.4353 0.9540
8.2528 8.9145 -2.5679 0.9515
7.4350 9.6293 -2.5716 0.9515
6.5536 10.2663 -2.5746 0.9514
5.6163 10.8199 -2.5769 0.9514
3.4572 11.1737 -2.4724 0.9533
1.4154 11.6075 -2.4718 0.9533
-2.0515 13.8797 -2.9658 0.9443
-5.7765 13.1171 -3.0297 0.9431
-1.9748 3.5791 -0.8641 0.9834
-4.2489 6.2975 -1.6058 0.9694
-8.4067 -0.0481 -1.7770 0.9662
-8.9202 -0.8507 -1.8941 0.9640
-9.4298 -5.6767 -2.3266 0.9560
-8.2380 -7.2342 -2.3175 0.9562
-7.0943 -8.9276 -2.4104 0.9544
-6.2621 -9.5143 -2.4076 0.9545
-5.3834 -10.0264 -2.4055 0.9545
-2.5327 -11.0830 -2.4031 0.9546
-1.5339 -11.2671 -2.4036 0.9546
-0.5008 -10.8928 -2.3050 0.9564
2.4097 -10.6685 -2.3119 0.9563
3.3572 -10.4266 -2.3154 0.9562
4.2716 -10.0791 -2.3140 0.9562
5.4212 -8.2821 -2.0924 0.9603
5.9250 -7.4949 -2.0195 0.9617
11.2808 1.9420 -2.4196 0.9543
10.8165 3.9385 -2.4332 0.9540
9.9939 5.8277 -2.4454 0.9538
9.2184 7.8698 -2.5621 0.9517
7.6977 9.4140 -2.5705 0.9515
5.9147 10.6562 -2.5762 0.9514
3.9305 11.5507 -2.5791 0.9513
1.7392 11.5649 -2.4721 0.9533
0.6999 11.6684 -2.4709 0.9533
-0.3440 11.6755 -2.4690 0.9534
-2.8524 13.5035 -2.9174 0.9451
-5.4236 13.3116 -3.0384 0.9429
-10.6611 11.5745 -3.3263 0.9377
-9.3164 -1.4702 -1.9937 0.9622
-9.9777 -2.5039 -2.1745 0.9588
-10.0596 -4.5479 -2.3336 0.9559
-9.5912 -5.4149 -2.3282 0.9560
-8.1053 -8.0511 -2.4149 0.9544
-7.3438 -8.7295 -2.4114 0.9544
-6.5275 -9.3387 -2.4084 0.9545
-5.6626 -9.8746 -2.4061 0.9545
-4.7555 -10.3333 -2.4045 0.9546
-3.8128 -10.7120 -2.4035 0.9546
-2.8411 -11.0078 -2.4031 0.9546
-1.8477 -11.2188 -2.4034 0.9546
-0.8046 -10.8727 -2.3045 0.9564
0.1690 -10.9083 -2.3061 0.9564
1.1429 -10.8597 -2.3082 0.9563
3.0632 -10.5111 -2.3143 0.9562
3.9957 -10.2128 -2.3181 0.9562
8.8621 -6.9020 -2.3744 0.9551
9.4701 -6.1013 -2.3813 0.9550
10.0069 -5.2476 -2.3885 0.9549
10.4675 -4.3470 -2.3958 0.9547
10.8476 -3.4062 -2.4034 0.9546
11.1434 -2.4322 -2.4110 0.9544
11.4703 -0.4150 -2.4262 0.9542
11.3202 1.6247 -2.4174 0.9543
10.9131 3.6319 -2.4312 0.9541
10.0491 6.7191 -2.5552 0.9518
8.7286 8.4313 -2.5652 0.9516
7.1115 9.8776 -2.5728 0.9515
5.2520 11.0049 -2.5775 0.9514
4.2510 11.4353 -2.5788 0.9513
2.0616 11.5128 -2.4723 0.9533
-2.5054 13.7489 -2.9541 0.9445
-2.4985 9.0413 -1.9828 0.9624
-6.2172 12.9257 -3.0319 0.9430
-7.4455 12.4862 -3.0729 0.9423
-10.0664 11.5607 -3.2403 0.9393
-7.6856 1.0791 -1.6405 0.9688
-8.5917 -0.3372 -1.8175 0.9655
-9.1313 -1.1807 -1.9462 0.9631
-10.5094 -3.3353 -2.3307 0.9559
-9.7456 -5.1486 -2.3298 0.9559
-8.6388 -6.7707 -2.3201 0.9561
-7.5879 -8.5247 -2.4124 0.9544
-5.0431 -10.1984 -2.4049 0.9546
-4.1108 -10.6024 -2.4037 0.9546
-2.1601 -11.1621 -2.4032 0.9546
-1.1312 -11.0743 -2.3531 0.9555
2.7672 -10.5875 -2.3132 0.9562
4.5060 -9.7128 -2.2633 0.9572
5.6144 -7.9803 -2.0625 0.9609
7.2122 -8.5202 -2.3596 0.9554
7.9645 -7.8629 -2.3658 0.9553
9.2875 -6.3575 -2.3791 0.9550
10.7377 -3.7041 -2.4010 0.9546
11.4986 0.2906 -2.4313 0.9541
11.3506 1.3068 -2.4151 0.9544
9.6315 7.3340 -2.5589 0.9517
8.2037 8.9614 -2.5681 0.9515
7.3816 9.6714 -2.5718 0.9515
5.5560 10.8516 -2.5770 0.9514
4.5681 11.3108 -2.5785 0.9514
2.3824 11.4514 -2.4724 0.9533
1.3506 11.6150 -2.4717 0.9533
-0.7347 11.6533 -2.4682 0.9534
-1.6058 10.4605 -2.2371 0.9577
-1.9971 3.5723 -0.8651 0.9834
-4.2737 6.2586 -1.6020 0.9695
-9.6418 11.7183 -3.2077 0.9398
-7.9768 0.6239 -1.6913 0.9678
-8.4370 -0.0954 -1.7835 0.9661
-8.9546 -0.9045 -1.9024 0.9639
-9.5511 -1.8371 -2.0559 0.9610
-10.2585 -2.9431 -2.2559 0.9573
-9.3967 -5.7284 -2.3263 0.9560
-8.3342 -7.4014 -2.3561 0.9555
-6.2085 -9.5485 -2.4075 0.9545
-5.3271 -10.0558 -2.4054 0.9545
-3.4514 -10.8328 -2.4032 0.9546
-2.4708 -11.0970 -2.4031 0.9546
-1.4709 -11.2757 -2.4037 0.9546
4.9109 -9.0797 -2.1820 0.9587
5.9554 -7.4474 -2.0157 0.9618
9.0981 -6.6083 -2.3769 0.9551
11.2320 -2.0599 -2.4138 0.9544
11.4069 -1.0526 -2.4214 0.9542
10.4229 4.9598 -2.4399 0.9539
9.9626 5.8842 -2.4458 0.9538
9.8262 7.0576 -2.5573 0.9517
9.1753 7.9220 -2.5624 0.9516
8.4465 8.7245 -2.5669 0.9516
3.8660 11.5726 -2.5791 0.9513
-4.1485 6.4550 -1.6220 0.9691
-9.2460 11.8995 -3.1854 0.9403
-10.7854 11.5791 -3.3449 0.9374
-7.8422 0.8343 -1.6670 0.9683
-8.2878 0.1378 -1.7521 0.9667
-8.7855 -0.6402 -1.8620 0.9646
-9.3546 -1.5298 -2.0036 0.9620
-9.0142 -6.2856 -2.3229 0.9561
-8.4013 -7.0514 -2.3185 0.9561
-5.6071 -9.9055 -2.4060 0.9545
-4.6976 -10.3594 -2.4044 0.9546
-3.7528 -10.7329 -2.4034 0.9546
-2.7796 -11.0235 -2.4031 0.9546
-1.7850 -11.2291 -2.4034 0.9546
-0.7439 -10.8773 -2.3046 0.9564
3.1222 -10.4948 -2.3145 0.9562
4.0531 -10.1915 -2.3184 0.9561
5.2893 -8.4885 -2.1141 0.9599
7.5008 -8.2817 -2.3619 0.9553
8.9021 -6.8536 -2.3748 0.9551
10.0380 -5.1926 -2.3889 0.9548
10.8686 -3.3462 -2.4038 0.9546
11.4956 0.6764 -2.4341 0.9540
11.1496 2.6989 -2.4249 0.9542
10.8945 3.6934 -2.4316 0.9541
10.5491 4.6631 -2.4380 0.9539
10.0128 6.7760 -2.5556 0.9518
9.3874 7.6582 -2.5608 0.9517
8.6823 8.4808 -2.5655 0.9516
4.1872 11.4592 -2.5789 0.9513
3.0180 11.3008 -2.4725 0.9533
1.9973 11.5239 -2.4722 0.9533
-0.0831 11.6828 -2.4696 0.9534
-2.5381 8.9888 -1.9743 0.9625
-3.0973 8.1162 -1.8363 0.9651
-7.5541 12.5091 -3.0889 0.9420
-10.1760 11.5557 -3.2547 0.9390
-12.8453 12.1950 -3.7440 0.9301
-7.2191 1.6391 -1.5648 0.9702
-7.7114 1.0388 -1.6448 0.9687
-8.6234 -0.3867 -1.8246 0.9653
-9.1676 -1.2375 -1.9554 0.9629
-10.5371 -3.4090 -2.3410 0.9557
-9.7153 -5.2022 -2.3295 0.9559
-9.1921 -6.0353 -2.3244 0.9560
-8.5999 -6.8180 -2.3198 0.9561
-8.2865 -7.8712 -2.4159 0.9543
-4.9859 -10.2261 -2.4048 0.9546
-4.0514 -10.6250 -2.4036 0.9546
-3.0864 -10.9417 -2.4031 0.9546
-2.0978 -11.1741 -2.4032 0.9546
-1.0588 -10.9718 -2.3300 0.9559
-0.0747 -10.9073 -2.3056 0.9564
3.7649 -10.2950 -2.3171 0.9562
5.6460 -7.9308 -2.0578 0.9610
7.2609 -8.4811 -2.3600 0.9554
8.0096 -7.8197 -2.3661 0.9553
8.6995 -7.0932 -2.3727 0.9551
9.8797 -5.4656 -2.3866 0.9549
10.3597 -4.5762 -2.3940 0.9548
11.3081 -1.6844 -2.4167 0.9543
11.4492 -0.6707 -2.4243 0.9542
11.4990 0.3549 -2.4318 0.9541
11.3452 1.3704 -2.4156 0.9544
10.6666 4.3633 -2.4360 0.9540
8.9109 8.2306 -2.5641 0.9516
4.5050 11.3364 -2.5786 0.9514
3.3323 11.2118 -2.4724 0.9533
1.2857 11.6220 -2.4716 0.9533
0.2432 11.6834 -2.4702 0.9533
-2.2136 13.9015 -2.9755 0.9441
-2.9313 8.3763 -1.8759 0.9644
-5.9161 13.0375 -3.0263 0.9431
-4.2984 6.2199 -1.5982 0.9696
-9.7208 11.6807 -3.2122 0.9398
-11.5551 11.6007 -3.4611 0.9352
-7.1022 1.8225 -1.5499 0.9705
-7.5885 1.2389 -1.6253 0.9691
-9.5917 -1.9005 -2.0669 0.9608
-10.3074 -3.0195 -2.2703 0.9570
-9.3633 -5.7801 -2.3259 0.9560
-8.7921 -6.5792 -2.3212 0.9561
-8.4521 -7.5910 -2.4014 0.9546
-6.9930 -9.0048 -2.4100 0.9545
-6.1547 -9.5824 -2.4074 0.9545
-5.2706 -10.0849 -2.4053 0.9545
-0.3791 -10.8986 -2.3051 0.9564
1.5672 -10.8120 -2.3093 0.9563
2.5291 -10.6428 -2.3123 0.9563
3.4742 -10.3906 -2.3159 0.9562
4.3509 -9.9552 -2.2965 0.9566
5.4862 -8.1806 -2.0821 0.9605
5.9856 -7.4002 -2.0119 0.9618
8.4906 -7.3269 -2.3706 0.9552
9.7141 -5.7340 -2.3844 0.9549
11.2455 -1.9976 -2.4143 0.9544
11.4149 -0.9891 -2.4219 0.9542
11.4934 0.0336 -2.4295 0.9541
11.4795 1.0624 -2.4369 0.9540
11.2626 2.0686 -2.4205 0.9543
11.0646 3.0742 -2.4274 0.9541
10.7754 4.0604 -2.4340 0.9540
10.3967 5.0187 -2.4403 0.9539
9.7879 7.1133 -2.5576 0.9517
9.1320 7.9741 -2.5627 0.9516
8.3985 8.7724 -2.5671 0.9516
7.5934 9.5010 -2.5709 0.9515
6.7234 10.1531 -2.5741 0.9514
5.7960 10.7227 -2.5765 0.9514
0.5695 11.6746 -2.4707 0.9533
-0.4743 11.6696 -2.4688 0.9534
-2.9885 13.4054 -2.9032 0.9454
-5.5654 13.2346 -3.0348 0.9430
-9.3252 11.8641 -3.1898 0.9402
-10.9108 11.5834 -3.3637 0.9370
-7.8688 0.7927 -1.6717 0.9682
-8.8187 -0.6921 -1.8698 0.9645
-8.9779 -6.3350 -2.3226 0.9561
-6.4219 -9.4098 -2.4081 0.9545
-4.6395 -10.3851 -2.4043 0.9546
-3.6927 -10.7535 -2.4034 0.9546
-2.7180 -11.0389 -2.4031 0.9546
-1.7223 -11.2391 -2.4035 0.9546
5.3225 -8.4365 -2.1085 0.9600
5.8331 -7.6384 -2.0316 0.9615
8.2755 -7.5546 -2.3686 0.9552
9.5412 -5.9974 -2.3822 0.9550
10.0687 -5.1375 -2.3894 0.9548
10.8893 -3.2861 -2.4043 0.9546
11.1743 -2.3085 -2.4119 0.9544
11.4938 0.7408 -2.4346 0.9540
11.3055 1.7517 -2.4183 0.9543
10.5245 4.7227 -2.4384 0.9539
10.0857 5.6569 -2.4444 0.9538
9.3456 7.7115 -2.5612 0.9517
7.8523 9.2812 -2.5698 0.9515
6.0914 10.5539 -2.5758 0.9514
2.9549 11.3176 -2.4725 0.9533
0.8954 11.6564 -2.4712 0.9533
-1.4595 14.2516 -3.0283 0.9431
-3.8607 13.3867 -2.9450 0.9446
-5.1921 13.3809 -3.0339 0.9430
-7.6638 12.5319 -3.1051 0.9417
-8.6553 -0.4366 -1.8319 0.9652
-9.2043 -1.2948 -1.9648 0.9627
-10.1390 -4.3807 -2.3347 0.9558
-9.6847 -5.2556 -2.3292 0.9560
-9.1571 -6.0857 -2.3241 0.9560
-8.5606 -6.8651 -2.3196 0.9561
-7.4909 -8.6074 -2.4120 0.9544
-6.6845 -9.2300 -2.4089 0.9545
-5.8282 -9.7799 -2.4065 0.9545
-4.9286 -10.2533 -2.4047 0.9546
-3.9919 -10.6472 -2.4036 0.9546
-2.0353 -11.1858 -2.4033 0.9546
-0.9879 -10.8716 -2.3075 0.9564
-0.0138 -10.9080 -2.3057 0.9564
1.9294 -10.7583 -2.3104 0.9563
2.8859 -10.5579 -2.3136 0.9562
8.7405 -7.0458 -2.3731 0.9551
11.0946 -2.6170 -2.4095 0.9545
11.3395 1.4340 -2.4160 0.9543
11.1991 2.4474 -2.4231 0.9542
10.6438 4.4235 -2.4364 0.9540
10.0604 6.4854 -2.5301 0.9522
9.5514 7.4429 -2.5596 0.9517
8.1046 9.0542 -2.5686 0.9515
5.4349 10.9140 -2.5772 0.9514
4.4417 11.3617 -2.5786 0.9513
3.2696 11.2304 -2.4724 0.9533
0.1779 11.6841 -2.4701 0.9533
-0.8620 11.6060 -2.4600 0.9535
-5.9856 12.9973 -3.0247 0.9432
-11.7738 11.6889 -3.5070 0.9344
-7.1254 1.7861 -1.5528 0.9704
-7.6091 1.1987 -1.6282 0.9690
-8.4982 -0.1910 -1.7968 0.9658
-10.2653 -4.0991 -2.3365 0.9558
-9.3296 -5.8315 -2.3256 0.9560
-8.7542 -6.6273 -2.3209 0.9561
-8.4638 -7.6873 -2.4169 0.9543
-6.9421 -9.0430 -2.4098 0.9545
-5.2139 -10.1138 -2.4052 0.9545
-3.3302 -10.8704 -2.4032 0.9546
-1.3450 -11.2920 -2.4038 0.9546
-0.3183 -10.9010 -2.3052 0.9564
1.6277 -10.8039 -2.3095 0.9563
3.5325 -10.3721 -2.3161 0.9562
4.3901 -9.8939 -2.2880 0.9567
5.5185 -8.1301 -2.0770 0.9606
6.0384 -7.3807 -2.0157 0.9618
9.1747 -6.5086 -2.3778 0.9551
11.2587 -1.9351 -2.4148 0.9544
11.4952 0.0978 -2.4299 0.9541
11.2529 2.1319 -2.4209 0.9543
11.0492 3.1365 -2.4279 0.9541
10.7543 4.1213 -2.4345 0.9540
9.7493 7.1687 -2.5580 0.9517
9.0884 8.0259 -2.5630 0.9516
8.3502 8.8200 -2.5674 0.9516
6.6670 10.1912 -2.5742 0.9514
3.6833 11.4499 -2.5424 0.9520
2.5740 11.4101 -2.4725 0.9533
1.5452 11.5916 -2.4719 0.9533
0.5042 11.6771 -2.4706 0.9533
-0.5394 11.6661 -2.4686 0.9534
-5.6359 13.1957 -3.0331 0.9430
-9.4044 11.8283 -3.1942 0.9401
-11.0374 11.5874 -3.3827 0.9367
-7.4116 1.3807 -1.5936 0.9696
-7.8956 0.7509 -1.6765 0.9681
-8.8523 -0.7446 -1.8778 0.9643
-10.1155 -2.7195 -2.2141 0.9581
-9.9775 -4.7137 -2.3326 0.9559
-9.4952 -5.5725 -2.3272 0.9560
-8.9413 -6.3842 -2.3223 0.9561
-8.3202 -7.1433 -2.3180 0.9562
-6.3689 -9.4449 -2.4080 0.9545
-5.4956 -9.9665 -2.4058 0.9545
-4.5813 -10.4105 -2.4042 0.9546
-2.6564 -11.0539 -2.4031 0.9546
-1.6596 -11.2488 -2.4035 0.9546
0.3518 -10.9056 -2.3064 0.9564
1.3249 -10.8413 -2.3087 0.9563
3.2399 -10.4614 -2.3149 0.9562
7.5953 -8.2000 -2.3626 0.9553
8.3190 -7.5096 -2.3690 0.9552
10.9096 -3.2259 -2.4048 0.9546
11.1893 -2.2465 -2.4124 0.9544
11.4824 -0.2229 -2.4276 0.9541
11.4917 0.8051 -2.4351 0.9540
11.1227 2.8243 -2.4257 0.9542
10.0554 5.7140 -2.4447 0.9538
9.3035 7.7645 -2.5615 0.9517
6.0327 10.5883 -2.5759 0.9514
2.8916 11.3339 -2.4725 0.9533
1.8683 11.5451 -2.4722 0.9533
0.8303 11.6608 -2.4711 0.9533
-0.2135 11.6800 -2.4693 0.9534
-3.9454 13.3989 -2.9525 0.9445
-6.4573 12.8683 -3.0434 0.9428
-7.7478 12.5117 -3.1108 0.9416
-7.7633 0.9577 -1.6534 0.9685
-8.2008 0.2738 -1.7344 0.9670
-8.6874 -0.4869 -1.8392 0.9651
-10.1128 -4.4366 -2.3343 0.9559
-8.1964 -7.9616 -2.4154 0.9544
-7.4421 -8.6484 -2.4118 0.9544
-5.7732 -9.8117 -2.4064 0.9545
-4.8710 -10.2803 -2.4046 0.9546
-3.9323 -10.6691 -2.4035 0.9546
-1.9729 -11.1971 -2.4033 0.9546
-0.9260 -10.8623 -2.3044 0.9564
0.0471 -10.9084 -2.3058 0.9564
1.0214 -10.8704 -2.3079 0.9563
1.9896 -10.7483 -2.3106 0.9563
4.6194 -9.5354 -2.2397 0.9576
7.3575 -8.4021 -2.3607 0.9554
9.9439 -5.3570 -2.3875 0.9549
10.4143 -4.4619 -2.3949 0.9547
10.8046 -3.5258 -2.4024 0.9546
11.1112 -2.5555 -2.4100 0.9545
11.4605 -0.5429 -2.4252 0.9542
11.4987 0.4835 -2.4327 0.9540
10.6206 4.4836 -2.4368 0.9540
10.1208 6.6046 -2.5545 0.9518
9.5108 7.4971 -2.5599 0.9517
8.0547 9.1001 -2.5689 0.9515
7.2203 9.7960 -2.5724 0.9515
4.3784 11.3866 -2.5787 0.9513
1.1557 11.6350 -2.4715 0.9533
0.1127 11.6843 -2.4699 0.9534
-0.9296 11.6371 -2.4677 0.9534
-2.3638 13.8470 -2.9693 0.9442
-4.8085 13.2635 -2.9822 0.9440
-3.4987 7.4869 -1.7469 0.9668
-4.3475 6.1430 -1.5908 0.9697
-12.1018 11.8811 -3.5848 0.9330
-7.1487 1.7496 -1.5557 0.9704
-7.6345 1.1590 -1.6323 0.9689
-9.6742 -2.0295 -2.0894 0.9604
-10.4070 -3.1753 -2.2999 0.9565
-10.2407 -4.1557 -2.3361 0.9558
-9.8053 -5.0409 -2.3305 0.9559
-8.4198 -7.7336 -2.4166 0.9543
-5.1572 -10.1423 -2.4051 0.9545
-4.2292 -10.5564 -2.4038 0.9546
-2.2846 -11.1370 -2.4032 0.9546
-1.2820 -11.2996 -2.4038 0.9546
-0.2574 -10.9031 -2.3053 0.9564
2.6483 -10.6158 -2.3127 0.9563
3.5907 -10.3533 -2.3164 0.9562
10.2756 -4.7464 -2.3926 0.9548
11.3602 1.1794 -2.4142 0.9544
11.2428 2.1950 -2.4214 0.9542
10.3432 5.1360 -2.4411 0.9539
5.6763 10.7878 -2.5767 0.9514
3.5516 11.2556 -2.4948 0.9529
2.5102 11.4242 -2.4725 0.9533
1.4803 11.5998 -2.4718 0.9533
-1.9707 13.8686 -2.9610 0.9443
-4.4183 13.3380 -2.9701 0.9442
-3.3456 7.7136 -1.7773 0.9662
-4.2240 6.3366 -1.6097 0.9693
-11.1650 11.5911 -3.4019 0.9363
-7.0331 1.9309 -1.5417 0.9706
-7.4188 1.3391 -1.5935 0.9696
-8.3767 -0.0011 -1.7707 0.9663
-8.8861 -0.7974 -1.8859 0.9642
-10.3609 -3.8712 -2.3380 0.9558
-9.9495 -4.7686 -2.3322 0.9559
-9.4626 -5.6246 -2.3269 0.9560
-7.9204 -8.2269 -2.4139 0.9544
-7.1446 -8.8885 -2.4106 0.9544
-6.3156 -9.4797 -2.4078 0.9545
-5.4396 -9.9966 -2.4057 0.9545
-4.5229 -10.4356 -2.4042 0.9546
-2.5946 -11.0686 -2.4031 0.9546
0.4127 -10.9041 -2.3066 0.9564
3.2985 -10.4441 -2.3152 0.9562
5.8945 -7.5426 -2.0235 0.9616
7.6422 -8.1588 -2.3630 0.9553
8.3623 -7.4643 -2.3694 0.9552
9.6112 -5.8927 -2.3831 0.9550
10.5702 -4.1153 -2.3977 0.9547
11.2038 -2.1844 -2.4129 0.9544
11.3900 -1.1796 -2.4205 0.9543
11.4892 0.8695 -2.4355 0.9540
10.8365 3.8774 -2.4328 0.9540
9.9018 6.9456 -2.5566 0.9518
8.5417 8.6278 -2.5663 0.9516
7.7495 9.3700 -2.5703 0.9515
5.9738 10.6224 -2.5761 0.9514
2.8283 11.3499 -2.4725 0.9533
1.8038 11.5552 -2.4721 0.9533
0.7651 11.6648 -2.4710 0.9533
-2.7838 13.5527 -2.9246 0.9450
-4.0305 13.4109 -2.9600 0.9444
-5.3524 13.3497 -3.0402 0.9429
-6.5374 12.8485 -3.0473 0.9428
-7.8266 12.4828 -3.1144 0.9415
-4.5046 5.9331 -1.5746 0.9700
-7.2904 1.5273 -1.5745 0.9700
-8.2296 0.2288 -1.7402 0.9669
-9.2787 -1.4111 -1.9839 0.9624
-8.4815 -6.9588 -2.3190 0.9561
-5.7180 -9.8433 -2.4063 0.9545
-3.8726 -10.6907 -2.4035 0.9546
-2.9026 -10.9918 -2.4031 0.9546
-1.9103 -11.2082 -2.4033 0.9546
-0.8654 -10.8676 -2.3045 0.9564
1.0821 -10.8653 -2.3081 0.9563
2.0498 -10.7379 -2.3108 0.9563
3.9381 -10.2339 -2.3179 0.9562
4.6567 -9.4772 -2.2321 0.9577
5.2222 -8.5932 -2.1256 0.9597
5.7402 -7.7837 -2.0443 0.9612
7.4054 -8.3623 -2.3611 0.9554
8.8218 -6.9501 -2.3739 0.9551
9.9755 -5.3024 -2.3880 0.9549
10.4410 -4.4045 -2.3954 0.9547
10.8263 -3.4660 -2.4029 0.9546
11.1275 -2.4939 -2.4105 0.9544
11.4656 -0.4791 -2.4257 0.9542
10.9313 3.5703 -2.4308 0.9541
10.1745 5.4847 -2.4433 0.9538
10.0851 6.6619 -2.5549 0.9518
8.7746 8.3815 -2.5650 0.9516
8.0045 9.1459 -2.5691 0.9515
7.1661 9.8369 -2.5726 0.9515
6.2664 10.4485 -2.5754 0.9514
5.3132 10.9749 -2.5774 0.9514
2.1259 11.5012 -2.4723 0.9533
1.0907 11.6409 -2.4714 0.9533
0.0425 10.4713 -2.4610 0.9579
-3.3850 12.5214 -3.0485 0.9481
-3.0315 8.2183 -2.0587 0.9646
-4.3761 6.1107 -1.7665 0.9696
-8.0869 0.4510 -1.9036 0.9673
-9.2071 -3.7963 -2.3406 0.9599
-7.5550 -7.0175 -2.4234 0.9585
-6.8889 -7.6530 -2.4200 0.9586
-6.1712 -8.2275 -2.4171 0.9586
-5.4072 -8.7371 -2.4148 0.9587
-4.6026 -9.1782 -2.4131 0.9587
-2.8956 -9.8433 -2.4114 0.9587
-1.1000 -10.2042 -2.4121 0.9587
0.7021 -9.8246 -2.3149 0.9603
4.1168 -9.0052 -2.3271 0.9601
6.3422 -7.5778 -2.3224 0.9602
7.7616 -6.4742 -2.3754 0.9593
9.6399 -3.3858 -2.4013 0.9589
9.9317 -2.5191 -2.4081 0.9588
10.1800 -0.7105 -2.3984 0.9589
10.2314 0.2014 -2.4051 0.9588
10.2004 1.1167 -2.4116 0.9587
9.8907 2.9274 -2.4242 0.9585
8.6735 6.5282 -2.5513 0.9564
8.0702 7.2888 -2.5558 0.9563
6.6645 8.6315 -2.5629 0.9562
5.8738 9.2014 -2.5656 0.9561
4.1500 10.1126 -2.5690 0.9561
2.1922 10.2495 -2.4634 0.9578
-1.5287 10.3428 -2.4572 0.9579
-2.9997 12.4684 -3.0140 0.9487
-5.3299 12.1031 -3.1081 0.9471
-7.5895 11.2486 -3.1892 0.9458
-4.9946 5.1275 -1.6823 0.9710
-14.2395 12.2188 -4.4098 0.9258
-7.4532 1.3024 -1.7782 0.9694
-7.9491 0.6664 -1.8748 0.9678
-8.4062 -0.0481 -1.9757 0.9660
-8.9195 -0.8506 -2.1058 0.9639
-9.5103 -1.7742 -2.2737 0.9610
-9.6176 -2.7011 -2.3478 0.9598
-8.9432 -4.3479 -2.3371 0.9600
-8.5021 -5.1182 -2.3323 0.9600
-7.7517 -6.8070 -2.4245 0.9585
-7.1029 -7.4607 -2.4210 0.9586
-4.8580 -9.0479 -2.4136 0.9587
-4.0290 -9.4402 -2.4123 0.9587
-3.1695 -9.7591 -2.4115 0.9587
-0.4609 -10.0240 -2.3583 0.9596
0.4274 -9.8379 -2.3143 0.9603
2.1739 -9.6249 -2.3191 0.9603
3.0283 -9.4053 -2.3222 0.9602
4.6677 -8.7463 -2.3300 0.9601
5.4216 -8.2826 -2.3266 0.9601
5.9253 -7.4953 -2.2455 0.9615
7.5719 -6.6831 -2.3736 0.9594
9.8488 -2.7929 -2.4060 0.9588
10.2241 -0.0843 -2.4030 0.9589
10.1311 1.7441 -2.4161 0.9586
9.3761 4.3976 -2.4339 0.9583
8.8472 6.2799 -2.5499 0.9564
8.2663 7.0570 -2.5544 0.9563
6.1266 9.0311 -2.5648 0.9561
0.6272 10.4567 -2.4620 0.9579
-1.2397 10.3850 -2.4580 0.9579
-3.8571 12.5785 -3.0921 0.9474
-3.6995 7.1714 -1.8965 0.9674
-7.2499 11.4208 -3.1793 0.9459
-8.3277 10.8421 -3.2131 0.9454
-8.2581 0.1834 -1.9413 0.9666
-8.7519 -0.5886 -2.0616 0.9646
-9.0672 -4.0993 -2.3387 0.9599
-8.6471 -4.8818 -2.3338 0.9600
-8.1612 -5.6232 -2.3293 0.9601
-6.6255 -7.8758 -2.4189 0.9586
-5.8898 -8.4264 -2.4162 0.9586
-3.4410 -9.6674 -2.4117 0.9587
-2.5641 -9.9346 -2.4114 0.9587
-1.6675 -10.1249 -2.4116 0.9587
-0.7576 -10.2369 -2.4125 0.9587
0.1525 -9.8436 -2.3138 0.9604
1.0312 -9.7989 -2.3157 0.9603
1.9036 -9.6782 -2.3182 0.9603
2.7633 -9.4819 -2.3212 0.9602
4.4191 -8.8682 -2.3287 0.9601
5.2028 -8.4545 -2.3331 0.9600
6.7166 -7.4995 -2.3661 0.9595
7.3766 -6.8866 -2.3718 0.9594
8.5270 -5.4937 -2.3840 0.9592
9.0076 -4.7236 -2.3904 0.9591
9.4193 -3.9117 -2.3971 0.9590
10.2054 -1.2879 -2.4175 0.9586
10.2089 -0.3694 -2.4009 0.9589
10.0228 2.3670 -2.4204 0.9586
9.7961 3.2602 -2.4265 0.9585
9.4885 4.1311 -2.4322 0.9584
9.1144 4.9792 -2.4409 0.9582
8.4555 6.8197 -2.5531 0.9563
5.5640 9.3961 -2.5664 0.9561
4.7066 9.8621 -2.5682 0.9561
3.8094 10.2474 -2.5694 0.9561
2.7609 10.1113 -2.4634 0.9578
-0.9496 10.4189 -2.4588 0.9579
-2.3506 12.8992 -3.0815 0.9476
-7.9936 11.0316 -3.2018 0.9456
-8.1150 0.4072 -1.9096 0.9672
-8.5911 -0.3372 -2.0207 0.9653
-9.7576 -2.1610 -2.3488 0.9598
-9.5131 -3.0191 -2.3457 0.9598
-9.1845 -3.8472 -2.3403 0.9599
-8.7856 -4.6415 -2.3353 0.9600
-3.7099 -9.5685 -2.4119 0.9587
-1.9495 -10.0738 -2.4115 0.9587
-1.0430 -10.2104 -2.4122 0.9587
-0.1229 -9.8844 -2.3232 0.9602
0.7570 -9.8211 -2.3150 0.9603
2.4964 -9.5513 -2.3202 0.9602
4.1675 -8.9831 -2.3274 0.9601
7.1760 -7.0845 -2.3700 0.9594
7.7989 -6.4317 -2.3758 0.9593
8.8647 -4.9690 -2.3884 0.9591
9.2983 -4.1695 -2.3950 0.9590
9.9474 -2.4640 -2.4085 0.9588
10.2319 0.2586 -2.4055 0.9588
10.1957 1.1738 -2.4121 0.9587
10.0769 2.0845 -2.4184 0.9586
9.8757 2.9831 -2.4246 0.9585
9.5932 3.8618 -2.4304 0.9584
9.2311 4.7132 -2.4360 0.9583
9.1728 5.7692 -2.5468 0.9565
8.0302 7.3345 -2.5560 0.9563
6.6167 8.6692 -2.5631 0.9562
5.8226 9.2346 -2.5657 0.9561
4.9792 9.7250 -2.5678 0.9561
3.1736 10.4636 -2.5698 0.9561
1.2103 10.4084 -2.4627 0.9579
0.2764 10.4695 -2.4614 0.9579
-7.6571 11.2133 -3.1912 0.9457
-8.7955 10.6897 -3.2535 0.9447
-14.7281 12.4958 -4.5394 0.9237
-7.9628 -5.8895 -2.3277 0.9601
-7.0605 -7.4996 -2.4208 0.9586
-6.3552 -8.0898 -2.4178 0.9586
-4.8072 -9.0745 -2.4135 0.9587
-3.9761 -9.4623 -2.4122 0.9587
0.4823 -9.8358 -2.3144 0.9603
2.2278 -9.6133 -2.3192 0.9603
3.0811 -9.3891 -2.3224 0.9602
4.7170 -8.7211 -2.3303 0.9601
5.4542 -8.2317 -2.3208 0.9602
8.7151 -5.2102 -2.3864 0.9591
9.1703 -4.4237 -2.3929 0.9590
10.0997 -1.8523 -2.4132 0.9587
10.2262 -0.0272 -2.4034 0.9589
9.9474 2.7040 -2.4227 0.9585
9.3527 4.4505 -2.4343 0.9583
8.8130 6.3299 -2.5502 0.9564
8.2276 7.1038 -2.5547 0.9563
6.8536 8.4779 -2.5621 0.9562
6.0764 9.0657 -2.5650 0.9561
5.2476 9.5801 -2.5672 0.9561
3.4643 10.3703 -2.5697 0.9561
2.4206 10.1982 -2.4634 0.9578
-0.3667 10.4615 -2.4602 0.9579
-1.2976 10.3772 -2.4579 0.9579
-2.7221 8.7033 -2.1432 0.9632
-6.1419 11.7447 -3.1149 0.9470
-4.1482 6.4546 -1.8033 0.9690
-8.3977 10.8077 -3.2167 0.9453
-9.8411 10.5653 -3.3934 0.9424
-8.2873 0.1378 -1.9480 0.9665
-9.6814 -2.4872 -2.3492 0.9598
-9.0430 -4.1493 -2.3384 0.9599
-7.7713 -6.5227 -2.3845 0.9592
-7.2703 -7.3027 -2.4218 0.9585
-6.5809 -7.9121 -2.4187 0.9586
-5.0598 -8.9387 -2.4140 0.9587
-4.2394 -9.3489 -2.4126 0.9587
-2.5086 -9.9488 -2.4114 0.9587
1.0860 -9.7936 -2.3158 0.9603
2.8164 -9.4672 -2.3214 0.9602
3.6556 -9.1920 -2.3249 0.9602
5.2505 -8.4263 -2.3334 0.9600
8.0177 -6.1727 -2.3781 0.9593
8.5590 -5.4469 -2.3844 0.9592
9.4427 -3.8597 -2.3975 0.9590
9.7770 -3.0101 -2.4043 0.9588
10.0110 2.4233 -2.4208 0.9586
9.7792 3.3153 -2.4268 0.9585
8.9810 6.0778 -2.5486 0.9564
7.7845 7.6039 -2.5575 0.9563
7.0849 8.2799 -2.5611 0.9562
6.3251 8.8897 -2.5642 0.9562
2.7044 10.1266 -2.4634 0.9578
1.7898 10.3266 -2.4632 0.9578
0.8607 10.4415 -2.4623 0.9579
-0.0745 10.4702 -2.4608 0.9579
-2.4168 12.8552 -3.0742 0.9477
-2.5374 8.9864 -2.1946 0.9624
-4.7238 12.3785 -3.1139 0.9470
-5.7792 11.8452 -3.0976 0.9473
-6.9576 11.5213 -3.1632 0.9462
-8.0606 10.9943 -3.2040 0.9455
-11.0641 10.5040 -3.5855 0.9392
-5.8264 3.8232 -1.6378 0.9718
-6.5083 2.7669 -1.6621 0.9714
-7.2273 1.6409 -1.7418 0.9700
-7.7109 1.0388 -1.8286 0.9685
-8.6228 -0.3867 -2.0286 0.9652
-9.1669 -1.2374 -2.1740 0.9627
-9.1616 -3.8979 -2.3400 0.9599
-8.7584 -4.6899 -2.3350 0.9600
-8.2886 -5.4421 -2.3304 0.9601
-7.4747 -7.1001 -2.4229 0.9585
-6.8019 -7.7282 -2.4196 0.9586
-6.0781 -8.2948 -2.4168 0.9586
-5.3087 -8.7960 -2.4146 0.9587
-0.9860 -10.2163 -2.4122 0.9587
0.8119 -9.8173 -2.3152 0.9603
2.5499 -9.5380 -2.3204 0.9602
3.3959 -9.2859 -2.3238 0.9602
5.0102 -8.5643 -2.3319 0.9600
7.2165 -7.0454 -2.3703 0.9594
8.8938 -4.9202 -2.3888 0.9591
9.3231 -4.1183 -2.3954 0.9590
9.6806 -3.2790 -2.4021 0.9589
9.9628 -2.4089 -2.4090 0.9588
10.0667 2.1411 -2.4188 0.9586
9.5729 3.9159 -2.4308 0.9584
9.2209 4.7730 -2.4402 0.9582
7.9899 7.3800 -2.5563 0.9563
7.3103 8.0755 -2.5601 0.9562
6.5686 8.7066 -2.5633 0.9562
4.9250 9.7530 -2.5679 0.9561
4.0370 10.1588 -2.5692 0.9561
1.1521 10.4148 -2.4626 0.9579
0.2179 10.4705 -2.4613 0.9579
-0.7167 10.4400 -2.4594 0.9579
-1.6439 10.3236 -2.4569 0.9580
-4.3711 12.4905 -3.1101 0.9471
-5.4592 12.0307 -3.1050 0.9472
-8.8881 10.6802 -3.2656 0.9445
-7.5834 1.2381 -1.8059 0.9689
-8.0037 0.5811 -1.8860 0.9676
-8.9886 -0.9586 -2.1245 0.9635
-9.5910 -1.9004 -2.2979 0.9606
-9.5839 -2.8076 -2.3471 0.9598
-8.4424 -5.2116 -2.3318 0.9601
-7.9289 -5.9333 -2.3275 0.9601
-7.0179 -7.5383 -2.4206 0.9586
-5.5537 -8.6467 -2.4152 0.9587
-4.7563 -9.1009 -2.4134 0.9587
-3.9231 -9.4841 -2.4122 0.9587
0.5373 -9.8335 -2.3145 0.9603
1.4141 -9.7554 -2.3167 0.9603
2.2817 -9.6015 -2.3194 0.9603
4.7662 -8.6957 -2.3305 0.9601
5.4866 -8.1811 -2.3151 0.9603
5.9859 -7.4006 -2.2370 0.9616
7.0117 -7.2387 -2.3685 0.9594
8.7455 -5.1623 -2.3868 0.9591
9.5768 -3.5449 -2.4000 0.9589
9.8829 -2.6837 -2.4068 0.9588
10.1117 -1.7961 -2.4137 0.9587
10.2607 -0.8891 -2.4205 0.9586
10.2280 0.0299 -2.4038 0.9588
10.2125 0.9451 -2.4104 0.9587
10.1143 1.8577 -2.4169 0.9586
9.6713 3.6444 -2.4290 0.9584
9.2947 5.5600 -2.5455 0.9565
8.7786 6.3798 -2.5505 0.9564
7.5296 7.8648 -2.5589 0.9562
4.3185 10.0408 -2.5688 0.9561
1.4426 10.3797 -2.4629 0.9579
0.5103 10.4624 -2.4618 0.9579
-1.3554 10.3692 -2.4577 0.9579
-4.0141 12.5872 -3.1051 0.9472
-3.7629 7.0986 -1.8883 0.9675
-4.1735 6.4149 -1.7987 0.9690
-9.9410 10.5537 -3.4075 0.9422
-7.8684 0.7926 -1.8586 0.9680
-8.3167 0.0918 -1.9547 0.9664
-9.3924 -1.5899 -2.2388 0.9616
-9.0185 -4.1992 -2.3380 0.9599
-8.5899 -4.9769 -2.3332 0.9600
-8.0960 -5.7127 -2.3288 0.9601
-7.2287 -7.3425 -2.4216 0.9585
-5.0096 -8.9664 -2.4139 0.9587
-4.1870 -9.3721 -2.4125 0.9587
-2.4530 -9.9626 -2.4114 0.9587
-1.5544 -10.1432 -2.4117 0.9587
3.7073 -9.1724 -2.3251 0.9602
4.5189 -8.8202 -2.3292 0.9601
5.2982 -8.3979 -2.3337 0.9600
8.0533 -6.1289 -2.3785 0.9593
9.0629 -4.6242 -2.3912 0.9591
9.4658 -3.8076 -2.3979 0.9589
9.7954 -2.9560 -2.4047 0.9588
10.0486 -2.0760 -2.4115 0.9587
10.2262 0.6591 -2.4084 0.9588
