ply
format ascii 1.0
element vertex 1595
property float32 x
property float32 y
property float32 z
property float32 I
end_header
5.5754 2.5019 -2.5011 0.9739
4.7302 3.9031 -2.5099 0.9738
3.9691 4.6915 -2.5151 0.9738
3.5378 5.0315 -2.5173 0.9738
1.4934 5.7199 -2.4195 0.9748
0.4531 5.8983 -2.4211 0.9748
-0.0752 5.9161 -2.4215 0.9748
-1.1256 5.8084 -2.4214 0.9748
-1.6391 5.6836 -2.4210 0.9748
-1.9464 3.9335 -1.7962 0.9812
-3.0822 5.0400 -2.4179 0.9748
-3.5174 4.7418 -2.4163 0.9748
-4.6361 3.6316 -2.4103 0.9749
-5.1970 2.7439 -2.4053 0.9749
-5.4149 2.2665 -2.4025 0.9749
-6.0179 -0.8466 -2.4872 0.9741
-5.7566 -1.8980 -2.4808 0.9741
-4.3460 -4.1746 -2.4664 0.9743
-3.9523 -4.5414 -2.4640 0.9743
-2.6019 -5.4129 -2.4580 0.9744
-2.1071 -5.6200 -2.4565 0.9744
-1.5422 -5.5865 -2.3719 0.9753
-0.0073 -5.7452 -2.3514 0.9755
0.5054 -5.7226 -2.3512 0.9755
1.0142 -5.6549 -2.3514 0.9755
2.0042 -5.3870 -2.3524 0.9755
2.4779 -5.1887 -2.3534 0.9755
3.3646 -4.6708 -2.3560 0.9754
5.4993 -1.8286 -2.3719 0.9753
5.8918 -1.3898 -2.4776 0.9742
6.0729 0.2213 -2.4871 0.9741
6.0368 0.7635 -2.4904 0.9740
5.9524 1.3008 -2.4937 0.9740
5.8201 1.8292 -2.4969 0.9740
5.4158 2.8419 -2.5032 0.9739
5.1468 3.3178 -2.5062 0.9739
4.8357 3.7682 -2.5091 0.9739
4.4850 4.1893 -2.5118 0.9738
4.0974 4.5774 -2.5143 0.9738
3.6759 4.9294 -2.5167 0.9738
3.2241 5.2421 -2.5188 0.9738
2.7454 5.5131 -2.5207 0.9737
2.2415 5.7335 -2.5195 0.9737
1.6522 5.6752 -2.4191 0.9748
1.1397 5.8025 -2.4202 0.9748
0.0901 5.9157 -2.4214 0.9748
-0.4382 5.9006 -2.4216 0.9748
-1.9846 5.5712 -2.4205 0.9748
-2.9408 5.1250 -2.4183 0.9748
-3.3843 4.8392 -2.4168 0.9748
-4.1843 4.1541 -2.4132 0.9748
-4.5343 3.7608 -2.4110 0.9749
-4.8470 3.3378 -2.4086 0.9749
-5.3515 2.4177 -2.4034 0.9749
-5.5394 1.9282 -2.4005 0.9750
-5.6824 1.4244 -2.3976 0.9750
-6.0862 -0.1368 -2.4915 0.9740
-5.9493 -1.2134 -2.4850 0.9741
-5.8097 -1.7372 -2.4818 0.9741
-4.8114 -3.6424 -2.4698 0.9743
-4.0787 -4.4305 -2.4647 0.9743
-3.6637 -4.7725 -2.4624 0.9743
0.3454 -5.7345 -2.3512 0.9755
2.7928 -5.0285 -2.3541 0.9754
3.6468 -4.4575 -2.3571 0.9754
4.9940 -2.9103 -2.3657 0.9753
5.2395 -2.4557 -2.3683 0.9753
5.7432 -1.5252 -2.4320 0.9746
6.0533 0.5943 -2.4894 0.9741
5.8666 1.6653 -2.4959 0.9740
5.7018 2.1850 -2.4991 0.9740
4.9373 3.6304 -2.5082 0.9739
4.5987 4.0610 -2.5110 0.9738
4.2223 4.4599 -2.5136 0.9738
3.8111 4.8235 -2.5160 0.9738
3.3683 5.1488 -2.5181 0.9738
2.8976 5.4331 -2.5201 0.9737
2.4028 5.6738 -2.5218 0.9737
1.3011 5.7677 -2.4199 0.9748
0.7815 5.8628 -2.4207 0.9748
0.2553 5.9106 -2.4213 0.9748
-0.2733 5.9105 -2.4216 0.9748
-1.3195 5.7670 -2.4213 0.9748
-1.7310 4.0529 -1.8037 0.9811
-2.7970 5.2060 -2.4187 0.9748
-3.2485 4.9328 -2.4173 0.9748
-4.4288 3.8870 -2.4117 0.9749
-4.7535 3.4729 -2.4094 0.9749
-5.6425 1.5832 -2.3985 0.9750
-6.0027 1.1183 -2.4990 0.9740
-6.0708 0.5773 -2.4958 0.9740
-6.0608 -0.5098 -2.4893 0.9741
-5.9833 -1.0472 -2.4860 0.9741
-5.8583 -1.5750 -2.4828 0.9741
-5.6871 -2.0888 -2.4796 0.9742
-5.2124 -3.0590 -2.4735 0.9742
-4.9129 -3.5079 -2.4707 0.9742
-4.5753 -3.9280 -2.4680 0.9743
-4.2021 -4.3163 -2.4655 0.9743
-1.3434 -5.5900 -2.3530 0.9755
0.1853 -5.7420 -2.3513 0.9755
0.6969 -5.7025 -2.3512 0.9755
1.7001 -5.4895 -2.3520 0.9755
2.1839 -5.3175 -2.3527 0.9755
2.6508 -5.1037 -2.3538 0.9754
3.0974 -4.8494 -2.3551 0.9754
3.5201 -4.5566 -2.3566 0.9754
3.9157 -4.2274 -2.3583 0.9754
4.6129 -3.4701 -2.3625 0.9754
4.9091 -3.0476 -2.3649 0.9753
5.3847 -2.1311 -2.3701 0.9753
6.0282 -0.6583 -2.4819 0.9741
6.0708 -0.1179 -2.4851 0.9741
6.0650 0.4249 -2.4883 0.9741
5.9084 1.5003 -2.4949 0.9740
5.7583 2.0242 -2.4981 0.9740
5.5617 2.5332 -2.5013 0.9739
5.3200 3.0231 -2.5043 0.9739
5.0349 3.4899 -2.5073 0.9739
3.9431 4.7138 -2.5152 0.9738
3.5099 5.0514 -2.5175 0.9738
3.0475 5.3488 -2.5195 0.9737
2.5598 5.6034 -2.5213 0.9737
1.9742 5.5960 -2.4286 0.9747
1.4614 5.7283 -2.4196 0.9748
-2.1699 5.5008 -2.4202 0.9748
-2.0845 4.1541 -1.9022 0.9801
-3.5437 4.7218 -2.4162 0.9748
-4.9542 3.1723 -2.4077 0.9749
-5.2119 2.7146 -2.4051 0.9749
-5.4271 2.2361 -2.4023 0.9749
-5.5983 1.7407 -2.3995 0.9750
-5.8191 1.2531 -2.4362 0.9746
-6.0752 -0.3404 -2.4903 0.9740
-6.0126 -0.8801 -2.4870 0.9741
-5.9024 -1.4113 -2.4838 0.9741
-5.7455 -1.9299 -2.4806 0.9741
-5.5433 -2.4319 -2.4775 0.9742
-5.2977 -2.9134 -2.4745 0.9742
-4.3224 -4.1985 -2.4662 0.9743
-3.9266 -4.5631 -2.4638 0.9743
-2.5715 -5.4271 -2.4579 0.9744
-0.9974 -5.6605 -2.3524 0.9755
0.0248 -5.7451 -2.3513 0.9755
0.5374 -5.7196 -2.3512 0.9755
1.0457 -5.6492 -2.3514 0.9755
1.5460 -5.5343 -2.3518 0.9755
2.0343 -5.3758 -2.3525 0.9755
2.5070 -5.1749 -2.3534 0.9755
2.9603 -4.9331 -2.3546 0.9754
3.3908 -4.6521 -2.3561 0.9754
3.7952 -4.3341 -2.3578 0.9754
4.5129 -3.5965 -2.3618 0.9754
4.8206 -3.1825 -2.3641 0.9753
5.5098 -1.7980 -2.3721 0.9753
5.8999 -1.3570 -2.4777 0.9742
6.0051 -0.8261 -2.4809 0.9741
6.0627 -0.2872 -2.4841 0.9741
6.0721 0.2553 -2.4873 0.9741
5.8103 1.8619 -2.4971 0.9740
5.6281 2.3760 -2.5003 0.9739
5.4003 2.8723 -2.5034 0.9739
5.1285 3.3468 -2.5064 0.9739
4.0720 4.6005 -2.5145 0.9738
3.1949 5.2604 -2.5189 0.9738
2.7147 5.5286 -2.5208 0.9737
2.1947 5.7076 -2.5027 0.9739
1.1073 5.8089 -2.4202 0.9748
0.5847 5.8863 -2.4210 0.9748
-0.9956 5.8322 -2.4215 0.9748
-1.5119 5.7192 -2.4211 0.9748
-2.0156 5.5599 -2.4204 0.9748
-3.4112 4.8200 -2.4167 0.9748
-5.6898 1.3925 -2.3974 0.9750
-6.0339 0.9160 -2.4978 0.9740
-6.0837 0.3735 -2.4946 0.9740
-6.0374 -0.7122 -2.4881 0.9741
-5.9419 -1.2465 -2.4848 0.9741
-5.7995 -1.7695 -2.4816 0.9741
-5.6113 -2.2771 -2.4784 0.9742
-5.3790 -2.7653 -2.4754 0.9742
-4.4393 -4.0775 -2.4670 0.9743
-4.0537 -4.4530 -2.4646 0.9743
-3.1919 -5.0938 -2.4602 0.9744
-2.7226 -5.3543 -2.4584 0.9744
-2.2324 -5.5724 -2.4569 0.9744
-1.1552 -5.6311 -2.3527 0.9755
1.3907 -5.5750 -2.3516 0.9755
3.2589 -4.7440 -2.3556 0.9754
3.6718 -4.4373 -2.3572 0.9754
4.0563 -4.0951 -2.3591 0.9754
4.4095 -3.7200 -2.3611 0.9754
5.0105 -2.8826 -2.3658 0.9753
5.2535 -2.4266 -2.3684 0.9753
5.4554 -1.9504 -2.3712 0.9753
5.9773 -0.9930 -2.4799 0.9742
6.0504 0.6282 -2.4896 0.9741
5.9780 1.1671 -2.4928 0.9740
4.1975 4.4837 -2.5137 0.9738
3.7843 4.8450 -2.5161 0.9738
3.3397 5.1678 -2.5183 0.9738
1.2689 5.7750 -2.4199 0.9748
-0.3063 5.9089 -2.4216 0.9748
-0.8324 5.8579 -2.4216 0.9748
-1.3517 5.7595 -2.4213 0.9748
-1.8598 5.6145 -2.4207 0.9748
-1.7526 4.0410 -1.8027 0.9811
-3.2759 4.9144 -2.4172 0.9748
-3.6989 4.5992 -2.4156 0.9748
-4.4501 3.8620 -2.4116 0.9749
-4.7725 3.4461 -2.4092 0.9749
-5.0557 3.0033 -2.4067 0.9749
-5.2977 2.5374 -2.4041 0.9749
-5.4965 2.0521 -2.4013 0.9750
-5.6651 1.5554 -2.4044 0.9749
-5.9768 -1.0805 -2.4858 0.9741
-5.8489 -1.6075 -2.4826 0.9741
-5.1948 -3.0878 -2.4734 0.9742
-4.8929 -3.5350 -2.4705 0.9742
-4.5530 -3.9533 -2.4678 0.9743
-3.3337 -5.0039 -2.4609 0.9743
-2.8717 -5.2774 -2.4590 0.9744
-2.3876 -5.5089 -2.4573 0.9744
-1.3121 -5.5973 -2.3530 0.9755
-0.8071 -5.6901 -2.3521 0.9755
-0.2960 -5.7380 -2.3516 0.9755
0.2173 -5.7408 -2.3513 0.9755
0.7287 -5.6985 -2.3512 0.9755
1.2345 -5.6113 -2.3515 0.9755
1.7307 -5.4800 -2.3520 0.9755
2.2136 -5.3054 -2.3528 0.9755
2.6794 -5.0890 -2.3538 0.9754
3.5457 -4.5371 -2.3567 0.9754
3.9394 -4.2057 -2.3585 0.9754
6.0322 -0.6247 -2.4821 0.9741
6.0719 -0.0840 -2.4853 0.9741
6.0058 0.9994 -2.4918 0.9740
5.3035 3.0530 -2.5045 0.9739
5.0157 3.5183 -2.5075 0.9739
4.3197 4.3633 -2.5129 0.9738
3.4818 5.0712 -2.5176 0.9738
3.0177 5.3660 -2.5196 0.9737
1.9348 5.5834 -2.4184 0.9748
0.9122 5.8435 -2.4205 0.9748
-0.1412 5.9150 -2.4215 0.9748
-0.6685 5.8790 -2.4216 0.9748
-1.1904 5.7953 -2.4214 0.9748
-2.2005 5.4885 -2.4201 0.9748
-4.3418 3.9859 -2.4122 0.9748
-4.6758 3.5792 -2.4100 0.9749
-4.9715 3.1444 -2.4075 0.9749
-5.4391 2.2056 -2.4022 0.9750
-5.6075 1.7093 -2.3993 0.9750
-6.0583 0.7130 -2.4966 0.9740
-6.0898 0.1693 -2.4934 0.9740
-6.0727 -0.3743 -2.4901 0.9740
-6.0072 -0.9136 -2.4868 0.9741
-5.7342 -1.9619 -2.4804 0.9741
-5.5293 -2.4626 -2.4773 0.9742
-5.2810 -2.9427 -2.4743 0.9742
-4.9915 -3.3982 -2.4714 0.9742
-4.6631 -3.8259 -2.4686 0.9743
-3.9008 -4.5847 -2.4637 0.9743
0.0569 -5.7448 -2.3513 0.9755
1.0773 -5.6433 -2.3514 0.9755
2.0643 -5.3645 -2.3525 0.9755
2.5359 -5.1610 -2.3535 0.9755
2.9879 -4.9167 -2.3547 0.9754
3.4169 -4.6333 -2.3562 0.9754
3.8195 -4.3130 -2.3579 0.9754
4.1926 -3.9582 -2.3598 0.9754
4.5332 -3.5714 -2.3619 0.9754
5.1063 -2.7142 -2.3668 0.9753
6.0101 -0.7926 -2.4811 0.9741
6.0647 -0.2534 -2.4843 0.9741
6.0710 0.2892 -2.4875 0.9741
6.0289 0.8310 -2.4908 0.9740
5.1101 3.3756 -2.5066 0.9739
4.7940 3.8225 -2.5094 0.9738
4.4385 4.2396 -2.5121 0.9738
4.0464 4.6235 -2.5146 0.9738
3.6211 4.9707 -2.5169 0.9738
2.1485 5.6820 -2.4862 0.9741
1.5889 5.6936 -2.4193 0.9748
1.0749 5.8151 -2.4203 0.9748
0.5518 5.8896 -2.4210 0.9748
0.0225 5.5511 -2.4193 0.9761
-0.4730 5.5313 -2.4194 0.9761
-1.8796 3.9643 -1.9121 0.9810
-2.8128 4.7775 -2.4162 0.9761
-3.6127 4.1960 -2.4131 0.9761
-4.2941 3.4813 -2.4092 0.9762
-4.5834 3.0813 -2.4069 0.9762
-4.8352 2.6573 -2.4045 0.9762
-5.2192 1.7517 -2.3993 0.9763
-5.6695 0.8284 -2.4971 0.9753
-5.7139 0.3187 -2.4941 0.9753
-5.5736 -1.2017 -2.4849 0.9754
-5.0382 -2.6258 -2.4760 0.9755
-4.1495 -3.8543 -2.4682 0.9756
-3.3921 -4.5224 -2.4638 0.9756
-2.9727 -4.8034 -2.4619 0.9757
-2.5304 -5.0460 -2.4602 0.9757
-1.5913 -5.4096 -2.4575 0.9757
-1.0606 -5.3210 -2.3646 0.9766
-0.5789 -5.3700 -2.3539 0.9767
0.3849 -5.3860 -2.3533 0.9767
1.3365 -5.2327 -2.3537 0.9767
1.7986 -5.0938 -2.3543 0.9767
2.6776 -4.6967 -2.3562 0.9767
3.0878 -4.4415 -2.3575 0.9767
3.4741 -4.1509 -2.3590 0.9767
3.8335 -3.8272 -2.3608 0.9766
4.7231 -2.6823 -2.3672 0.9766
4.9488 -2.2524 -2.3696 0.9766
5.2064 -1.8286 -2.4049 0.9762
5.6201 -0.9014 -2.4806 0.9755
5.6789 0.6217 -2.4897 0.9754
4.5967 3.4598 -2.5073 0.9752
4.2740 3.8601 -2.5099 0.9752
3.9162 4.2302 -2.5123 0.9752
3.5262 4.5669 -2.5146 0.9751
2.6622 5.1288 -2.5184 0.9751
2.1953 5.3493 -2.5200 0.9751
0.6718 5.5090 -2.4187 0.9761
-0.3184 5.5423 -2.4194 0.9761
-0.8117 5.4917 -2.4194 0.9761
-1.2984 5.3967 -2.4191 0.9761
-2.6787 4.8550 -2.4166 0.9761
-4.4969 3.2091 -2.4077 0.9762
-4.9856 2.3538 -2.4028 0.9762
-5.1701 1.8974 -2.4002 0.9763
-5.6463 0.9867 -2.4980 0.9753
-5.7050 0.4783 -2.4950 0.9753
-5.6851 -0.5422 -2.4889 0.9754
-5.4847 -1.5404 -2.4828 0.9754
-5.3190 -2.0213 -2.4798 0.9755
-5.1114 -2.4850 -2.4769 0.9755
-4.5781 -3.3467 -2.4715 0.9756
-3.9025 -4.0991 -2.4666 0.9756
-3.5180 -4.4271 -2.4644 0.9756
-3.1064 -4.7196 -2.4624 0.9756
-2.6709 -4.9744 -2.4607 0.9757
-1.2356 -5.4071 -2.4172 0.9761
-0.2480 -5.3947 -2.3536 0.9767
1.1898 -5.2677 -2.3536 0.9767
2.5450 -4.7689 -2.3558 0.9767
4.0635 -3.5866 -2.3621 0.9766
5.4676 -1.5505 -2.4768 0.9755
5.6695 -0.5551 -2.4827 0.9754
5.7034 -0.0470 -2.4857 0.9754
5.6918 0.4627 -2.4888 0.9754
5.6348 0.9700 -2.4919 0.9754
5.5325 1.4708 -2.4949 0.9753
5.3857 1.9611 -2.4979 0.9753
4.9629 2.8940 -2.5038 0.9752
4.6899 3.3290 -2.5065 0.9752
4.0316 4.1180 -2.5116 0.9752
3.6514 4.4655 -2.5139 0.9751
3.2410 4.7775 -2.5160 0.9751
2.3433 5.2849 -2.5195 0.9751
-0.6581 5.5123 -2.4194 0.9761
-1.6270 5.3060 -2.4187 0.9761
-2.5425 4.9286 -2.4169 0.9761
-2.9706 4.6796 -2.4157 0.9761
-3.3743 4.3931 -2.4142 0.9761
-4.6823 2.9250 -2.4061 0.9762
-4.9196 2.4929 -2.4036 0.9762
-5.6915 0.6377 -2.4960 0.9753
-5.7002 -0.3833 -2.4899 0.9754
-5.6363 -0.8894 -2.4868 0.9754
-5.3753 -1.8727 -2.4807 0.9755
-5.1806 -2.3422 -2.4778 0.9755
-4.9453 -2.7919 -2.4750 0.9755
-4.6713 -3.2186 -2.4723 0.9756
-4.0166 -3.9897 -2.4673 0.9756
-2.8093 -4.8989 -2.4612 0.9757
-2.3594 -5.1268 -2.4596 0.9757
-1.8914 -5.3139 -2.4582 0.9757
-1.4090 -5.4590 -2.4571 0.9757
-0.8779 -5.3303 -2.3543 0.9767
0.5651 -5.3701 -2.3533 0.9767
1.9685 -5.0313 -2.3546 0.9767
3.2356 -4.3366 -2.3581 0.9767
3.6122 -4.0333 -2.3597 0.9767
4.2787 -3.3323 -2.3635 0.9766
4.5632 -2.9399 -2.3657 0.9766
4.8121 -2.5235 -2.3681 0.9766
5.5569 -1.2129 -2.4788 0.9755
5.6977 -0.2062 -2.4848 0.9754
5.0399 2.7533 -2.5029 0.9753
4.7794 3.1956 -2.5057 0.9752
4.4799 3.6133 -2.5083 0.9752
3.7736 4.3605 -2.5132 0.9752
2.0152 5.4210 -2.5205 0.9751
1.4610 5.3507 -2.4173 0.9761
0.4869 5.5289 -2.4189 0.9761
-0.0085 5.5512 -2.4193 0.9761
-0.9952 5.4612 -2.4193 0.9761
-1.4783 5.3497 -2.4189 0.9761
-1.9011 3.9524 -1.9114 0.9810
-2.8393 4.7615 -2.4161 0.9761
-3.2510 4.4865 -2.4147 0.9761
-3.9909 3.8315 -2.4111 0.9761
-4.8496 2.6302 -2.4044 0.9762
-5.0596 2.1845 -2.4018 0.9762
-5.2286 1.7223 -2.3991 0.9763
-5.7109 -0.2241 -2.4908 0.9754
-5.6611 -0.7320 -2.4877 0.9754
-2.5021 -5.0599 -2.4601 0.9757
-2.0394 -5.2599 -2.4586 0.9757
-1.5611 -5.4182 -2.4574 0.9757
-0.0671 -5.3997 -2.3535 0.9767
0.4150 -5.3838 -2.3533 0.9767
0.8938 -5.3255 -2.3534 0.9767
1.8270 -5.0838 -2.3543 0.9767
2.7039 -4.6819 -2.3563 0.9767
3.8550 -3.8059 -2.3609 0.9766
4.1828 -3.4495 -2.3629 0.9766
5.2393 -1.8073 -2.4154 0.9761
5.6254 -0.8701 -2.4808 0.9755
5.7044 0.1442 -2.4869 0.9754
5.6758 0.6534 -2.4899 0.9754
5.4826 1.6561 -2.4961 0.9753
5.1130 2.6106 -2.5020 0.9753
3.8927 4.2523 -2.5125 0.9752
2.6336 5.1438 -2.5185 0.9751
1.1301 5.4318 -2.4180 0.9761
0.6410 5.5127 -2.4187 0.9761
0.1465 5.5490 -2.4192 0.9761
-1.8037 5.2479 -2.4184 0.9761
-2.7057 4.8398 -2.4165 0.9761
-3.1251 4.5764 -2.4151 0.9761
-3.5187 4.2765 -2.4135 0.9761
-4.7758 2.7654 -2.4052 0.9762
-4.9984 2.3257 -2.4026 0.9762
-5.1803 1.8683 -2.4000 0.9763
-5.4798 1.4389 -2.4691 0.9756
-5.6513 0.9551 -2.4979 0.9753
-5.7071 0.4464 -2.4948 0.9753
-5.7171 -0.0646 -2.4918 0.9754
-5.3072 -2.0508 -2.4796 0.9755
-5.0970 -2.5133 -2.4768 0.9755
-4.5590 -3.3720 -2.4713 0.9756
-4.2356 -3.7615 -2.4688 0.9756
-3.8793 -4.1206 -2.4665 0.9756
-3.4930 -4.4464 -2.4643 0.9756
-2.6430 -4.9891 -2.4606 0.9757
-1.7120 -5.3733 -2.4578 0.9757
-1.1994 -5.3868 -2.4052 0.9762
0.2645 -5.3933 -2.3533 0.9767
0.7447 -5.3482 -2.3533 0.9767
1.6842 -5.1324 -2.3541 0.9767
2.1362 -4.9632 -2.3549 0.9767
2.5717 -4.7548 -2.3559 0.9767
4.3894 -3.1882 -2.3643 0.9766
4.8959 -2.3617 -2.3690 0.9766
5.4765 -1.5201 -2.4770 0.9755
5.5969 -1.0265 -2.4799 0.9755
5.6729 -0.5235 -2.4829 0.9754
5.6896 0.4945 -2.4890 0.9754
5.6297 1.0016 -2.4920 0.9754
5.5246 1.5018 -2.4951 0.9753
5.3751 1.9912 -2.4981 0.9753
5.1820 2.4659 -2.5011 0.9753
4.6716 3.3553 -2.5067 0.9752
2.7756 5.0672 -2.5180 0.9751
1.8328 5.4865 -2.5210 0.9751
0.3013 5.5425 -2.4191 0.9761
-0.1945 5.5480 -2.4194 0.9761
-0.6888 5.5085 -2.4194 0.9761
-1.1775 5.4246 -2.4192 0.9761
-1.6566 5.2967 -2.4187 0.9761
-3.7727 4.0503 -2.4123 0.9761
-4.6983 2.8986 -2.4059 0.9762
-4.9331 2.4652 -2.4034 0.9762
-5.2991 1.5508 -2.4063 0.9762
-5.7189 0.0951 -2.4927 0.9754
-5.6308 -0.9208 -2.4866 0.9754
-5.5194 -1.4179 -2.4836 0.9754
-4.9293 -2.8193 -2.4748 0.9755
-4.6529 -3.2444 -2.4721 0.9756
-4.3403 -3.6429 -2.4696 0.9756
-3.9941 -4.0118 -2.4672 0.9756
-2.7818 -4.9144 -2.4611 0.9757
-1.3784 -5.4666 -2.4570 0.9757
-0.8481 -5.3350 -2.3543 0.9767
-0.3685 -5.3880 -2.3537 0.9767
1.0718 -5.2927 -2.3535 0.9767
1.9966 -5.0203 -2.3546 0.9767
2.8598 -4.5896 -2.3567 0.9767
3.2599 -4.3186 -2.3582 0.9767
3.9816 -3.6757 -2.3616 0.9766
4.2974 -3.3085 -2.3637 0.9766
4.5798 -2.9146 -2.3659 0.9766
5.4300 -1.6718 -2.4761 0.9755
5.5640 -1.1819 -2.4790 0.9755
5.6533 0.8436 -2.4911 0.9754
5.5623 1.3464 -2.4941 0.9753
5.0248 2.7816 -2.5030 0.9753
4.7618 3.2225 -2.5058 0.9752
4.1216 4.0260 -2.5110 0.9752
3.7493 4.3818 -2.5133 0.9752
2.9154 4.9866 -2.5174 0.9751
2.4604 5.2304 -2.5191 0.9751
1.9850 5.4323 -2.5206 0.9751
0.4560 5.5316 -2.4189 0.9761
-1.0257 5.4556 -2.4193 0.9761
-1.5082 5.3413 -2.4188 0.9761
-1.9782 5.1839 -2.4182 0.9761
-1.9225 3.9405 -1.9108 0.9811
-2.8657 4.7454 -2.4160 0.9761
-4.0121 3.8090 -2.4110 0.9762
-4.3322 3.4328 -2.4089 0.9762
-4.6169 3.0296 -2.4067 0.9762
-5.0714 2.1561 -2.4017 0.9762
-5.2378 1.6930 -2.3990 0.9763
-5.7162 0.2548 -2.4937 0.9753
-5.7091 -0.2560 -2.4906 0.9754
-5.0078 -2.6815 -2.4757 0.9755
-4.7433 -3.1143 -2.4730 0.9755
-4.4418 -3.5214 -2.4704 0.9756
-4.1057 -3.8999 -2.4679 0.9756
-3.7378 -4.2468 -2.4656 0.9756
-3.3411 -4.5596 -2.4635 0.9756
-2.0099 -5.2710 -2.4585 0.9757
-1.5307 -5.4267 -2.4573 0.9757
-0.5188 -5.3760 -2.3539 0.9767
-0.0370 -5.4000 -2.3534 0.9767
2.3016 -4.8896 -2.3552 0.9767
2.7301 -4.6668 -2.3564 0.9767
3.1375 -4.4071 -2.3577 0.9767
3.8764 -3.7845 -2.3610 0.9766
4.4953 -3.0404 -2.3652 0.9766
4.9743 -2.1973 -2.3700 0.9766
5.7039 0.1760 -2.4871 0.9754
5.5956 1.1902 -2.4932 0.9753
5.4737 1.6868 -2.4962 0.9753
5.3077 2.1712 -2.4992 0.9753
4.8483 3.0872 -2.5050 0.9752
4.2311 3.9081 -2.5102 0.9752
3.0528 4.9021 -2.5168 0.9751
2.6050 5.1587 -2.5186 0.9751
0.6102 5.5163 -2.4187 0.9761
-1.3586 5.3817 -2.4190 0.9761
-2.7326 4.8244 -2.4164 0.9761
-3.9051 3.9205 -2.4116 0.9761
-4.2359 3.5534 -2.4096 0.9762
-4.5319 3.1583 -2.4074 0.9762
-5.0109 2.2977 -2.4025 0.9762
-5.5198 1.4165 -2.4836 0.9754
-5.6561 0.9234 -2.4977 0.9753
-5.7162 -0.0965 -2.4916 0.9754
-5.4663 -1.6013 -2.4824 0.9755
-5.0826 -2.5416 -2.4766 0.9755
-4.2143 -3.7849 -2.4686 0.9756
-3.8560 -4.1420 -2.4663 0.9756
-2.6149 -5.0035 -2.4605 0.9757
-2.1566 -5.2137 -2.4590 0.9757
-1.1642 -5.3700 -2.3947 0.9763
0.7746 -5.3440 -2.3533 0.9767
1.2486 -5.2542 -2.3536 0.9767
2.5983 -4.7405 -2.3560 0.9767
3.4036 -4.2080 -2.3587 0.9767
3.7683 -3.8903 -2.3605 0.9766
4.1038 -3.5413 -2.3624 0.9766
4.4074 -3.1638 -2.3645 0.9766
4.6766 -2.7605 -2.3667 0.9766
5.1093 -1.8913 -2.3744 0.9765
5.6029 -0.9953 -2.4801 0.9755
5.6872 0.5264 -2.4892 0.9754
5.6245 1.0330 -2.4922 0.9754
5.5166 1.5327 -2.4953 0.9753
5.3643 2.0214 -2.4983 0.9753
4.3372 3.7873 -2.5095 0.9752
3.6017 4.5065 -2.5142 0.9751
2.7474 5.0828 -2.5181 0.9751
2.2843 5.3112 -2.5197 0.9751
1.7991 5.4875 -2.5168 0.9751
1.2510 5.4047 -2.4177 0.9761
0.2704 5.5441 -2.4191 0.9761
-0.2254 5.5468 -2.4194 0.9761
-1.2078 5.4178 -2.4191 0.9761
-1.6861 5.2873 -2.4186 0.9761
-2.1505 5.1140 -2.4178 0.9761
-3.0225 4.6458 -2.4155 0.9761
-4.4433 3.2845 -2.4081 0.9762
-5.3334 1.5286 -2.4180 0.9761
-5.6302 1.0814 -2.4986 0.9753
-5.6974 0.5740 -2.4956 0.9753
-5.7189 0.0631 -2.4925 0.9754
-5.5110 -1.4486 -2.4834 0.9754
-5.3533 -1.9323 -2.4804 0.9755
-5.1534 -2.3995 -2.4775 0.9755
-4.3196 -3.6669 -2.4694 0.9756
-3.1855 -4.6676 -2.4628 0.9756
-2.7542 -4.9296 -2.4610 0.9757
-2.3018 -5.1524 -2.4594 0.9757
-1.8318 -5.3344 -2.4581 0.9757
-0.8183 -5.3395 -2.3542 0.9767
1.1013 -5.2867 -2.3535 0.9767
2.0246 -5.0092 -2.3547 0.9767
2.8855 -4.5737 -2.3568 0.9767
3.2841 -4.3005 -2.3583 0.9767
4.0022 -3.6536 -2.3617 0.9766
4.3161 -3.2847 -2.3638 0.9766
5.4397 -1.6416 -2.4763 0.9755
5.6581 -0.6499 -2.4821 0.9755
5.6489 0.8753 -2.4913 0.9754
5.4166 1.8701 -2.4974 0.9753
4.7441 3.2493 -2.5060 0.9752
4.0993 4.0492 -2.5112 0.9752
3.3201 4.7218 -2.5156 0.9751
1.9547 5.4435 -2.5207 0.9751
0.9170 5.4726 -2.4183 0.9761
-0.0705 5.5508 -2.4193 0.9761
-0.5656 5.5226 -2.4194 0.9761
-1.0561 5.4497 -2.4192 0.9761
-1.5379 5.3327 -2.4188 0.9761
-1.9440 3.9286 -1.9103 0.9811
-2.8921 4.7292 -2.4159 0.9761
-3.6819 4.1344 -2.4128 0.9761
-4.8781 2.5755 -2.4041 0.9762
-5.0830 2.1276 -2.4015 0.9762
-5.2467 1.6636 -2.3988 0.9763
-5.7171 0.2229 -2.4935 0.9753
-5.7071 -0.2878 -2.4904 0.9754
-5.6517 -0.7951 -2.4874 0.9754
-4.9924 -2.7093 -2.4755 0.9755
-4.7255 -3.1405 -2.4728 0.9755
-4.4217 -3.5460 -2.4702 0.9756
-4.0836 -3.9225 -2.4678 0.9756
-3.3154 -4.5779 -2.4634 0.9756
-2.8914 -4.8518 -2.4615 0.9757
-1.9804 -5.2820 -2.4585 0.9757
-0.9671 -5.3151 -2.3545 0.9767
-0.4888 -5.3787 -2.3538 0.9767
-0.0069 -5.4000 -2.3534 0.9767
0.4751 -5.3788 -2.3533 0.9767
0.9532 -5.3152 -2.3534 0.9767
1.4240 -5.2098 -2.3538 0.9767
1.8837 -5.0633 -2.3544 0.9767
2.3290 -4.8767 -2.3553 0.9767
2.7562 -4.6517 -2.3564 0.9767
3.1622 -4.3896 -2.3578 0.9767
3.8977 -3.7630 -2.3611 0.9766
4.2215 -3.4030 -2.3631 0.9766
4.5125 -3.0154 -2.3653 0.9766
4.7683 -2.6032 -2.3676 0.9766
5.5346 -1.3055 -2.4783 0.9755
5.6921 -0.3015 -2.4842 0.9754
5.7033 0.2079 -2.4872 0.9754
5.5893 1.2215 -2.4934 0.9753
5.0843 2.6679 -2.5023 0.9753
4.8313 3.1145 -2.5052 0.9752
4.5390 3.5370 -2.5078 0.9752
4.2095 3.9320 -2.5104 0.9752
3.8454 4.2960 -2.5128 0.9752
3.4497 4.6261 -2.5150 0.9751
3.0255 4.9194 -2.5170 0.9751
2.5762 5.1734 -2.5187 0.9751
2.1055 5.3859 -2.5202 0.9751
1.5618 5.3645 -2.4350 0.9759
0.5794 5.5197 -2.4188 0.9761
-0.4112 5.5362 -2.4194 0.9761
-3.5659 4.2365 -2.4133 0.9761
-3.9268 3.8984 -2.4115 0.9761
-5.0234 2.2695 -2.4023 0.9762
-5.2055 1.8120 -2.4022 0.9762
-5.5604 1.3938 -2.4983 0.9753
-5.6608 0.8918 -2.4975 0.9753
-5.7108 0.3826 -2.4945 0.9753
-5.7152 -0.1285 -2.4914 0.9754
-5.6739 -0.6372 -2.4883 0.9754
-5.4569 -1.6317 -2.4822 0.9755
-5.2832 -2.1096 -2.4793 0.9755
-5.0679 -2.5697 -2.4764 0.9755
-4.8130 -3.0084 -2.4736 0.9755
-3.0265 -4.7703 -2.4621 0.9757
-1.6518 -5.3918 -2.4576 0.9757
-1.1294 -5.3535 -2.3845 0.9764
-0.1577 -5.3979 -2.3535 0.9767
0.3247 -5.3900 -2.3533 0.9767
0.8044 -5.3396 -2.3534 0.9767
2.1916 -4.9393 -2.3550 0.9767
2.6248 -4.7261 -2.3561 0.9767
3.0378 -4.4754 -2.3573 0.9767
3.4272 -4.1891 -2.3588 0.9767
3.7902 -3.8694 -2.3606 0.9766
4.1237 -3.5186 -2.3625 0.9766
4.4252 -3.1393 -2.3646 0.9766
4.6923 -2.7345 -2.3669 0.9766
4.9226 -2.3072 -2.3693 0.9766
5.6846 0.5581 -2.4894 0.9754
5.6190 1.0646 -2.4924 0.9754
5.5083 1.5637 -2.4955 0.9753
4.9147 2.9773 -2.5043 0.9752
3.9627 4.1857 -2.5120 0.9752
3.5766 4.5267 -2.5143 0.9751
2.7191 5.0983 -2.5182 0.9751
2.2547 5.3241 -2.5198 0.9751
0.7333 5.5009 -2.4186 0.9761
0.2395 5.5456 -2.4191 0.9761
-0.2564 5.5455 -2.4194 0.9761
-1.2381 5.4109 -2.4191 0.9761
-1.7156 5.2777 -2.4186 0.9761
-1.7288 4.0479 -1.9183 0.9810
-3.4470 4.3354 -2.4139 0.9761
-4.1563 3.6479 -2.4101 0.9762
-4.9597 2.4096 -2.4031 0.9762
-5.7001 0.5421 -2.4954 0.9753
-5.6917 -0.4787 -2.4893 0.9754
-5.5024 -1.4793 -2.4832 0.9754
-5.3420 -1.9620 -2.4802 0.9755
-3.9485 -4.0557 -2.4669 0.9756
-3.1593 -4.6850 -2.4627 0.9756
-2.7265 -4.9447 -2.4609 0.9757
-2.2729 -5.1650 -2.4593 0.9757
-1.8019 -5.3444 -2.4580 0.9757
-0.7884 -5.3439 -2.3542 0.9767
0.1741 -5.3970 -2.3534 0.9767
0.6550 -5.3599 -2.3533 0.9767
2.9111 -4.5577 -2.3569 0.9767
3.3082 -4.2823 -2.3583 0.9767
4.0228 -3.6314 -2.3619 0.9766
4.8547 -2.4429 -2.3685 0.9766
5.7016 -0.1107 -2.4853 0.9754
5.6444 0.9069 -2.4915 0.9754
4.7262 3.2759 -2.5062 0.9752
4.4196 3.6885 -2.5088 0.9752
3.7006 4.4239 -2.5136 0.9751
2.8597 5.0193 -2.5176 0.9751
2.4021 5.2580 -2.5193 0.9751
1.9243 5.4545 -2.5208 0.9751
0.8865 5.4778 -2.4184 0.9761
-0.1015 5.5504 -2.4193 0.9761
-1.0865 5.4437 -2.4192 0.9761
-1.5677 5.3240 -2.4188 0.9761
-2.0359 5.1613 -2.4180 0.9761
-2.0443 4.0740 -1.9865 0.9803
-3.3253 4.4309 -2.4144 0.9761
-3.7048 4.1135 -2.4127 0.9761
-4.0539 3.7635 -2.4108 0.9762
-4.6499 2.9775 -2.4064 0.9762
-4.8921 2.5480 -2.4039 0.9762
-5.6064 1.2073 -2.4993 0.9753
-5.6849 0.7013 -2.4964 0.9753
-5.7050 -0.3197 -2.4902 0.9754
-5.6467 -0.8265 -2.4872 0.9754
-5.5436 -1.3255 -2.4841 0.9754
-5.2072 -2.2844 -2.4782 0.9755
-4.9769 -2.7369 -2.4753 0.9755
-4.7076 -3.1666 -2.4726 0.9755
-4.4016 -3.5704 -2.4700 0.9756
-3.6898 -4.2878 -2.4653 0.9756
-2.8642 -4.8677 -2.4614 0.9757
-2.4167 -5.1005 -2.4598 0.9757
-1.9508 -5.2928 -2.4584 0.9757
-0.9374 -5.3203 -2.3544 0.9767
0.5051 -5.3761 -2.3533 0.9767
1.9120 -5.0528 -2.3545 0.9767
2.3563 -4.8638 -2.3554 0.9767
2.7822 -4.6364 -2.3565 0.9767
3.1867 -4.3721 -2.3579 0.9767
3.9188 -3.7413 -2.3613 0.9766
4.5295 -2.9904 -2.3654 0.9766
5.3479 -1.7451 -2.4517 0.9758
5.5422 -1.2747 -2.4784 0.9755
5.6941 -0.2698 -2.4844 0.9754
5.7025 0.2398 -2.4874 0.9754
5.6653 0.7486 -2.4905 0.9754
5.5828 1.2527 -2.4936 0.9753
5.0697 2.6964 -2.5025 0.9753
4.8142 3.1416 -2.5053 0.9752
4.1877 3.9557 -2.5105 0.9752
3.4240 4.6455 -2.5151 0.9751
2.9981 4.9364 -2.5171 0.9751
2.5474 5.1879 -2.5188 0.9751
2.0755 5.3977 -2.5203 0.9751
0.5486 5.5229 -2.4188 0.9761
-0.4421 5.5338 -2.4194 0.9761
-0.9341 5.4721 -2.4193 0.9761
-3.9483 3.8763 -2.4114 0.9761
-4.5663 3.1071 -2.4071 0.9762
-5.2097 1.7809 -2.3995 0.9763
-5.7125 0.3507 -2.4943 0.9753
-5.4473 -1.6620 -2.4820 0.9755
-4.5010 -3.4472 -2.4708 0.9756
-3.4175 -4.5037 -2.4639 0.9756
-2.9996 -4.7869 -2.4620 0.9757
-2.5587 -5.0320 -2.4603 0.9757
-1.6216 -5.4008 -2.4576 0.9757
-1.0949 -5.3373 -2.3745 0.9765
-0.6089 -5.3668 -2.3540 0.9767
-0.1275 -5.3987 -2.3535 0.9767
1.7700 -5.1037 -2.3542 0.9767
2.2192 -4.9271 -2.3551 0.9767
3.0628 -4.4585 -2.3574 0.9767
4.9358 -2.2799 -2.3695 0.9766
5.5024 -1.4284 -2.4775 0.9755
5.6146 -0.9327 -2.4804 0.9755
5.6822 -0.4285 -2.4834 0.9754
5.6135 1.0960 -2.4926 0.9754
5.1411 2.5529 -2.5016 0.9753
4.8983 3.0049 -2.5045 0.9752
3.1340 4.8496 -2.5165 0.9751
2.6907 5.1137 -2.5183 0.9751
1.7172 5.4421 -2.4870 0.9754
1.1906 5.4186 -2.4178 0.9761
0.7025 5.5050 -2.4186 0.9761
0.2085 5.5469 -2.4191 0.9761
-0.7810 5.4962 -2.4194 0.9761
-2.6516 4.8700 -2.4166 0.9761
-3.0740 4.6114 -2.4153 0.9761
-3.4710 4.3159 -2.4138 0.9761
-4.1764 3.6244 -2.4100 0.9762
-4.7453 2.8189 -2.4055 0.9762
-5.7026 0.5102 -2.4952 0.9753
-5.6133 -1.0148 -2.4860 0.9754
-5.4936 -1.5099 -2.4830 0.9754
-5.1255 -2.4566 -2.4771 0.9755
-4.8803 -2.9009 -2.4743 0.9755
-3.5429 -4.4076 -2.4645 0.9756
-2.6988 -4.9596 -2.4608 0.9757
-1.7720 -5.3542 -2.4579 0.9757
-0.7586 -5.3482 -2.3541 0.9767
-0.2782 -5.3933 -2.3536 0.9767
0.2042 -5.3960 -2.3533 0.9767
0.6850 -5.3562 -2.3533 0.9767
1.1603 -5.2742 -2.3536 0.9767
1.6267 -5.1507 -2.3540 0.9767
2.0805 -4.9865 -2.3548 0.9767
2.9366 -4.5415 -2.3570 0.9767
3.3322 -4.2639 -2.3584 0.9767
4.0432 -3.6090 -2.3620 0.9766
4.6288 -2.8379 -2.3663 0.9766
4.8686 -2.4160 -2.3687 0.9766
5.0702 -1.9740 -2.3712 0.9765
5.4584 -1.5809 -2.4766 0.9755
5.5843 -1.0888 -2.4795 0.9755
5.6659 -0.5868 -2.4825 0.9755
5.6939 0.4309 -2.4886 0.9754
5.5402 1.4398 -2.4947 0.9753
5.3961 1.9308 -2.4977 0.9753
4.9786 2.8660 -2.5036 0.9752
4.7081 3.3025 -2.5063 0.9752
4.0543 4.0952 -2.5115 0.9752
3.2674 4.7590 -2.5159 0.9751
2.3727 5.2716 -2.5194 0.9751
1.8938 5.4654 -2.5208 0.9751
1.3413 5.3826 -2.4176 0.9761
0.3633 5.5387 -2.4190 0.9761
-0.1325 5.5497 -2.4193 0.9761
-0.6272 5.5159 -2.4194 0.9761
-1.1169 5.4375 -2.4192 0.9761
-1.5974 5.3151 -2.4187 0.9761
-2.5150 4.9429 -2.4170 0.9761
-3.7276 4.0926 -2.4125 0.9761
-4.3883 3.3591 -2.4085 0.9762
-4.9059 2.5205 -2.4038 0.9762
-5.2642 1.6047 -2.3985 0.9763
-5.6883 0.6695 -2.4962 0.9753
-5.7184 0.1590 -2.4931 0.9753
-5.5357 -1.3564 -2.4839 0.9754
-5.1940 -2.3133 -2.4780 0.9755
-4.9612 -2.7644 -2.4752 0.9755
-4.6895 -3.1927 -2.4725 0.9755
-4.3813 -3.5947 -2.4699 0.9756
-3.2637 -4.6142 -2.4632 0.9756
-2.8368 -4.8834 -2.4613 0.9757
-2.3881 -5.1137 -2.4597 0.9757
-1.9211 -5.3034 -2.4583 0.9757
-1.4395 -5.4512 -2.4572 0.9757
-0.9076 -5.3254 -2.3544 0.9767
0.0535 -5.3997 -2.3534 0.9767
0.5351 -5.3731 -2.3533 0.9767
1.4821 -5.1937 -2.3539 0.9767
1.9403 -5.0421 -2.3545 0.9767
2.8082 -4.6209 -2.3566 0.9767
3.5894 -4.0532 -2.3596 0.9767
4.5464 -2.9652 -2.3656 0.9766
4.7977 -2.5502 -2.3679 0.9766
5.3857 -1.7242 -2.4645 0.9756
5.5496 -1.2438 -2.4786 0.9755
5.6960 -0.2380 -2.4846 0.9754
5.6615 0.7803 -2.4907 0.9754
5.5761 1.2840 -2.4938 0.9753
5.2717 2.2603 -2.4998 0.9753
5.0549 2.7249 -2.5027 0.9753
4.4998 3.5879 -2.5082 0.9752
3.3982 4.6648 -2.5152 0.9751
2.9707 4.9533 -2.5172 0.9751
2.5185 5.2022 -2.5189 0.9751
1.4909 5.3423 -2.4172 0.9761
1.0085 5.4562 -2.4182 0.9761
0.0212 5.2222 -2.4173 0.9772
-0.4450 5.2036 -2.4174 0.9772
-0.9075 5.1429 -2.4173 0.9772
-1.3627 5.0406 -2.4170 0.9772
-1.8772 3.9593 -2.0282 0.9809
-2.6463 4.4948 -2.4144 0.9773
-3.0352 4.2384 -2.4131 0.9773
-3.3992 3.9481 -2.4115 0.9773
-3.7352 3.6263 -2.4098 0.9773
-4.0407 3.2759 -2.4078 0.9773
-4.3131 2.8997 -2.4057 0.9774
-5.2520 1.2543 -2.4994 0.9765
-5.3370 0.7798 -2.4966 0.9765
-5.3791 0.3000 -2.4938 0.9765
-5.2482 -1.1316 -2.4851 0.9766
-4.5007 -2.8836 -2.4742 0.9767
-4.2212 -3.2704 -2.4717 0.9767
-3.5660 -3.9615 -2.4672 0.9768
-3.1957 -4.2605 -2.4652 0.9768
-2.8007 -4.5254 -2.4634 0.9768
-1.0382 -5.2085 -2.4584 0.9769
-0.0917 -5.0876 -2.3554 0.9778
0.8142 -5.0226 -2.3553 0.9778
2.5229 -4.4253 -2.3579 0.9778
3.6116 -3.6056 -2.3622 0.9778
5.1899 -1.3164 -2.4784 0.9767
5.2925 -0.8489 -2.4811 0.9767
5.2793 1.0614 -2.4926 0.9765
5.0179 1.9875 -2.4983 0.9765
4.8259 2.4301 -2.5010 0.9765
4.5947 2.8541 -2.5037 0.9764
3.6852 3.9807 -2.5110 0.9764
3.3180 4.2973 -2.5131 0.9764
2.9235 4.5797 -2.5150 0.9763
2.0654 5.0328 -2.5182 0.9763
1.6088 5.1996 -2.5194 0.9763
1.0924 5.1078 -2.4178 0.9772
0.1670 5.2194 -2.4172 0.9772
-1.2215 5.0770 -2.4171 0.9772
-1.7698 4.0188 -2.0326 0.9808
-3.9487 3.3883 -2.4084 0.9773
-4.4802 2.6277 -2.4042 0.9774
-4.6922 2.2152 -2.4018 0.9774
-4.8738 1.7886 -2.4031 0.9774
-5.3706 0.4503 -2.4947 0.9765
-5.3831 -0.0308 -2.4918 0.9766
-5.3526 -0.5104 -2.4889 0.9766
-5.2796 -0.9850 -2.4860 0.9766
-5.1647 -1.4505 -2.4832 0.9766
-5.0090 -1.9035 -2.4804 0.9767
-4.5809 -2.7577 -2.4750 0.9767
-4.3121 -3.1523 -2.4725 0.9767
-4.0098 -3.5212 -2.4701 0.9768
-3.6762 -3.8614 -2.4679 0.9768
-3.3142 -4.1706 -2.4658 0.9768
-2.9266 -4.4464 -2.4640 0.9768
-2.5164 -4.6867 -2.4623 0.9768
-2.0869 -4.8896 -2.4609 0.9768
-0.6959 -5.1118 -2.3880 0.9775
-0.2341 -5.0927 -2.3598 0.9778
0.6736 -5.0433 -2.3552 0.9778
1.5599 -4.8447 -2.3559 0.9778
2.7908 -4.2635 -2.3587 0.9778
3.5087 -3.7042 -2.3617 0.9778
4.1178 -3.0262 -2.3654 0.9777
4.3754 -2.6490 -2.3676 0.9777
4.5987 -2.2501 -2.3698 0.9777
4.9932 -1.9119 -2.4749 0.9767
5.3388 -0.5227 -2.4831 0.9766
5.3590 0.4357 -2.4888 0.9766
4.8902 2.2936 -2.5002 0.9765
4.1207 3.5179 -2.5080 0.9764
3.0495 4.4953 -2.5144 0.9763
2.6380 4.7528 -2.5162 0.9763
0.7764 5.1626 -2.4165 0.9773
-0.1538 5.2202 -2.4174 0.9772
-0.6190 5.1857 -2.4174 0.9772
-1.0793 5.1093 -2.4172 0.9772
-2.3920 4.6369 -2.4151 0.9773
-3.1748 4.1333 -2.4125 0.9773
-4.1468 3.1376 -2.4070 0.9773
-4.6299 2.3461 -2.4026 0.9774
-4.8159 1.9216 -2.4001 0.9774
-5.1773 1.5466 -2.5012 0.9765
-5.2889 1.0773 -2.4984 0.9765
-5.3578 0.6003 -2.4956 0.9765
-5.3668 -0.3609 -2.4898 0.9766
-5.0620 -1.7635 -2.4812 0.9766
-4.8790 -2.2058 -2.4785 0.9767
-4.6576 -2.6295 -2.4758 0.9767
-4.3999 -3.0316 -2.4733 0.9767
-3.7836 -3.7583 -2.4686 0.9768
-3.0503 -4.3639 -2.4645 0.9768
-1.7821 -5.0068 -2.4600 0.9768
-0.8557 -5.1959 -2.4375 0.9771
1.8548 -4.7407 -2.3564 0.9778
2.2713 -4.5580 -2.3573 0.9778
3.0485 -4.0858 -2.3597 0.9778
3.4031 -3.7999 -2.3612 0.9778
3.7314 -3.4835 -2.3629 0.9778
4.8581 -2.0175 -2.4349 0.9771
5.1048 -1.6029 -2.4767 0.9767
5.1175 1.7031 -2.4965 0.9765
4.7437 2.5914 -2.5021 0.9765
4.4982 3.0076 -2.5047 0.9764
4.2161 3.4004 -2.5072 0.9764
3.8995 3.7667 -2.5096 0.9764
3.1731 4.4073 -2.5138 0.9763
2.7691 4.6763 -2.5156 0.9763
2.3422 4.9079 -2.5173 0.9763
1.4339 5.2515 -2.5198 0.9763
-0.0080 5.2223 -2.4173 0.9772
-0.9362 5.1377 -2.4173 0.9772
-1.3908 5.0328 -2.4169 0.9772
-1.8987 3.9474 -2.0276 0.9809
-3.0587 4.2212 -2.4130 0.9773
-3.4210 3.9288 -2.4114 0.9773
-3.7552 3.6052 -2.4096 0.9773
-4.7650 2.0573 -2.4024 0.9774
-5.3409 0.7499 -2.4965 0.9765
-5.3302 -0.6892 -2.4878 0.9766
-4.9404 -2.0694 -2.4793 0.9767
-4.4842 -2.9084 -2.4741 0.9767
-4.2026 -3.2937 -2.4716 0.9767
-3.8882 -3.6522 -2.4693 0.9768
-3.5437 -3.9812 -2.4671 0.9768
-2.3574 -4.7672 -2.4618 0.9768
-1.9215 -4.9558 -2.4604 0.9768
-1.4709 -5.1052 -2.4592 0.9769
-0.5172 -5.0629 -2.3557 0.9778
0.3910 -5.0730 -2.3552 0.9778
0.8422 -5.0180 -2.3553 0.9778
1.2868 -4.9235 -2.3556 0.9778
1.7215 -4.7902 -2.3562 0.9778
2.5476 -4.4113 -2.3580 0.9778
3.9404 -3.2496 -2.3642 0.9777
4.4632 -2.5018 -2.3684 0.9777
5.2975 -0.8194 -2.4813 0.9766
5.3556 -0.3437 -2.4841 0.9766
5.3711 0.1357 -2.4870 0.9766
5.3438 0.6152 -2.4899 0.9766
5.1612 1.5590 -2.4956 0.9765
5.0071 2.0157 -2.4985 0.9765
4.5790 2.8799 -2.5039 0.9764
4.0020 3.6553 -2.5088 0.9764
3.6631 4.0014 -2.5111 0.9764
2.8980 4.5962 -2.5151 0.9763
1.5798 5.2087 -2.5195 0.9763
1.0631 5.1102 -2.4161 0.9773
0.6030 5.1862 -2.4168 0.9772
0.1378 5.2203 -2.4172 0.9772
-0.3286 5.2122 -2.4174 0.9772
-1.2498 5.0700 -2.4171 0.9772
-1.6969 4.9371 -2.4165 0.9773
-2.5456 4.5534 -2.4147 0.9773
-2.9402 4.3057 -2.4134 0.9773
-3.3107 4.0237 -2.4119 0.9773
-4.4945 2.6025 -2.4040 0.9774
-4.9044 1.7688 -2.4133 0.9773
-5.3197 0.8991 -2.4973 0.9765
-5.3726 0.4203 -2.4945 0.9765
-5.3825 -0.0608 -2.4916 0.9766
-5.3493 -0.5403 -2.4887 0.9766
-4.9979 -1.9313 -2.4802 0.9767
-4.8004 -2.3670 -2.4775 0.9767
-4.5651 -2.7830 -2.4748 0.9767
-3.9898 -3.5433 -2.4700 0.9768
-3.2907 -4.1889 -2.4657 0.9768
-2.0595 -4.9011 -2.4608 0.9768
-1.1544 -5.1845 -2.4586 0.9769
-0.6649 -5.0971 -2.3793 0.9776
2.4231 -4.4800 -2.3576 0.9778
2.8147 -4.2480 -2.3588 0.9778
3.5295 -3.6847 -2.3618 0.9778
4.1349 -3.0033 -2.3656 0.9777
4.3904 -2.6247 -2.3677 0.9777
5.2707 -0.9666 -2.4804 0.9767
5.3420 -0.4930 -2.4832 0.9766
5.2008 1.4138 -2.4947 0.9765
4.8776 2.3210 -2.5004 0.9765
4.6560 2.7500 -2.5031 0.9764
4.3966 3.1578 -2.5056 0.9764
3.7723 3.8965 -2.5104 0.9764
3.4125 4.2212 -2.5126 0.9764
3.0245 4.5124 -2.5145 0.9763
2.6115 4.7677 -2.5163 0.9763
1.7243 5.1618 -2.5191 0.9763
1.2275 5.1715 -2.4603 0.9768
0.7475 5.1669 -2.4166 0.9773
0.2835 5.2141 -2.4171 0.9772
-0.1830 5.2193 -2.4174 0.9772
-0.6480 5.1822 -2.4174 0.9772
-2.4178 4.6233 -2.4150 0.9773
-3.1977 4.1154 -2.4124 0.9773
-3.5498 3.8110 -2.4108 0.9773
-4.4214 2.7278 -2.4047 0.9774
-5.1855 1.5176 -2.5010 0.9765
-5.3840 0.0895 -2.4925 0.9765
-5.3643 -0.3909 -2.4896 0.9766
-5.3018 -0.8670 -2.4867 0.9766
-4.8662 -2.2328 -2.4783 0.9767
-4.3826 -3.0559 -2.4731 0.9767
-4.0884 -3.4315 -2.4707 0.9767
-2.1959 -4.8425 -2.4612 0.9768
-1.7541 -5.0165 -2.4599 0.9768
-1.2988 -5.1508 -2.4589 0.9769
-0.8231 -5.1776 -2.4267 0.9772
-0.3473 -5.0770 -2.3556 0.9778
1.0099 -4.9872 -2.3554 0.9778
1.4512 -4.8780 -2.3558 0.9778
1.8812 -4.7304 -2.3564 0.9778
3.7510 -3.4628 -2.3630 0.9777
4.0483 -3.1168 -2.3649 0.9777
4.3141 -2.7455 -2.3670 0.9777
4.8911 -1.9992 -2.4458 0.9770
5.3664 -0.1642 -2.4852 0.9766
5.2364 1.2675 -2.4939 0.9765
4.9388 2.1832 -2.4995 0.9765
4.7294 2.6181 -2.5022 0.9765
4.1972 3.4241 -2.5074 0.9764
3.8786 3.7886 -2.5097 0.9764
2.7431 4.6919 -2.5157 0.9763
1.8675 5.1109 -2.5187 0.9763
0.4290 5.2039 -2.4170 0.9772
-0.0371 5.2222 -2.4173 0.9772
-0.9649 5.1323 -2.4173 0.9772
-4.7944 2.0383 -2.4115 0.9773
-5.1018 1.6491 -2.4818 0.9766
-5.3446 0.7200 -2.4963 0.9765
-5.3751 -0.2410 -2.4905 0.9766
-5.3259 -0.7189 -2.4876 0.9766
-5.2344 -1.1900 -2.4848 0.9766
-4.9284 -2.0968 -2.4792 0.9767
-4.4676 -2.9333 -2.4739 0.9767
-4.1839 -3.3170 -2.4714 0.9767
-3.8675 -3.6737 -2.4691 0.9768
-2.7497 -4.5560 -2.4632 0.9768
-2.3306 -4.7801 -2.4617 0.9768
-1.4423 -5.1132 -2.4592 0.9769
0.4194 -5.0707 -2.3552 0.9778
2.5723 -4.3971 -2.3581 0.9778
3.9587 -3.2277 -2.3643 0.9777
5.0664 -1.7161 -2.4760 0.9767
5.2049 -1.2585 -2.4787 0.9767
5.3024 -0.7898 -2.4815 0.9766
5.3706 0.1658 -2.4872 0.9766
5.3406 0.6451 -2.4901 0.9766
5.2679 1.1204 -2.4930 0.9765
4.9961 2.0437 -2.4986 0.9765
4.7991 2.4842 -2.5014 0.9765
4.5631 2.9056 -2.5040 0.9764
4.2899 3.3046 -2.5066 0.9764
3.9817 3.6778 -2.5090 0.9764
3.2701 4.3345 -2.5133 0.9764
2.4509 4.8536 -2.5169 0.9763
1.0346 5.1162 -2.4161 0.9773
0.5741 5.1895 -2.4168 0.9772
-0.8212 5.1574 -2.4174 0.9772
-1.7244 4.9275 -2.4165 0.9773
-1.8128 3.9950 -2.0307 0.9808
-2.9641 4.2891 -2.4133 0.9773
-3.6744 3.6889 -2.4101 0.9773
-3.9859 3.3436 -2.4082 0.9773
-4.2647 2.9720 -2.4061 0.9773
-4.5087 2.5772 -2.4039 0.9774
-4.7160 2.1624 -2.4015 0.9774
-4.9352 1.7488 -2.4236 0.9772
-5.2313 1.3425 -2.5000 0.9765
-5.3817 -0.0909 -2.4914 0.9766
-5.3458 -0.5701 -2.4885 0.9766
-5.2675 -1.0437 -2.4857 0.9766
-4.7868 -2.3936 -2.4773 0.9767
-4.5492 -2.8083 -2.4747 0.9767
-3.9697 -3.5653 -2.4698 0.9768
-3.6325 -3.9018 -2.4676 0.9768
-3.2671 -4.2070 -2.4656 0.9768
-2.8765 -4.4784 -2.4638 0.9768
-2.0320 -4.9123 -2.4607 0.9768
-1.5847 -5.0716 -2.4595 0.9769
-1.1254 -5.1908 -2.4585 0.9769
-0.6342 -5.0824 -2.3708 0.9777
0.2776 -5.0805 -2.3552 0.9778
0.7299 -5.0355 -2.3552 0.9778
1.1765 -4.9508 -2.3555 0.9778
1.6140 -4.8271 -2.3560 0.9778
2.4482 -4.4666 -2.3577 0.9778
2.8384 -4.2324 -2.3589 0.9778
3.2067 -3.9646 -2.3603 0.9778
3.5502 -3.6651 -2.3619 0.9778
4.6242 -2.1989 -2.3701 0.9777
5.0149 -1.8563 -2.4752 0.9767
5.3712 0.0157 -2.4863 0.9766
5.3546 0.4956 -2.4892 0.9766
5.1932 1.4429 -2.4949 0.9765
5.0495 1.9028 -2.4978 0.9765
4.8649 2.3484 -2.5005 0.9765
4.6409 2.7762 -2.5032 0.9764
4.0817 3.5641 -2.5083 0.9764
3.7508 3.9177 -2.5106 0.9764
3.3890 4.2404 -2.5127 0.9764
2.9994 4.5295 -2.5146 0.9763
-0.2121 5.2182 -2.4174 0.9772
-0.6770 5.1785 -2.4174 0.9772
-1.1363 5.0969 -2.4172 0.9772
-1.5862 4.9741 -2.4167 0.9773
-2.8437 4.3709 -2.4137 0.9773
-3.2205 4.0973 -2.4123 0.9773
-3.5709 3.7909 -2.4107 0.9773
-3.8919 3.4545 -2.4088 0.9773
-4.1812 3.0908 -2.4068 0.9773
-4.4363 2.7029 -2.4046 0.9774
-4.6553 2.2940 -2.4023 0.9774
-4.8364 1.8674 -2.3998 0.9774
-5.2998 1.0180 -2.4980 0.9765
-5.3840 0.0595 -2.4923 0.9765
-5.2965 -0.8965 -2.4866 0.9766
-5.0412 -1.8197 -2.4809 0.9767
-4.8534 -2.2598 -2.4781 0.9767
-4.0689 -3.4540 -2.4706 0.9767
-3.7410 -3.7999 -2.4683 0.9768
-3.3841 -4.1152 -2.4662 0.9768
-3.0011 -4.3973 -2.4643 0.9768
-1.7260 -5.0261 -2.4599 0.9768
-1.2700 -5.1579 -2.4588 0.9769
-0.7907 -5.1595 -2.4162 0.9773
-0.3189 -5.0788 -2.3555 0.9778
1.0377 -4.9815 -2.3554 0.9778
1.4785 -4.8699 -2.3558 0.9778
1.9077 -4.7199 -2.3565 0.9778
2.7187 -4.3093 -2.3585 0.9778
3.0942 -4.0518 -2.3598 0.9778
4.0658 -3.0943 -2.3651 0.9777
4.3296 -2.7215 -2.3672 0.9777
4.5596 -2.3264 -2.3694 0.9777
4.9243 -1.9808 -2.4569 0.9769
5.1231 -1.5460 -2.4770 0.9767
5.2464 -1.0838 -2.4797 0.9767
5.3183 0.8241 -2.4911 0.9766
4.9269 2.2109 -2.4997 0.9765
4.7151 2.6446 -2.5024 0.9765
4.4649 3.0580 -2.5050 0.9764
4.1783 3.4477 -2.5075 0.9764
3.1240 4.4429 -2.5140 0.9763
2.7170 4.7074 -2.5158 0.9763
-0.0663 5.2220 -2.4173 0.9772
-1.4468 5.0169 -2.4169 0.9772
-1.8883 4.8664 -2.4162 0.9773
-1.9415 3.9236 -2.0264 0.9809
-2.7210 4.4494 -2.4141 0.9773
-3.1054 4.1864 -2.4128 0.9773
-3.4644 3.8900 -2.4112 0.9773
-3.7949 3.5627 -2.4094 0.9773
-4.5908 2.4238 -2.4030 0.9774
-4.7840 2.0024 -2.4006 0.9774
-5.1376 1.6290 -2.4948 0.9765
-5.3482 0.6901 -2.4961 0.9765
-5.3733 -0.2710 -2.4904 0.9766
-5.3214 -0.7486 -2.4875 0.9766
-5.2273 -1.2191 -2.4846 0.9766
-4.7020 -2.5516 -2.4763 0.9767
-4.4509 -2.9580 -2.4737 0.9767
-4.1650 -3.3401 -2.4713 0.9767
-3.8468 -3.6950 -2.4690 0.9768
-3.4986 -4.0201 -2.4668 0.9768
-3.1234 -4.3128 -2.4649 0.9768
-2.7241 -4.5711 -2.4631 0.9768
-2.3038 -4.7929 -2.4616 0.9768
-1.4137 -5.1210 -2.4591 0.9769
-0.4606 -5.0682 -2.3557 0.9778
-0.0065 -5.0883 -2.3553 0.9778
0.4477 -5.0683 -2.3552 0.9778
1.3418 -4.9090 -2.3556 0.9778
2.1945 -4.5950 -2.3571 0.9778
2.9793 -4.1358 -2.3594 0.9778
4.5020 -2.4579 -2.3743 0.9776
5.3071 -0.7603 -2.4816 0.9766
5.3700 0.1957 -2.4874 0.9766
5.3373 0.6750 -2.4902 0.9766
5.2619 1.1499 -2.4931 0.9765
4.2717 3.3287 -2.5067 0.9764
2.4239 4.8674 -2.5170 0.9763
1.5216 5.2263 -2.5196 0.9763
1.0061 5.1220 -2.4162 0.9773
-0.3868 5.2082 -2.4174 0.9772
-0.8500 5.1527 -2.4174 0.9772
-1.7518 4.9177 -2.4164 0.9773
-2.5961 4.5244 -2.4145 0.9773
-3.6948 3.6682 -2.4100 0.9773
-4.7277 2.1359 -2.4014 0.9774
-5.3762 0.3602 -2.4941 0.9765
-5.3422 -0.5999 -2.4884 0.9766
-5.1386 -1.5365 -2.4826 0.9766
-4.7730 -2.4202 -2.4771 0.9767
-4.5332 -2.8335 -2.4745 0.9767
-4.2580 -3.2235 -2.4720 0.9767
-3.9495 -3.5872 -2.4697 0.9768
-3.6104 -3.9218 -2.4675 0.9768
-3.2434 -4.2249 -2.4655 0.9768
-2.8513 -4.4942 -2.4637 0.9768
-2.0045 -4.9234 -2.4606 0.9768
-1.0963 -5.1968 -2.4585 0.9769
-0.6036 -5.0679 -2.3624 0.9778
0.3060 -5.0788 -2.3552 0.9778
0.7580 -5.0314 -2.3552 0.9778
1.6409 -4.8181 -2.3560 0.9778
3.8848 -3.3147 -2.3638 0.9777
4.1686 -2.9573 -2.3658 0.9777
4.4199 -2.5758 -2.3680 0.9777
5.0255 -1.8283 -2.4754 0.9767
5.2819 -0.9078 -2.4808 0.9767
5.2900 1.0022 -2.4922 0.9765
5.1854 1.4720 -2.4951 0.9765
4.3616 3.2071 -2.5060 0.9764
3.3655 4.2595 -2.5128 0.9764
2.9742 4.5464 -2.5147 0.9763
2.1213 5.0091 -2.5180 0.9763
1.6667 5.1810 -2.5193 0.9763
-0.2412 5.2169 -2.4174 0.9772
-0.7058 5.1746 -2.4174 0.9772
-1.1647 5.0904 -2.4172 0.9772
-4.8465 1.8403 -2.3996 0.9774
-5.3660 0.5103 -2.4950 0.9765
-5.3839 0.0294 -2.4922 0.9765
-5.3588 -0.4507 -2.4893 0.9766
-5.1813 -1.3930 -2.4835 0.9766
-5.0306 -1.8477 -2.4807 0.9767
-4.6120 -2.7066 -2.4753 0.9767
-4.3477 -3.1043 -2.4728 0.9767
-3.7195 -3.8205 -2.4682 0.9768
-3.3609 -4.1338 -2.4661 0.9768
-2.5688 -4.6587 -2.4625 0.9768
-2.1415 -4.8664 -2.4610 0.9768
-1.6978 -5.0355 -2.4598 0.9768
-0.7586 -5.1416 -2.4057 0.9774
-0.2905 -5.0804 -2.3555 0.9778
1.5056 -4.8617 -2.3558 0.9778
3.1169 -4.0346 -2.3599 0.9778
4.5727 -2.3011 -2.3695 0.9777
4.9579 -1.9622 -2.4681 0.9768
5.3318 -0.5823 -2.4827 0.9766
5.3628 0.3757 -2.4884 0.9766
5.3140 0.8538 -2.4913 0.9766
5.2227 1.3262 -2.4942 0.9765
4.1593 3.4712 -2.5077 0.9764
3.8365 3.8321 -2.5100 0.9764
3.0993 4.4605 -2.5142 0.9763
2.2600 4.9470 -2.5175 0.9763
1.8105 5.1317 -2.5189 0.9763
0.8369 5.1713 -2.4249 0.9772
-0.0955 5.2215 -2.4174 0.9772
-1.9154 4.8557 -2.4161 0.9773
-3.4859 3.8705 -2.4111 0.9773
-4.3758 2.8019 -2.4052 0.9774
-4.6040 2.3980 -2.4029 0.9774
-4.7947 1.9755 -2.4004 0.9774
-5.1604 1.6046 -2.5015 0.9765
-5.3829 0.1798 -2.4931 0.9765
-5.2201 -1.2481 -2.4844 0.9766
-4.6873 -2.5777 -2.4761 0.9767
-4.1461 -3.3631 -2.4711 0.9767
-3.8258 -3.7162 -2.4688 0.9768
-2.2770 -4.8055 -2.4615 0.9768
-1.8380 -4.9869 -2.4602 0.9768
-1.3850 -5.1287 -2.4591 0.9769
0.0220 -5.0882 -2.3553 0.9778
0.9262 -5.0033 -2.3553 0.9778
2.6214 -4.3684 -2.3582 0.9778
3.0024 -4.1193 -2.3595 0.9778
3.3602 -3.8373 -2.3610 0.9778
4.5053 -2.4271 -2.3688 0.9777
4.7949 -2.0544 -2.4146 0.9773
5.0859 -1.6596 -2.4764 0.9767
5.2194 -1.2004 -2.4791 0.9767
5.3618 -0.2540 -2.4847 0.9766
5.2558 1.1794 -2.4933 0.9765
5.1354 1.6456 -2.4962 0.9765
4.9737 2.0997 -2.4990 0.9765
4.7717 2.5379 -2.5017 0.9765
3.5961 4.0629 -2.5115 0.9764
3.2218 4.3712 -2.5136 0.9763
2.8210 4.6447 -2.5154 0.9763
2.3968 4.8811 -2.5171 0.9763
1.9527 5.0784 -2.5185 0.9763
1.4924 5.2349 -2.5197 0.9763
0.5161 5.1958 -2.4169 0.9772
0.0504 5.2220 -2.4173 0.9772
-1.3345 5.0482 -2.4170 0.9772
-1.7792 4.9077 -2.4164 0.9773
-2.6213 4.5096 -2.4145 0.9773
-3.3772 3.9671 -2.4116 0.9773
-3.7151 3.6473 -2.4099 0.9773
-4.5366 2.5264 -2.4036 0.9774
-4.7393 2.1093 -2.4012 0.9774
-5.3329 0.8096 -2.4968 0.9765
-5.3777 0.3301 -2.4940 0.9765
-5.3384 -0.6297 -2.4882 0.9766
-4.9639 -2.0143 -2.4797 0.9767
-4.7591 -2.4466 -2.4770 0.9767
-3.5883 -3.9418 -2.4674 0.9768
-2.8261 -4.5099 -2.4635 0.9768
-2.4107 -4.7410 -2.4619 0.9768
-1.5279 -5.0887 -2.4594 0.9769
-1.0673 -5.2028 -2.4584 0.9769
0.7861 -5.0271 -2.3552 0.9778
2.0910 -4.6424 -2.3568 0.9778
2.4980 -4.4392 -2.3578 0.9778
3.2511 -3.9288 -2.3605 0.9778
3.9034 -3.2931 -2.3640 0.9777
4.6496 -2.1477 -2.3707 0.9777
5.0360 -1.8004 -2.4756 0.9767
5.1821 -1.3453 -2.4782 0.9767
5.2873 -0.8784 -2.4810 0.9767
5.3507 -0.4035 -2.4838 0.9766
5.3715 0.0757 -2.4866 0.9766
5.3495 0.5554 -2.4895 0.9766
5.0286 1.9593 -2.4981 0.9765
4.3439 3.2317 -2.5061 0.9764
3.3418 4.2784 -2.5129 0.9764
2.5316 4.8113 -2.5166 0.9763
2.0934 5.0210 -2.5181 0.9763
1.6378 5.1904 -2.5193 0.9763
0.1961 5.2183 -2.4172 0.9772
-0.7347 5.1705 -2.4174 0.9772
-3.6126 3.7505 -2.4104 0.9773
-4.6800 2.2416 -2.4020 0.9774
-5.2092 1.4302 -2.5005 0.9765
-5.3101 0.9585 -2.4977 0.9765
-5.3684 0.4803 -2.4949 0.9765
-5.3836 -0.0007 -2.4920 0.9765
-5.3558 -0.4806 -2.4891 0.9766
-5.0199 -1.8756 -2.4805 0.9767
-4.8272 -2.3135 -2.4778 0.9767
-4.3300 -3.1283 -2.4726 0.9767
-3.6979 -3.8411 -2.4680 0.9768
-2.1142 -4.8781 -2.4610 0.9768
-1.2122 -5.1715 -2.4587 0.9769
-0.7271 -5.1266 -2.3968 0.9774
-0.2634 -5.1068 -2.3670 0.9777
0.1924 -5.0845 -2.3552 0.9778
0.6454 -5.0470 -2.3552 0.9778
1.5328 -4.8533 -2.3559 0.9778
1.9604 -4.6985 -2.3566 0.9778
2.7669 -4.2789 -2.3587 0.9778
3.1395 -4.0173 -2.3600 0.9778
3.4878 -3.7236 -2.3616 0.9778
3.8090 -3.4000 -2.3634 0.9777
4.5858 -2.2757 -2.3697 0.9777
4.9821 -1.9397 -2.4747 0.9767
5.1407 -1.4889 -2.4774 0.9767
5.2588 -1.0253 -2.4801 0.9767
5.3696 -0.0743 -2.4857 0.9766
5.3610 0.4057 -2.4886 0.9766
5.3096 0.8835 -2.4915 0.9766
5.2155 1.3554 -2.4944 0.9765
4.4310 3.1081 -2.5053 0.9764
4.1401 3.4946 -2.5078 0.9764
3.8152 3.8537 -2.5101 0.9764
3.4591 4.1824 -2.5123 0.9764
1.7818 5.1419 -2.5190 0.9763
0.3418 5.2106 -2.4171 0.9772
-0.1247 5.2209 -2.4174 0.9772
-1.5028 5.0002 -2.4168 0.9772
-1.9424 4.8448 -2.4161 0.9773
-2.7704 4.4184 -2.4140 0.9773
-3.5073 3.8508 -2.4110 0.9773
-4.1295 3.1609 -2.4072 0.9773
-4.3912 2.7773 -2.4050 0.9774
-5.3548 0.6302 -2.4957 0.9765
-5.3835 0.1497 -2.4929 0.9765
-5.3120 -0.8078 -2.4871 0.9766
-5.2127 -1.2772 -2.4842 0.9766
-4.8916 -2.1786 -2.4786 0.9767
-4.4170 -3.0072 -2.4734 0.9767
-4.1270 -3.3860 -2.4710 0.9767
-3.0747 -4.3470 -2.4647 0.9768
-2.6726 -4.6008 -2.4629 0.9768
-1.8101 -4.9969 -2.4601 0.9768
-1.3563 -5.1362 -2.4590 0.9769
-0.4040 -5.0729 -2.3556 0.9778
0.0504 -5.0880 -2.3553 0.9778
0.9541 -4.9981 -2.3553 0.9778
1.8282 -4.7509 -2.3563 0.9778
2.2457 -4.5705 -2.3572 0.9778
2.6459 -4.3538 -2.3583 0.9778
3.3817 -3.8187 -2.3611 0.9778
3.7117 -3.5042 -2.3628 0.9778
4.0129 -3.1614 -2.3647 0.9777
4.2827 -2.7932 -2.3668 0.9777
4.5191 -2.4021 -2.3690 0.9777
4.8254 -2.0356 -2.4242 0.9772
5.2264 -1.1713 -2.4792 0.9767
5.3160 -0.7010 -2.4820 0.9766
5.3635 -0.2241 -2.4848 0.9766
5.3683 0.2558 -2.4877 0.9766
5.2495 1.2088 -2.4935 0.9765
5.1265 1.6744 -2.4964 0.9765
4.7578 2.5647 -2.5019 0.9765
3.9202 3.7446 -2.5094 0.9764
3.1975 4.3893 -2.5137 0.9763
2.7951 4.6606 -2.5155 0.9763
1.9244 5.0894 -2.5186 0.9763
1.4632 5.2432 -2.5197 0.9763
-1.8748 3.9541 -2.1466 0.9807
-2.8624 3.9970 -2.4115 0.9783
-3.8111 3.0897 -2.4066 0.9784
-4.8345 1.6225 -2.5014 0.9775
-5.0354 0.7357 -2.4962 0.9776
-4.8326 -1.5040 -2.4827 0.9777
-4.6742 -1.9273 -2.4800 0.9777
-4.4789 -2.3343 -2.4775 0.9777
-3.6902 -3.4276 -2.4705 0.9778
-3.0173 -4.0226 -2.4666 0.9778
-2.6444 -4.2729 -2.4649 0.9779
-0.5374 -4.9851 -2.4595 0.9779
-0.0866 -4.8044 -2.3570 0.9788
0.3425 -4.7926 -2.3569 0.9788
1.9991 -4.3729 -2.3585 0.9788
2.3823 -4.1787 -2.3595 0.9788
3.0905 -3.6926 -2.3620 0.9788
3.9733 -2.7525 -2.3710 0.9787
4.2098 -2.3908 -2.3748 0.9787
4.5906 -2.0894 -2.4741 0.9778
4.8986 -1.2425 -2.4790 0.9777
4.9952 -0.8012 -2.4816 0.9777
5.0521 -0.3526 -2.4842 0.9777
5.0454 0.5523 -2.4897 0.9776
4.9814 1.0015 -2.4924 0.9776
4.7342 1.8751 -2.4978 0.9776
4.5527 2.2925 -2.5004 0.9775
4.0807 3.0714 -2.5053 0.9775
2.7571 4.3191 -2.5135 0.9774
2.3622 4.5509 -2.5151 0.9774
1.5171 4.9033 -2.5177 0.9774
0.1574 4.9217 -2.4154 0.9783
-1.1518 4.7874 -2.4153 0.9783
-2.7501 4.0761 -2.4119 0.9783
-3.1011 3.8122 -2.4105 0.9783
-3.4267 3.5179 -2.4089 0.9784
-3.7242 3.1957 -2.4072 0.9784
-4.2259 2.4786 -2.4031 0.9784
-4.4262 2.0896 -2.4009 0.9784
-5.0146 0.8763 -2.4970 0.9776
-5.0795 -0.0290 -2.4916 0.9776
-5.0511 -0.4817 -2.4889 0.9776
-4.9825 -0.9295 -2.4862 0.9777
-4.7277 -1.7966 -2.4809 0.9777
-3.4708 -3.6456 -2.4691 0.9778
-1.5499 -4.7723 -2.4613 0.9779
-1.1174 -4.8897 -2.4603 0.9779
-0.6764 -4.9685 -2.4596 0.9779
-0.2230 -4.8509 -2.3820 0.9786
0.6361 -4.7626 -2.3569 0.9788
1.0587 -4.6873 -2.3571 0.9788
1.4730 -4.5749 -2.3576 0.9788
1.8760 -4.4265 -2.3583 0.9788
2.9857 -3.7767 -2.3616 0.9788
3.3129 -3.4974 -2.3631 0.9788
3.6144 -3.1901 -2.3647 0.9788
3.8877 -2.8571 -2.3666 0.9787
4.1306 -2.5008 -2.3686 0.9787
4.5144 -2.2089 -2.4653 0.9779
5.0387 -0.4934 -2.4834 0.9777
5.0571 0.4111 -2.4888 0.9776
4.9142 1.3064 -2.4943 0.9776
3.5783 3.6551 -2.5091 0.9775
3.2405 3.9630 -2.5111 0.9775
2.4879 4.4823 -2.5146 0.9774
1.6532 4.8584 -2.5173 0.9774
1.2135 4.9885 -2.5183 0.9774
0.7378 4.9060 -2.4335 0.9781
0.2948 4.9151 -2.4153 0.9783
-0.1450 4.9224 -2.4156 0.9783
-0.5837 4.8899 -2.4156 0.9783
-1.0177 4.8179 -2.4154 0.9783
-1.4434 4.7070 -2.4150 0.9783
-1.8571 4.5582 -2.4143 0.9783
-2.9940 3.8980 -2.4110 0.9783
-3.3278 3.6130 -2.4095 0.9784
-4.1562 2.5963 -2.4038 0.9784
-4.6971 1.8742 -2.4807 0.9777
-4.8843 1.4591 -2.5005 0.9775
-5.0801 0.1129 -2.4925 0.9776
-5.0643 -0.3406 -2.4898 0.9776
-5.0082 -0.7903 -2.4870 0.9777
-4.9123 -1.2328 -2.4843 0.9777
-4.7776 -1.6644 -2.4817 0.9777
-4.6052 -2.0820 -2.4791 0.9777
-3.8779 -3.2180 -2.4719 0.9778
-3.2386 -3.8497 -2.4677 0.9778
-2.8800 -4.1204 -2.4659 0.9779
-2.4992 -4.3580 -2.4643 0.9779
-2.0990 -4.5610 -2.4628 0.9779
-1.6828 -4.7278 -2.4616 0.9779
-1.2536 -4.8571 -2.4606 0.9779
-0.8149 -4.9480 -2.4598 0.9779
-0.3643 -4.9224 -2.4212 0.9782
0.5029 -4.7784 -2.3569 0.9788
1.7515 -4.4767 -2.3580 0.9788
2.1447 -4.3041 -2.3588 0.9788
2.8785 -3.8579 -2.3611 0.9788
