ply
format ascii 1.0
element vertex 1595
property float32 x
property float32 y
property float32 z
property float32 I
end_header
3.1789 4.0900 -2.3978 0.9774
1.9845 4.7902 -2.4001 0.9774
1.5497 4.9492 -2.4006 0.9774
1.1022 5.0685 -2.4010 0.9774
-0.2790 5.1805 -2.4015 0.9774
-1.6401 4.9205 -2.4008 0.9774
-2.0721 4.7537 -2.4003 0.9774
-2.4872 4.5488 -2.3998 0.9774
-3.3945 4.2062 -2.5019 0.9765
-3.7547 3.8852 -2.5010 0.9765
-4.6431 2.7489 -2.4976 0.9765
-4.8673 2.3226 -2.4964 0.9765
-5.0524 1.8782 -2.4951 0.9765
-5.1970 1.4193 -2.4937 0.9765
-5.3604 0.4728 -2.4909 0.9766
-5.0244 -1.8831 -2.4837 0.9766
-4.6050 -2.7429 -2.4811 0.9767
-4.0405 -3.5141 -2.4787 0.9767
-2.8396 -4.2684 -2.3730 0.9777
-2.4467 -4.5033 -2.3723 0.9777
-2.0347 -4.7023 -2.3717 0.9777
-1.6069 -4.8639 -2.3711 0.9777
-1.1664 -4.9870 -2.3707 0.9777
-0.2617 -5.1139 -2.3702 0.9777
0.1954 -5.1167 -2.3702 0.9777
0.6688 -5.2175 -2.4348 0.9771
1.6103 -5.0949 -2.4734 0.9767
2.0587 -4.9319 -2.4738 0.9767
2.9037 -4.4899 -2.4750 0.9767
3.6577 -3.9052 -2.4767 0.9767
4.8011 -2.3838 -2.4812 0.9766
5.1537 -1.4944 -2.4839 0.9766
5.2694 -1.0294 -2.4853 0.9766
5.3433 -0.5555 -2.4867 0.9766
5.3747 -0.0768 -2.4881 0.9766
5.3632 0.4031 -2.4896 0.9766
5.3090 0.8804 -2.4910 0.9766
5.2123 1.3512 -2.4924 0.9765
4.9946 1.7835 -2.4549 0.9769
4.6920 2.1647 -2.3919 0.9775
4.4826 2.5760 -2.3931 0.9775
4.2370 2.9671 -2.3943 0.9775
3.9574 3.3347 -2.3955 0.9774
3.6458 3.6760 -2.3965 0.9774
3.3047 3.9882 -2.3975 0.9774
2.9369 4.2686 -2.3984 0.9774
1.2600 5.0313 -2.4009 0.9774
0.3461 5.1763 -2.4014 0.9774
-1.4856 4.9696 -2.4009 0.9774
-3.2617 4.3108 -2.5022 0.9765
-3.9728 3.6598 -2.5003 0.9765
-4.2815 3.2895 -2.4992 0.9765
-4.7932 2.4740 -2.4968 0.9765
-4.9922 2.0356 -2.4955 0.9765
-5.1511 1.5813 -2.4942 0.9765
-5.3767 0.1609 -2.4899 0.9766
-5.3665 -0.3191 -2.4885 0.9766
-5.3136 -0.7961 -2.4870 0.9766
-5.2184 -1.2661 -2.4856 0.9766
-5.0818 -1.7255 -2.4842 0.9766
-4.6893 -2.5982 -2.4815 0.9766
-4.4366 -3.0046 -2.4803 0.9767
-4.1490 -3.3867 -2.4791 0.9767
-2.9719 -4.1781 -2.3733 0.9777
-2.5865 -4.4251 -2.3725 0.9777
-0.4214 -5.1033 -2.3703 0.9777
0.0354 -5.1204 -2.3702 0.9777
2.3417 -4.8048 -2.4742 0.9767
2.7617 -4.5780 -2.4748 0.9767
3.1600 -4.3147 -2.4756 0.9767
3.8792 -3.6873 -2.4774 0.9767
4.9330 -2.1019 -2.4820 0.9766
5.1035 -1.6544 -2.4834 0.9766
5.3685 -0.2446 -2.4876 0.9766
5.3721 0.2353 -2.4891 0.9766
5.3328 0.7139 -2.4905 0.9766
5.1270 1.6520 -2.4934 0.9765
4.7564 2.0167 -2.3914 0.9775
4.3269 2.8327 -2.3939 0.9775
4.0590 3.2089 -2.3951 0.9775
3.7583 3.5598 -2.3962 0.9774
2.2794 4.6560 -2.3996 0.9774
-0.8773 5.1130 -2.4013 0.9774
-2.6211 4.5025 -2.4116 0.9773
-3.5056 4.1133 -2.5017 0.9765
-5.1001 1.7418 -2.4947 0.9765
-5.3369 -0.6297 -2.4875 0.9766
-4.9713 -2.0168 -2.4833 0.9766
-4.5291 -2.8650 -2.4807 0.9767
-4.2534 -3.2560 -2.4795 0.9767
-3.9094 -3.5886 -2.4564 0.9769
-2.7238 -4.3426 -2.3728 0.9777
-1.9078 -4.7548 -2.3715 0.9777
-1.4758 -4.9050 -2.3710 0.9777
-0.5807 -5.0878 -2.3703 0.9777
0.3326 -5.1111 -2.3708 0.9777
0.8199 -5.2713 -2.4693 0.9768
1.2887 -5.1851 -2.4731 0.9767
2.6170 -4.6616 -2.4746 0.9767
3.0232 -4.4108 -2.4753 0.9767
3.4057 -4.1250 -2.4761 0.9767
4.0877 -3.4570 -2.4780 0.9767
5.1928 -1.3560 -2.4843 0.9766
5.2961 -0.8879 -2.4857 0.9766
5.3572 -0.4122 -2.4871 0.9766
5.3757 0.0673 -2.4885 0.9766
5.1751 1.4907 -2.4929 0.9765
4.6330 2.2901 -2.3922 0.9775
3.1970 4.0758 -2.3978 0.9774
2.8217 4.3463 -2.3986 0.9774
2.4236 4.5821 -2.3994 0.9774
1.5716 4.9422 -2.4006 0.9774
1.1247 5.0635 -2.4010 0.9774
0.6687 5.1443 -2.4013 0.9774
0.2072 5.1838 -2.4014 0.9774
-0.2560 5.1817 -2.4015 0.9774
-0.7171 5.1380 -2.4014 0.9774
-1.1724 5.0531 -2.4012 0.9774
-1.6183 4.9277 -2.4008 0.9774
-2.0510 4.7629 -2.4004 0.9774
-2.9868 4.5071 -2.5028 0.9764
-3.7375 3.9020 -2.5010 0.9765
-4.6310 2.7696 -2.4977 0.9765
-5.1908 1.4424 -2.4938 0.9765
-5.2957 0.9731 -2.4924 0.9765
-5.3583 0.4966 -2.4909 0.9766
-5.3782 0.0167 -2.4895 0.9766
-4.6173 -2.7226 -2.4811 0.9767
-4.3538 -3.1220 -2.4799 0.9767
-3.2279 -3.9854 -2.3739 0.9776
-2.8585 -4.2558 -2.3731 0.9777
-2.0556 -4.6933 -2.3717 0.9777
-1.6285 -4.8568 -2.3711 0.9777
-0.2844 -5.1127 -2.3702 0.9777
0.6442 -5.2087 -2.4294 0.9771
1.1261 -5.2226 -2.4730 0.9767
1.5876 -5.1020 -2.4733 0.9767
2.0367 -4.9409 -2.4738 0.9767
2.4698 -4.7406 -2.4743 0.9767
3.2748 -4.2289 -2.4758 0.9767
3.6402 -3.9213 -2.4767 0.9767
4.2826 -3.2148 -2.4788 0.9767
4.5545 -2.8213 -2.4799 0.9767
5.1469 -1.5173 -2.4838 0.9766
5.2646 -1.0527 -2.4852 0.9766
5.3648 0.3793 -2.4895 0.9766
5.2181 1.3280 -2.4924 0.9765
4.4938 2.5560 -2.3931 0.9775
4.2501 2.9481 -2.3943 0.9775
3.9721 3.3170 -2.3954 0.9774
3.6620 3.6597 -2.3965 0.9774
-0.0940 5.1872 -2.4015 0.9774
-0.5562 5.1580 -2.4014 0.9774
-1.0140 5.0875 -2.4013 0.9774
-1.9013 4.8250 -2.4005 0.9774
-2.3235 4.6351 -2.4000 0.9774
-2.8240 4.5651 -2.4848 0.9766
-3.2426 4.3253 -2.5023 0.9765
-4.2670 3.3085 -2.4993 0.9765
-4.5430 2.9134 -2.4981 0.9765
-4.7823 2.4954 -2.4969 0.9765
-4.9833 2.0578 -2.4956 0.9765
-5.3413 0.6640 -2.4914 0.9766
-5.3172 -0.7724 -2.4871 0.9766
-5.0896 -1.7030 -2.4843 0.9766
-4.9147 -2.1490 -2.4829 0.9766
-3.7601 -3.6421 -2.4231 0.9772
-2.6062 -4.4136 -2.3726 0.9777
-2.2015 -4.6271 -2.3719 0.9777
-1.7796 -4.8039 -2.3713 0.9777
-1.3437 -4.9425 -2.3709 0.9777
0.0127 -5.1205 -2.3702 0.9777
0.9623 -5.2551 -2.4729 0.9767
1.4273 -5.1488 -2.4732 0.9767
1.8812 -5.0018 -2.4736 0.9767
2.7413 -4.5902 -2.4748 0.9767
4.1795 -3.3466 -2.4784 0.9767
4.4633 -2.9618 -2.4795 0.9767
4.9235 -2.1237 -2.4820 0.9766
5.2282 -1.2165 -2.4847 0.9766
5.3673 -0.2685 -2.4875 0.9766
5.3358 0.6902 -2.4904 0.9766
5.2560 1.1641 -2.4919 0.9766
4.7652 1.9955 -2.3913 0.9775
4.3394 2.8134 -2.3938 0.9775
4.0731 3.1908 -2.3950 0.9775
3.4444 3.8671 -2.3971 0.9774
3.0869 4.1605 -2.3980 0.9774
1.8770 4.8337 -2.4002 0.9774
1.4387 4.9828 -2.4007 0.9774
0.9887 5.0921 -2.4011 0.9774
-1.3074 5.0197 -2.4011 0.9774
-2.1778 4.7059 -2.4002 0.9774
-2.5894 4.4939 -2.4008 0.9774
-3.1063 4.4250 -2.5026 0.9765
-3.4874 4.1289 -2.5017 0.9765
-4.1622 3.4408 -2.4997 0.9765
-4.7029 2.6440 -2.4973 0.9765
-4.9174 2.2129 -2.4961 0.9765
-5.0925 1.7645 -2.4947 0.9765
-5.2267 1.3025 -2.4933 0.9765
-5.3190 0.8307 -2.4919 0.9766
-5.3688 0.3528 -2.4905 0.9766
-5.3757 -0.1274 -2.4890 0.9766
-5.3398 -0.6061 -2.4876 0.9766
-5.2615 -1.0793 -2.4862 0.9766
-5.1413 -1.5434 -2.4847 0.9766
-4.9804 -1.9947 -2.4834 0.9766
-4.2680 -3.2371 -2.4795 0.9767
-3.1335 -4.0882 -2.3843 0.9776
-1.9290 -4.7463 -2.3715 0.9777
-1.4976 -4.8984 -2.3710 0.9777
-0.6032 -5.0852 -2.3704 0.9777
0.3098 -5.1111 -2.3702 0.9777
1.2657 -5.1907 -2.4731 0.9767
1.7239 -5.0579 -2.4735 0.9767
2.5963 -4.6731 -2.4745 0.9767
3.0036 -4.4242 -2.4752 0.9767
3.3873 -4.1400 -2.4761 0.9767
4.0722 -3.4750 -2.4780 0.9767
4.3679 -3.0993 -2.4791 0.9767
4.6291 -2.6987 -2.4803 0.9767
4.8538 -2.2761 -2.4815 0.9766
5.1866 -1.3790 -2.4842 0.9766
5.2919 -0.9114 -2.4856 0.9766
5.3552 -0.4360 -2.4870 0.9766
5.3758 0.0435 -2.4885 0.9766
5.3537 0.5231 -2.4899 0.9766
5.1815 1.4676 -2.4928 0.9765
4.6430 2.2694 -2.3922 0.9775
4.4244 2.6760 -2.3934 0.9775
3.8823 3.4228 -2.3957 0.9774
2.8409 4.3336 -2.3986 0.9774
1.1472 5.0585 -2.4009 0.9774
0.6916 5.1412 -2.4012 0.9774
0.2302 5.1828 -2.4014 0.9774
-0.2330 5.1828 -2.4015 0.9774
-0.6943 5.1412 -2.4014 0.9774
-1.5964 4.9349 -2.4008 0.9774
-2.4468 4.5708 -2.3998 0.9774
-3.3571 4.2364 -2.5020 0.9765
-4.6188 2.7902 -2.4978 0.9765
-4.8468 2.3659 -2.4965 0.9765
-5.3782 0.0406 -2.4896 0.9766
-5.3573 -0.4390 -2.4881 0.9766
-5.2937 -0.9146 -2.4867 0.9766
-5.0413 -1.8385 -2.4838 0.9766
-4.8545 -2.2796 -2.4825 0.9766
-4.0717 -3.4783 -2.4788 0.9767
-2.8774 -4.2432 -2.3731 0.9777
-1.6500 -4.8496 -2.3712 0.9777
-1.2107 -4.9765 -2.3707 0.9777
-0.3072 -5.1114 -2.3702 0.9777
1.1028 -5.2275 -2.4730 0.9767
1.5649 -5.1090 -2.4733 0.9767
2.4487 -4.7515 -2.4743 0.9767
3.2560 -4.2433 -2.4758 0.9767
3.6227 -3.9374 -2.4766 0.9767
4.2682 -3.2338 -2.4787 0.9767
4.7795 -2.4262 -2.4811 0.9767
4.9794 -1.9913 -2.4824 0.9766
5.1400 -1.5401 -2.4837 0.9766
5.3378 -0.6030 -2.4865 0.9766
5.3735 -0.1245 -2.4880 0.9766
5.3163 0.8331 -2.4909 0.9766
5.2238 1.3048 -2.4923 0.9765
5.0655 1.7581 -2.4820 0.9766
4.7108 2.1229 -2.3917 0.9775
4.2630 2.9291 -2.3942 0.9775
2.5853 4.4921 -2.3991 0.9774
1.7469 4.8826 -2.4004 0.9774
0.8518 5.1170 -2.4012 0.9774
-0.0709 5.1876 -2.4015 0.9774
-0.9914 5.0920 -2.4013 0.9774
-1.4415 4.9827 -2.4010 0.9774
-1.8798 4.8334 -2.4006 0.9774
-2.7883 4.5525 -2.4711 0.9767
-3.2234 4.3397 -2.5023 0.9765
-3.9403 3.6951 -2.5004 0.9765
-4.2523 3.3275 -2.4994 0.9765
-4.9742 2.0799 -2.4957 0.9765
-5.1371 1.6271 -2.4943 0.9765
-5.2588 1.1618 -2.4929 0.9765
-5.3754 0.2087 -2.4901 0.9766
-5.3207 -0.7488 -2.4872 0.9766
-5.0972 -1.6804 -2.4843 0.9766
-4.7125 -2.5566 -2.4816 0.9766
-3.7842 -3.6331 -2.4283 0.9771
-3.3686 -3.8682 -2.3743 0.9776
-3.0090 -4.1517 -2.3734 0.9777
-2.6258 -4.4021 -2.3726 0.9777
-2.2221 -4.6174 -2.3719 0.9777
-1.8009 -4.7960 -2.3713 0.9777
-1.3657 -4.9365 -2.3709 0.9777
-0.4667 -5.0994 -2.3703 0.9777
-0.0100 -5.1205 -2.3702 0.9777
0.4508 -5.1474 -2.3918 0.9775
3.8461 -3.7215 -2.4773 0.9767
4.9139 -2.1455 -2.4819 0.9766
5.0884 -1.6996 -2.4832 0.9766
5.3659 -0.2923 -2.4875 0.9766
5.3737 0.1876 -2.4889 0.9766
5.3386 0.6665 -2.4904 0.9766
5.1412 1.6063 -2.4932 0.9765
4.7739 1.9743 -2.3913 0.9775
4.5812 2.3935 -2.3926 0.9775
4.3517 2.7940 -2.3938 0.9775
4.0871 3.1726 -2.3950 0.9775
3.7896 3.5261 -2.3961 0.9774
2.7240 4.4087 -2.3988 0.9774
2.3206 4.6354 -2.3996 0.9774
1.8984 4.8252 -2.4002 0.9774
1.4608 4.9763 -2.4007 0.9774
0.5535 5.1581 -2.4013 0.9774
0.0912 5.1872 -2.4014 0.9774
-0.3718 5.1747 -2.4014 0.9774
-0.8318 5.1206 -2.4013 0.9774
-1.2851 5.0255 -2.4011 0.9774
-1.7280 4.8901 -2.4007 0.9774
-2.1569 4.7155 -2.4002 0.9774
-2.5682 4.5032 -2.3996 0.9774
-3.4690 4.1444 -2.5017 0.9765
-3.8234 3.8170 -2.5008 0.9765
-4.1469 3.4593 -2.4997 0.9765
-4.9077 2.2348 -2.4961 0.9765
-5.0847 1.7872 -2.4948 0.9765
-5.2210 1.3258 -2.4934 0.9765
-5.3764 -0.1036 -2.4891 0.9766
-5.1482 -1.5206 -2.4848 0.9766
-4.7909 -2.4085 -2.4821 0.9766
-4.5546 -2.8248 -2.4808 0.9767
-3.4883 -3.7616 -2.3746 0.9776
-3.1376 -4.0562 -2.3737 0.9777
-2.7624 -4.3184 -2.3729 0.9777
-2.3655 -4.5461 -2.3722 0.9777
-1.5194 -4.8918 -2.3710 0.9777
-4.3220 2.6912 -2.4974 0.9776
-4.5427 2.2938 -2.4963 0.9776
-4.7268 1.8786 -2.4950 0.9776
-5.0745 0.1067 -2.4897 0.9776
-5.0073 -0.7957 -2.4870 0.9777
-4.9137 -1.2385 -2.4856 0.9777
-4.4036 -2.4913 -2.4818 0.9777
-4.1619 -2.8728 -2.4806 0.9777
-3.8874 -3.2311 -2.4795 0.9777
-2.7892 -3.9961 -2.3904 0.9785
-2.4043 -4.1984 -2.3732 0.9787
-2.0196 -4.3950 -2.3726 0.9787
-1.6192 -4.5566 -2.3721 0.9787
-0.7836 -4.7703 -2.3713 0.9787
0.0792 -5.0078 -2.4567 0.9779
0.5291 -5.0151 -2.4737 0.9778
0.9744 -4.9483 -2.4739 0.9778
1.4121 -4.8422 -2.4741 0.9778
2.2508 -4.5159 -2.4750 0.9778
2.6453 -4.2982 -2.4757 0.9778
3.0190 -4.0463 -2.4764 0.9778
3.9869 -3.1061 -2.4791 0.9777
4.4794 -2.3504 -2.4813 0.9777
4.8305 -1.5186 -2.4838 0.9777
5.0288 -0.6369 -2.4865 0.9777
5.0683 -0.1859 -2.4878 0.9777
5.0262 0.7184 -2.4905 0.9776
4.9448 1.1645 -2.4919 0.9776
4.8238 1.6017 -2.4932 0.9776
4.5138 1.9613 -2.4141 0.9783
3.8025 3.0615 -2.3947 0.9785
3.2007 3.6914 -2.3966 0.9785
2.8597 3.9636 -2.3975 0.9785
1.2944 4.7182 -2.3999 0.9784
0.4356 4.8743 -2.4005 0.9784
-0.0009 4.8939 -2.4006 0.9784
-0.4374 4.8743 -2.4005 0.9784
-0.8704 4.8155 -2.4004 0.9784
-1.7117 4.5831 -2.3998 0.9784
-2.1132 4.4113 -2.3993 0.9784
-2.6056 4.3858 -2.5024 0.9775
-4.2365 2.8253 -2.4978 0.9776
-4.4696 2.4350 -2.4967 0.9776
-5.0286 0.7168 -2.4916 0.9776
-5.0306 -0.6390 -2.4875 0.9777
-4.6745 -1.9449 -2.4835 0.9777
-3.3685 -3.7644 -2.4779 0.9777
-2.1562 -4.3301 -2.3728 0.9787
-1.7610 -4.5041 -2.3722 0.9787
-1.3520 -4.6423 -2.3718 0.9787
-0.9323 -4.7437 -2.3714 0.9787
0.3722 -5.0292 -2.4737 0.9778
0.8193 -4.9762 -2.4738 0.9778
2.1084 -4.5837 -2.4748 0.9778
2.5094 -4.3783 -2.4754 0.9778
3.5824 -3.5611 -2.4778 0.9777
3.8873 -3.2287 -2.4788 0.9777
4.4030 -2.4888 -2.4809 0.9777
4.9122 -1.2362 -2.4847 0.9777
5.0055 -0.7935 -2.4860 0.9777
5.0591 -0.3441 -2.4873 0.9777
5.0724 0.1086 -2.4887 0.9776
4.8706 1.4499 -2.4928 0.9776
4.7242 1.8795 -2.4940 0.9776
3.3141 3.5891 -2.3963 0.9785
2.9819 3.8718 -2.3972 0.9785
2.6254 4.1238 -2.3980 0.9785
2.2479 4.3428 -2.3987 0.9784
1.8520 4.5271 -2.3993 0.9784
1.0185 4.7858 -2.4001 0.9784
0.5877 4.8581 -2.4004 0.9784
0.1520 4.8915 -2.4005 0.9784
-0.2849 4.8856 -2.4006 0.9784
-1.1483 4.7566 -2.4003 0.9784
-2.4488 4.4316 -2.4836 0.9777
-3.8682 3.3162 -2.4993 0.9776
-4.1468 2.9568 -2.4982 0.9776
-4.6019 2.1709 -2.4959 0.9776
-4.7748 1.7509 -2.4947 0.9776
-4.9094 1.3173 -2.4934 0.9776
-5.0599 0.4237 -2.4907 0.9776
-5.0747 -0.0293 -2.4893 0.9776
-4.8779 -1.3695 -2.4852 0.9777
-4.7338 -1.7982 -2.4839 0.9777
-3.7988 -3.3338 -2.4792 0.9777
-3.4849 -3.6578 -2.4782 0.9777
-3.0869 -3.8812 -2.4325 0.9781
-1.4964 -4.5981 -2.3719 0.9787
-1.0801 -4.7125 -2.3715 0.9787
-0.6554 -4.7895 -2.3713 0.9787
-0.2291 -4.9017 -2.4070 0.9784
0.2149 -5.0383 -2.4737 0.9778
0.6634 -4.9992 -2.4737 0.9778
2.3712 -4.4542 -2.4752 0.9778
2.7598 -4.2261 -2.4759 0.9778
3.1267 -3.9643 -2.4766 0.9778
3.7840 -3.3481 -2.4784 0.9777
4.3224 -2.6247 -2.4805 0.9777
4.7246 -1.8167 -2.4829 0.9777
5.0723 -0.0500 -2.4882 0.9777
4.9126 1.2968 -2.4923 0.9776
4.2185 2.4492 -2.3928 0.9785
3.7196 3.1627 -2.3950 0.9785
3.1010 3.7763 -2.3969 0.9785
2.3822 4.2700 -2.3984 0.9785
1.1675 4.7514 -2.4000 0.9784
-0.5679 4.8607 -2.4005 0.9784
-1.4222 4.6816 -2.4001 0.9784
-2.7220 4.3141 -2.5022 0.9775
-4.3101 2.7104 -2.4975 0.9776
-4.8667 1.4704 -2.4938 0.9776
-5.0451 0.5817 -2.4912 0.9776
-5.0741 0.1293 -2.4898 0.9776
-5.0627 -0.3236 -2.4884 0.9777
-4.7886 -1.6497 -2.4844 0.9777
-4.6200 -2.0692 -2.4831 0.9777
-4.4148 -2.4718 -2.4819 0.9777
-4.1747 -2.8544 -2.4807 0.9777
-3.9018 -3.2139 -2.4796 0.9777
-2.8100 -3.9880 -2.3930 0.9785
-2.4229 -4.1878 -2.3732 0.9787
-2.0392 -4.3860 -2.3726 0.9787
-0.8048 -4.7668 -2.3713 0.9787
-0.3791 -4.8535 -2.3880 0.9785
0.0568 -4.9998 -2.4527 0.9780
0.9524 -4.9525 -2.4738 0.9778
1.3906 -4.8484 -2.4741 0.9778
2.6261 -4.3098 -2.4756 0.9778
3.0009 -4.0596 -2.4763 0.9778
3.3522 -3.7770 -2.4772 0.9778
3.6770 -3.4642 -2.4781 0.9777
4.2376 -2.7581 -2.4801 0.9777
4.4688 -2.3702 -2.4813 0.9777
4.8236 -1.5400 -2.4838 0.9777
5.0258 -0.6592 -2.4864 0.9777
5.0673 -0.2084 -2.4877 0.9777
5.0685 0.2446 -2.4891 0.9776
5.0292 0.6961 -2.4905 0.9776
4.5409 1.9492 -2.4240 0.9782
4.0705 2.6907 -2.3935 0.9785
2.8773 3.9508 -2.3974 0.9785
2.5142 4.1930 -2.3982 0.9785
2.1308 4.4018 -2.3989 0.9784
1.7301 4.5754 -2.3994 0.9784
1.3154 4.7124 -2.3999 0.9784
0.0208 4.8938 -2.4006 0.9784
-0.4157 4.8762 -2.4006 0.9784
-0.8490 4.8194 -2.4004 0.9784
-1.2753 4.7240 -2.4002 0.9784
-3.9552 3.2110 -2.4990 0.9776
-4.4588 2.4549 -2.4967 0.9776
-4.8193 1.6220 -2.4943 0.9776
-4.9558 -1.0626 -2.4862 0.9777
-4.8387 -1.4996 -2.4848 0.9777
-4.0009 -3.0909 -2.4800 0.9777
-3.7077 -3.4339 -2.4789 0.9777
-3.3852 -3.7495 -2.4779 0.9777
-2.5529 -4.1105 -2.3735 0.9787
-2.1754 -4.3206 -2.3728 0.9787
-1.7810 -4.4963 -2.3722 0.9787
-1.3725 -4.6363 -2.3718 0.9787
-0.9534 -4.7396 -2.3714 0.9787
-0.5268 -4.8052 -2.3712 0.9787
0.7972 -4.9797 -2.4738 0.9778
1.2383 -4.8893 -2.4740 0.9778
2.4899 -4.3894 -2.4754 0.9778
3.2321 -3.8794 -2.4769 0.9778
3.5665 -3.5769 -2.4777 0.9777
4.6002 -2.1076 -2.4821 0.9777
5.0018 -0.8157 -2.4859 0.9777
5.0574 -0.3666 -2.4873 0.9777
4.9821 0.9871 -2.4914 0.9776
4.3617 2.1802 -2.3919 0.9785
3.9087 2.9233 -2.3942 0.9785
2.9990 3.8585 -2.3971 0.9785
2.6437 4.1120 -2.3979 0.9785
1.8721 4.5187 -2.3992 0.9784
0.1737 4.8907 -2.4005 0.9784
-1.1272 4.7617 -2.4003 0.9784
-1.9546 4.4843 -2.3995 0.9784
-2.8364 4.2392 -2.5020 0.9775
-3.5421 3.6653 -2.5003 0.9775
-4.1337 2.9752 -2.4983 0.9776
-5.0513 -0.4591 -2.4880 0.9777
-4.8841 -1.3479 -2.4853 0.9777
-4.7419 -1.7772 -2.4840 0.9777
-4.5621 -2.1920 -2.4827 0.9777
-3.8137 -3.3169 -2.4793 0.9777
-3.5012 -3.6424 -2.4782 0.9777
-3.1088 -3.8734 -2.4363 0.9781
-1.5168 -4.5914 -2.3719 0.9787
-0.6767 -4.7865 -2.3713 0.9787
0.6412 -5.0021 -2.4737 0.9778
1.0849 -4.9254 -2.4739 0.9778
2.7409 -4.2382 -2.4758 0.9778
4.5313 -2.2499 -2.4816 0.9777
4.7163 -1.8377 -2.4829 0.9777
4.9729 -0.9714 -2.4855 0.9777
5.0719 -0.0725 -2.4882 0.9777
5.0610 0.3804 -2.4895 0.9776
5.0096 0.8307 -2.4909 0.9776
4.4270 2.0425 -2.3915 0.9785
3.7336 3.1461 -2.3949 0.9785
3.4395 3.4680 -2.3959 0.9785
3.1176 3.7624 -2.3968 0.9785
2.4011 4.2593 -2.3984 0.9785
2.0122 4.4577 -2.3990 0.9784
1.6069 4.6204 -2.3996 0.9784
1.1886 4.7462 -2.4000 0.9784
-0.5463 4.8632 -2.4005 0.9784
-1.4014 4.6879 -2.4001 0.9784
-2.7029 4.3262 -2.5022 0.9775
-3.0770 4.0667 -2.5015 0.9775
-3.4263 3.7747 -2.5006 0.9775
-4.0393 3.1034 -2.4987 0.9776
-4.2982 2.7296 -2.4976 0.9776
-5.0737 0.1518 -2.4899 0.9776
-4.9247 -1.1948 -2.4858 0.9777
-4.4259 -2.4522 -2.4819 0.9777
-4.1874 -2.8359 -2.4808 0.9777
-3.9161 -3.1966 -2.4796 0.9777
-1.6597 -4.5421 -2.3721 0.9787
-1.2477 -4.6712 -2.3717 0.9787
-0.8260 -4.7632 -2.3713 0.9787
-0.4002 -4.8466 -2.3855 0.9786
0.4846 -5.0196 -2.4737 0.9778
0.9304 -4.9567 -2.4738 0.9778
1.3690 -4.8545 -2.4741 0.9778
2.9828 -4.0728 -2.4763 0.9778
3.9590 -3.1413 -2.4790 0.9777
4.2252 -2.7768 -2.4801 0.9777
4.8166 -1.5614 -2.4837 0.9777
4.9392 -1.1262 -2.4850 0.9777
5.0227 -0.6815 -2.4863 0.9777
5.0694 0.2220 -2.4890 0.9776
5.0322 0.6737 -2.4904 0.9776
4.9547 1.1204 -2.4918 0.9776
4.8376 1.5587 -2.4931 0.9776
4.5683 1.9370 -2.4340 0.9781
4.0823 2.6726 -2.3935 0.9785
3.8295 3.0274 -2.3945 0.9785
3.5457 3.3584 -2.3956 0.9785
3.2333 3.6627 -2.3965 0.9785
2.8947 3.9379 -2.3974 0.9785
2.1503 4.3923 -2.3988 0.9784
1.7504 4.5676 -2.3994 0.9784
0.0426 4.8937 -2.4006 0.9784
-0.8276 4.8231 -2.4004 0.9784
-1.2543 4.7296 -2.4002 0.9784
-2.0740 4.4300 -2.3994 0.9784
-2.9488 4.1613 -2.5017 0.9775
-4.2114 2.8630 -2.4980 0.9776
-5.0674 0.3104 -2.4903 0.9776
-5.0364 -0.5943 -2.4876 0.9777
-4.8454 -1.4781 -2.4849 0.9777
-4.5011 -2.3131 -2.4824 0.9777
-4.2747 -2.7040 -2.4812 0.9777
-4.0146 -3.0731 -2.4800 0.9777
-0.5481 -4.8028 -2.3712 0.9787
0.3275 -5.0323 -2.4737 0.9778
0.7751 -4.9832 -2.4738 0.9778
1.6485 -4.7673 -2.4743 0.9778
2.8538 -4.1636 -2.4760 0.9778
3.2148 -3.8937 -2.4768 0.9778
4.3805 -2.5277 -2.4808 0.9777
4.8830 1.4065 -2.4926 0.9776
4.3713 2.1608 -2.3919 0.9785
3.9216 2.9059 -2.3942 0.9785
3.0160 3.8450 -2.3971 0.9785
2.2863 4.3225 -2.3986 0.9784
1.8921 4.5104 -2.3992 0.9784
1.0610 4.7765 -2.4001 0.9784
-1.5265 4.6484 -2.4000 0.9784
-3.5259 3.6811 -2.5003 0.9775
-3.8387 3.3506 -2.4994 0.9776
-4.3692 2.6130 -2.4972 0.9776
-4.5827 2.2118 -2.4960 0.9776
-4.9970 0.9182 -2.4922 0.9776
-5.0562 0.4686 -2.4908 0.9776
-5.0751 0.0158 -2.4894 0.9776
-5.0535 -0.4367 -2.4881 0.9777
-4.3579 -2.5696 -2.4816 0.9777
-3.1309 -3.8656 -2.4401 0.9781
-1.5372 -4.5847 -2.3720 0.9787
-1.1220 -4.7028 -2.3716 0.9787
-0.2719 -4.8880 -2.4014 0.9784
0.1701 -5.0400 -2.4737 0.9778
0.6190 -5.0049 -2.4737 0.9778
1.0630 -4.9301 -2.4739 0.9778
1.9226 -4.6641 -2.4746 0.9778
2.7220 -4.2503 -2.4758 0.9778
3.4361 -3.7014 -2.4774 0.9777
3.7539 -3.3815 -2.4783 0.9777
4.0423 -3.0344 -2.4793 0.9777
4.2987 -2.6629 -2.4804 0.9777
4.5212 -2.2699 -2.4816 0.9777
4.7080 -1.8586 -2.4828 0.9777
4.8575 -1.4320 -2.4841 0.9777
5.0625 0.3579 -2.4895 0.9776
5.0131 0.8085 -2.4908 0.9776
4.7949 1.6881 -2.4935 0.9776
4.4359 2.0228 -2.3915 0.9785
4.0098 2.7814 -2.3938 0.9785
3.7474 3.1294 -2.3949 0.9785
3.4548 3.4526 -2.3959 0.9785
3.1343 3.7485 -2.3968 0.9785
2.7884 4.0145 -2.3976 0.9785
2.0320 4.4487 -2.3990 0.9784
1.2097 4.7408 -2.4000 0.9784
0.3481 4.8813 -2.4005 0.9784
-0.9565 4.7991 -2.4004 0.9784
-1.3806 4.6941 -2.4001 0.9784
-2.6837 4.3382 -2.5022 0.9775
-3.4096 3.7899 -2.5007 0.9775
-3.7327 3.4694 -2.4997 0.9776
-4.0256 3.1214 -2.4987 0.9776
-4.2861 2.7487 -2.4976 0.9776
-4.5121 2.3543 -2.4964 0.9776
-4.7018 1.9415 -2.4952 0.9776
-4.9667 1.0741 -2.4926 0.9776
-5.0400 0.6265 -2.4913 0.9776
-5.0656 -0.2787 -2.4886 0.9777
-5.0178 -0.7290 -2.4872 0.9777
-4.9301 -1.1730 -2.4858 0.9777
-4.8033 -1.6072 -2.4845 0.9777
-4.6384 -2.0281 -2.4832 0.9777
-4.4368 -2.4326 -2.4820 0.9777
-3.6296 -3.5157 -2.4786 0.9777
-2.8517 -3.9717 -2.3984 0.9785
-2.0781 -4.3679 -2.3727 0.9787
-0.8471 -4.7596 -2.3714 0.9787
-0.4213 -4.8398 -2.3830 0.9786
0.4623 -5.0217 -2.4737 0.9778
1.3474 -4.8605 -2.4741 0.9778
1.7758 -4.7216 -2.4745 0.9778
2.1903 -4.5453 -2.4750 0.9778
3.6460 -3.4966 -2.4780 0.9777
4.2127 -2.7955 -2.4800 0.9777
4.4473 -2.4097 -2.4812 0.9777
5.0650 -0.2534 -2.4876 0.9777
4.9595 1.0984 -2.4917 0.9776
4.0941 2.6544 -2.3934 0.9785
3.5605 3.3425 -2.3955 0.9785
2.9122 3.9249 -2.3973 0.9785
2.1698 4.3826 -2.3988 0.9784
1.7706 4.5598 -2.3994 0.9784
0.9326 4.8034 -2.4002 0.9784
0.0643 4.8935 -2.4006 0.9784
-0.8061 4.8268 -2.4004 0.9784
-2.0544 4.4392 -2.3994 0.9784
-2.5470 4.4204 -2.5025 0.9775
-3.6229 3.5849 -2.5001 0.9775
-3.9267 3.2461 -2.4991 0.9776
-4.1988 2.8817 -2.4980 0.9776
-4.4370 2.4946 -2.4969 0.9776
-4.8049 1.6649 -2.4944 0.9776
-5.0728 -0.1203 -2.4890 0.9776
-5.0391 -0.5719 -2.4877 0.9777
-4.8521 -1.4566 -2.4850 0.9777
-4.7003 -1.8826 -2.4837 0.9777
-4.2868 -2.6851 -2.4812 0.9777
-4.0284 -3.0554 -2.4801 0.9777
-3.7382 -3.4010 -2.4790 0.9777
-2.9997 -3.9136 -2.4188 0.9783
-2.5893 -4.0878 -2.3736 0.9787
-2.2138 -4.3012 -2.3729 0.9787
-1.4137 -4.6240 -2.3718 0.9787
-0.9955 -4.7309 -2.3715 0.9787
0.3051 -5.0337 -2.4737 0.9778
2.4508 -4.4112 -2.4753 0.9778
2.8352 -4.1762 -2.4760 0.9778
3.8437 -3.2800 -2.4786 0.9777
4.3691 -2.5471 -2.4808 0.9777
4.5811 -2.1482 -2.4819 0.9777
4.7568 -1.7319 -2.4832 0.9777
4.8949 -1.3014 -2.4845 0.9777
5.0730 0.0410 -2.4885 0.9777
5.0519 0.4936 -2.4899 0.9776
4.3807 2.1412 -2.3918 0.9785
4.1743 2.5247 -2.3930 0.9785
3.9344 2.8883 -2.3941 0.9785
3.3614 3.5444 -2.3962 0.9785
2.6801 4.0882 -2.3979 0.9785
1.9121 4.5019 -2.3992 0.9784
1.0822 4.7717 -2.4001 0.9784
-0.6549 4.8497 -2.4005 0.9784
-1.9148 4.5015 -2.3996 0.9784
-3.1670 3.9965 -2.5013 0.9775
-3.5096 3.6968 -2.5004 0.9775
-3.8238 3.3677 -2.4994 0.9776
-4.3576 2.6324 -2.4973 0.9776
-4.7514 1.8146 -2.4948 0.9776
-5.0542 0.4911 -2.4909 0.9776
-5.0555 -0.4143 -2.4881 0.9777
-4.8961 -1.3046 -2.4854 0.9777
-4.7577 -1.7351 -2.4841 0.9777
-3.8432 -3.2830 -2.4794 0.9777
-3.5336 -3.6112 -2.4783 0.9777
-2.7264 -4.0204 -2.3828 0.9786
-2.3473 -4.2303 -2.3731 0.9787
-1.5576 -4.5779 -2.3720 0.9787
-1.1429 -4.6978 -2.3716 0.9787
-0.7192 -4.7804 -2.3713 0.9787
1.4773 -4.8228 -2.4742 0.9778
2.3115 -4.4853 -2.4751 0.9778
3.4196 -3.7166 -2.4773 0.9778
3.7388 -3.3980 -2.4783 0.9777
4.5110 -2.2899 -2.4815 0.9777
5.0374 -0.5690 -2.4867 0.9777
5.0639 0.3354 -2.4894 0.9776
4.8021 1.6668 -2.4934 0.9776
4.0220 2.7636 -2.3937 0.9785
3.4701 3.4372 -2.3958 0.9785
3.1509 3.7344 -2.3967 0.9785
2.0516 4.4395 -2.3990 0.9784
1.6479 4.6059 -2.3995 0.9784
1.2307 4.7353 -2.4000 0.9784
0.8035 4.8269 -2.4003 0.9784
-0.0669 4.8934 -2.4006 0.9784
-0.5031 4.8679 -2.4005 0.9784
-0.9352 4.8033 -2.4004 0.9784
-1.7733 4.5595 -2.3997 0.9784
-2.1725 4.3822 -2.3992 0.9784
-3.0409 4.0939 -2.5015 0.9775
-3.3928 3.8051 -2.5007 0.9775
-3.7173 3.4860 -2.4998 0.9776
-4.0118 3.1393 -2.4988 0.9776
-4.5017 2.3744 -2.4965 0.9776
-4.6932 1.9625 -2.4953 0.9776
-4.8471 1.5352 -2.4940 0.9776
-4.9621 1.0962 -2.4927 0.9776
-5.0374 0.6489 -2.4914 0.9776
-5.0724 0.1969 -2.4900 0.9776
-5.0670 -0.2561 -2.4886 0.9776
-5.0212 -0.7067 -2.4873 0.9777
-4.9354 -1.1511 -2.4859 0.9777
-4.8105 -1.5859 -2.4846 0.9777
-4.2127 -2.7987 -2.4809 0.9777
-3.9445 -3.1618 -2.4797 0.9777
-3.3107 -3.8017 -2.4728 0.9778
-2.4786 -4.1553 -2.3733 0.9787
-2.0975 -4.3586 -2.3727 0.9787
-1.7000 -4.5273 -2.3721 0.9787
-0.8683 -4.7558 -2.3714 0.9787
-0.0097 -4.9761 -2.4409 0.9781
0.4400 -5.0237 -2.4737 0.9778
0.8863 -4.9647 -2.4738 0.9778
1.3258 -4.8664 -2.4741 0.9778
1.7548 -4.7295 -2.4744 0.9778
2.9464 -4.0990 -2.4762 0.9778
3.3013 -3.8211 -2.4770 0.9778
3.6303 -3.5127 -2.4779 0.9777
3.9307 -3.1762 -2.4789 0.9777
4.6377 -2.0250 -2.4823 0.9777
4.8023 -1.6041 -2.4836 0.9777
5.0162 -0.7260 -2.4862 0.9777
5.0377 0.6289 -2.4903 0.9776
4.8510 1.5156 -2.4930 0.9776
4.3224 2.2583 -2.3922 0.9785
3.5752 3.3266 -2.3955 0.9785
3.2656 3.6337 -2.3964 0.9785
2.5698 4.1590 -2.3981 0.9785
2.1892 4.3729 -2.3988 0.9784
1.7909 4.5518 -2.3994 0.9784
1.3780 4.6943 -2.3998 0.9784
0.9539 4.7992 -2.4002 0.9784
-0.3507 4.8813 -2.4006 0.9784
-0.7847 4.8304 -2.4005 0.9784
-1.2123 4.7406 -2.4002 0.9784
-1.6301 4.6129 -2.3999 0.9784
-2.0346 4.4483 -2.3994 0.9784
-2.9118 4.1874 -2.5018 0.9775
-3.9123 3.2636 -2.4991 0.9776
-4.4260 2.5143 -2.4969 0.9776
-4.6304 2.1085 -2.4957 0.9776
-4.9263 1.2509 -2.4932 0.9776
-5.0155 0.8061 -2.4918 0.9776
-5.0417 -0.5495 -2.4877 0.9777
-4.8586 -1.4351 -2.4850 0.9777
-4.7088 -1.8617 -2.4837 0.9777
-4.2988 -2.6661 -2.4813 0.9777
-4.0420 -3.0375 -2.4801 0.9777
-3.7533 -3.3845 -2.4791 0.9777
-3.4351 -3.7043 -2.4781 0.9777
-3.0209 -3.9053 -2.4219 0.9782
-2.2329 -4.2913 -2.3729 0.9787
-1.4342 -4.6177 -2.3718 0.9787
-1.0165 -4.7265 -2.3715 0.9787
-4.2946 2.1685 -2.4959 0.9786
-4.4688 1.7760 -2.4947 0.9786
-4.7724 0.5288 -2.4910 0.9786
-4.7854 -0.3273 -2.4884 0.9786
-4.5211 -1.5801 -2.4846 0.9786
-4.3600 -1.9761 -2.4834 0.9787
-4.1644 -2.3560 -2.4822 0.9787
-2.3689 -4.1368 -2.4730 0.9787
-1.9667 -4.2798 -2.4435 0.9790
-1.1751 -4.5614 -2.4436 0.9790
-0.3503 -4.7571 -2.4746 0.9787
0.5005 -4.7436 -2.4745 0.9787
0.9216 -4.6803 -2.4747 0.9787
1.7391 -4.4432 -2.4753 0.9787
2.5019 -4.0653 -2.4764 0.9787
3.1863 -3.5582 -2.4778 0.9787
3.7705 -2.9375 -2.4796 0.9787
4.0192 -2.5906 -2.4807 0.9787
4.2361 -2.2227 -2.4818 0.9787
4.4195 -1.8369 -2.4829 0.9787
4.5679 -1.4361 -2.4841 0.9787
4.7552 -0.6022 -2.4866 0.9786
4.7924 -0.1758 -2.4879 0.9786
4.7915 0.2525 -2.4892 0.9786
4.7523 0.6793 -2.4905 0.9786
4.5606 1.5144 -2.4930 0.9786
4.4096 1.9161 -2.4942 0.9786
3.3236 3.2046 -2.3951 0.9794
3.0257 3.4895 -2.3960 0.9794
1.6161 4.3321 -2.3987 0.9794
1.2235 4.4598 -2.3991 0.9794
0.4117 4.6072 -2.3997 0.9794
-0.0009 4.6258 -2.3998 0.9794
-1.2253 4.4598 -2.3994 0.9794
-1.6213 4.3410 -2.4040 0.9793
-2.4630 4.1457 -2.5016 0.9785
-2.8221 3.9085 -2.5010 0.9785
-3.1585 3.6400 -2.5002 0.9785
-3.4694 3.3427 -2.4993 0.9785
-4.2254 2.3020 -2.4963 0.9786
-4.4118 1.9151 -2.4951 0.9786
-4.5629 1.5132 -2.4939 0.9786
-4.6773 1.0996 -2.4927 0.9786
-4.7934 0.2509 -2.4901 0.9786
-4.4204 -1.8392 -2.4838 0.9787
-4.0195 -2.5929 -2.4815 0.9787
-3.1858 -3.5602 -2.4785 0.9787
-2.5009 -4.0670 -2.4769 0.9787
-2.1064 -4.2301 -2.4515 0.9789
-1.7091 -4.3714 -2.4350 0.9791
-1.3140 -4.5120 -2.4380 0.9790
-0.9147 -4.6541 -2.4607 0.9789
-0.4988 -4.7439 -2.4746 0.9787
0.3520 -4.7568 -2.4745 0.9787
0.7749 -4.7067 -2.4746 0.9787
1.1918 -4.6192 -2.4748 0.9787
2.3735 -4.1411 -2.4762 0.9787
3.3881 -3.3680 -2.4784 0.9787
3.6764 -3.0535 -2.4793 0.9787
4.1639 -2.3536 -2.4814 0.9787
4.6451 -1.1690 -2.4849 0.9786
4.7332 -0.7504 -2.4861 0.9786
4.6049 1.3709 -2.4926 0.9786
4.4665 1.7770 -2.4938 0.9786
3.9144 2.4394 -2.3928 0.9794
3.4216 3.0987 -2.3948 0.9794
2.4818 3.8981 -2.3973 0.9794
0.9627 4.5237 -2.3993 0.9794
-1.0854 4.4961 -2.3995 0.9794
-1.4819 4.3808 -2.3992 0.9794
-2.3324 4.2210 -2.5019 0.9785
-3.6567 3.1349 -2.4987 0.9785
-4.1521 2.4333 -2.4966 0.9785
-4.7317 0.8261 -2.4919 0.9786
-4.7841 0.4006 -2.4906 0.9786
-4.7121 -0.8789 -2.4867 0.9786
-3.8612 -2.8210 -2.4808 0.9787
-3.5927 -3.1529 -2.4797 0.9787
-2.2471 -4.1801 -2.4620 0.9788
-0.2226 -4.7647 -2.4745 0.9787
0.2032 -4.7655 -2.4745 0.9787
1.4579 -4.5427 -2.4750 0.9787
2.2427 -4.2129 -2.4760 0.9787
2.6102 -3.9971 -2.4766 0.9787
2.9571 -3.7494 -2.4773 0.9787
3.2809 -3.4718 -2.4781 0.9787
4.0877 -2.4822 -2.4810 0.9787
4.2947 -2.1087 -2.4821 0.9787
4.4678 -1.7180 -2.4833 0.9787
4.6055 -1.3133 -2.4845 0.9787
4.7704 -0.4746 -2.4870 0.9786
4.7837 0.3809 -2.4896 0.9786
4.5191 1.6363 -2.4934 0.9786
4.3285 2.0204 -2.4781 0.9787
3.9881 2.3155 -2.3924 0.9794
3.7674 2.6632 -2.3935 0.9794
2.9313 3.5697 -2.3963 0.9794
1.8833 4.2221 -2.3983 0.9794
1.4995 4.3741 -2.3988 0.9794
1.1036 4.4912 -2.3992 0.9794
0.6986 4.5723 -2.3995 0.9794
-2.1996 4.2922 -2.5021 0.9785
-2.5730 4.0779 -2.5015 0.9785
-3.2546 3.5537 -2.4999 0.9785
-3.5574 3.2481 -2.4990 0.9785
-3.8314 2.9167 -2.4981 0.9785
-4.4610 1.7959 -2.4948 0.9786
-4.6011 1.3902 -2.4935 0.9786
-4.7045 0.9737 -2.4923 0.9786
-4.7870 -0.3060 -2.4884 0.9786
-4.7381 -0.7314 -2.4872 0.9786
-4.5282 -1.5600 -2.4846 0.9786
-4.1749 -2.3375 -2.4823 0.9787
-3.9481 -2.6994 -2.4811 0.9787
-3.0889 -3.6440 -2.4782 0.9787
-2.3892 -4.1296 -2.4751 0.9787
-1.9865 -4.2727 -2.4445 0.9790
-1.5905 -4.4136 -2.4338 0.9791
-1.1949 -4.5544 -2.4427 0.9790
-0.3714 -4.7555 -2.4746 0.9787
0.9009 -4.6843 -2.4747 0.9787
1.3153 -4.5858 -2.4749 0.9787
2.4838 -4.0763 -2.4763 0.9787
2.8382 -3.8395 -2.4770 0.9787
3.7574 -2.9542 -2.4796 0.9787
4.0075 -2.6083 -2.4806 0.9787
4.2261 -2.2415 -2.4817 0.9787
4.4112 -1.8564 -2.4828 0.9787
4.5614 -1.4563 -2.4840 0.9787
4.6754 -1.0442 -2.4853 0.9786
4.7914 -0.1970 -2.4878 0.9786
4.7924 0.2312 -2.4891 0.9786
4.7552 0.6581 -2.4904 0.9786
4.6799 1.0802 -2.4917 0.9786
4.5672 1.4941 -2.4929 0.9786
4.0579 2.1894 -2.3920 0.9794
3.8481 2.5438 -2.3931 0.9794
3.3377 3.1897 -2.3951 0.9794
2.7198 3.7346 -2.3968 0.9794
2.0141 4.1608 -2.3981 0.9794
0.8411 4.5480 -2.3994 0.9794
0.4322 4.6053 -2.3996 0.9794
0.0197 4.6257 -2.3998 0.9794
-1.2054 4.4652 -2.3994 0.9794
-2.0280 4.2820 -2.4580 0.9789
-3.9931 2.6887 -2.4974 0.9785
-4.2152 2.3208 -2.4963 0.9785
-4.4034 1.9347 -2.4952 0.9786
-4.5563 1.5335 -2.4940 0.9786
-4.7951 -0.1563 -2.4889 0.9786
-4.6862 -1.0047 -2.4863 0.9786
-4.4286 -1.8196 -2.4838 0.9787
-4.2467 -2.2063 -2.4827 0.9787
-4.0311 -2.5751 -2.4815 0.9787
-3.7837 -2.9231 -2.4804 0.9787
-3.2016 -3.5461 -2.4785 0.9787
-2.5190 -4.0559 -2.4769 0.9787
-2.1263 -4.2230 -2.4529 0.9789
-1.3337 -4.5050 -2.4374 0.9791
-0.5198 -4.7417 -2.4746 0.9787
-0.0948 -4.7689 -2.4745 0.9787
1.1712 -4.6244 -2.4748 0.9787
1.5793 -4.5021 -2.4751 0.9787
1.9749 -4.3441 -2.4756 0.9787
2.3550 -4.1516 -2.4761 0.9787
2.7166 -3.9260 -2.4768 0.9787
3.6628 -3.0698 -2.4793 0.9787
3.9235 -2.7319 -2.4802 0.9787
4.3503 -1.9931 -2.4824 0.9787
4.5129 -1.5979 -2.4836 0.9787
4.7821 -0.3466 -2.4874 0.9786
4.7105 0.9333 -2.4912 0.9786
4.6109 1.3504 -2.4925 0.9786
4.4743 1.7571 -2.4937 0.9786
3.9251 2.4219 -2.3927 0.9794
3.4353 3.0834 -2.3948 0.9794
3.1478 3.3788 -2.3957 0.9794
2.8349 3.6474 -2.3965 0.9794
2.4990 3.8869 -2.3973 0.9794
1.7696 4.2713 -2.3985 0.9794
1.3818 4.4130 -2.3990 0.9794
0.9828 4.5193 -2.3993 0.9794
0.5759 4.5895 -2.3996 0.9794
0.1642 4.6228 -2.3997 0.9794
-0.2488 4.6191 -2.3998 0.9794
-0.6597 4.5783 -2.3997 0.9794
-1.0654 4.5009 -2.3995 0.9794
-1.4624 4.3873 -2.3992 0.9794
-2.3137 4.2314 -2.5019 0.9785
-3.6428 3.1512 -2.4988 0.9785
-3.9078 2.8126 -2.4978 0.9785
-4.1413 2.4518 -2.4967 0.9785
-4.3415 2.0717 -2.4956 0.9786
-4.7824 0.4219 -2.4906 0.9786
-4.7763 -0.4341 -2.4881 0.9786
-4.7161 -0.8580 -2.4868 0.9786
-4.6184 -1.2746 -2.4855 0.9786
-4.4841 -1.6806 -2.4843 0.9787
-4.3142 -2.0729 -2.4831 0.9787
-4.1103 -2.4482 -2.4819 0.9787
-3.8738 -2.8039 -2.4808 0.9787
-3.3113 -3.4448 -2.4788 0.9787
-2.9898 -3.7251 -2.4779 0.9787
-2.6448 -3.9756 -2.4772 0.9787
-2.2672 -4.1729 -2.4637 0.9788
-0.6678 -4.7233 -2.4747 0.9787
-0.2438 -4.7637 -2.4745 0.9787
0.1821 -4.7664 -2.4745 0.9787
1.0261 -4.6586 -2.4747 0.9787
2.2240 -4.2228 -2.4759 0.9787
2.5924 -4.0086 -2.4765 0.9787
3.5646 -3.1823 -2.4789 0.9787
4.0765 -2.5003 -2.4809 0.9787
4.2852 -2.1277 -2.4820 0.9787
4.4600 -1.7378 -2.4832 0.9787
4.5995 -1.3337 -2.4844 0.9787
4.7024 -0.9186 -2.4856 0.9786
4.7680 -0.4957 -2.4869 0.9786
4.7958 -0.0685 -2.4882 0.9786
4.5262 1.6162 -2.4933 0.9786
4.3570 2.0102 -2.4893 0.9786
2.6190 3.8066 -2.3970 0.9794
1.9020 4.2136 -2.3983 0.9794
0.7190 4.5691 -2.3995 0.9794
0.3086 4.6153 -2.3997 0.9794
-1.7144 4.2946 -2.3989 0.9794
-2.5549 4.0894 -2.5015 0.9785
-2.9087 3.8441 -2.5008 0.9785
-4.5950 1.4106 -2.4936 0.9786
-4.7972 0.1436 -2.4898 0.9786
-4.3776 -1.9374 -2.4835 0.9787
-3.7035 -3.0231 -2.4801 0.9787
-3.4178 -3.3401 -2.4792 0.9787
-2.7680 -3.8915 -2.4774 0.9787
-0.8133 -4.6902 -2.4695 0.9788
0.4584 -4.7478 -2.4745 0.9787
1.6995 -4.4584 -2.4753 0.9787
2.0908 -4.2899 -2.4757 0.9787
2.4656 -4.0872 -2.4763 0.9787
2.8211 -3.8521 -2.4770 0.9787
3.1545 -3.5862 -2.4777 0.9787
3.4629 -3.2917 -2.4786 0.9787
4.2160 -2.2602 -2.4816 0.9787
4.7494 -0.6444 -2.4865 0.9786
4.7904 -0.2183 -2.4877 0.9786
4.7933 0.2100 -2.4890 0.9786
4.7579 0.6370 -2.4903 0.9786
4.6845 1.0594 -2.4916 0.9786
4.4262 1.8767 -2.4941 0.9786
4.0674 2.1713 -2.3919 0.9794
3.6202 2.8620 -2.3941 0.9794
3.0564 3.4624 -2.3959 0.9794
2.0326 4.1518 -2.3981 0.9794
1.2630 4.4487 -2.3991 0.9794
0.8613 4.5442 -2.3994 0.9794
0.0402 4.6256 -2.3998 0.9794
-0.7822 4.5589 -2.3996 0.9794
-2.0003 4.2725 -2.4474 0.9790
-2.4261 4.1676 -2.5017 0.9785
-3.1262 3.6681 -2.5003 0.9785
-3.4397 3.3735 -2.4994 0.9785
-3.7255 3.0521 -2.4985 0.9785
-3.9812 2.7065 -2.4975 0.9785
-4.2050 2.3396 -2.4964 0.9785
-4.3949 1.9543 -2.4952 0.9786
-4.7484 0.7200 -2.4915 0.9786
-4.7912 0.2934 -2.4903 0.9786
-4.7958 -0.1350 -2.4890 0.9786
-4.7622 -0.5620 -2.4877 0.9786
-4.6907 -0.9839 -2.4864 0.9786
-4.5819 -1.3977 -2.4851 0.9786
-4.2565 -2.1875 -2.4827 0.9787
-3.2174 -3.5319 -2.4786 0.9787
-2.5370 -4.0447 -2.4769 0.9787
-2.1463 -4.2159 -2.4542 0.9789
-1.3533 -4.4980 -2.4368 0.9791
-0.9548 -4.6399 -2.4575 0.9789
-0.5409 -4.7394 -2.4746 0.9787
0.7331 -4.7134 -2.4746 0.9787
1.5592 -4.5091 -2.4751 0.9787
1.9555 -4.3528 -2.4756 0.9787
2.3365 -4.1619 -2.4761 0.9787
3.0405 -3.6826 -2.4775 0.9787
3.9113 -2.7493 -2.4802 0.9787
4.1426 -2.3904 -2.4813 0.9787
4.3413 -2.0123 -2.4824 0.9787
4.5056 -1.6178 -2.4836 0.9787
4.7804 -0.3678 -2.4873 0.9786
4.7966 0.0600 -2.4886 0.9786
4.7746 0.4879 -2.4899 0.9786
4.4819 1.7372 -2.4937 0.9786
3.9358 2.4044 -2.3927 0.9794
3.4489 3.0681 -2.3947 0.9794
3.1627 3.3647 -2.3956 0.9794
2.8510 3.6347 -2.3965 0.9794
1.4014 4.4068 -2.3990 0.9794
0.1848 4.6220 -2.3997 0.9794
-0.2282 4.6201 -2.3998 0.9794
-1.0454 4.5056 -2.3995 0.9794
-1.4429 4.3938 -2.3992 0.9794
-1.8288 4.2469 -2.3988 0.9794
-3.0104 3.7644 -2.5005 0.9785
-3.6288 3.1674 -2.4988 0.9785
-3.8953 2.8300 -2.4978 0.9785
-4.6305 1.2868 -2.4932 0.9786
-4.7986 0.0149 -2.4894 0.9786
-4.7200 -0.8371 -2.4868 0.9786
-4.6241 -1.2541 -2.4856 0.9786
-4.3235 -2.0537 -2.4831 0.9787
-3.8863 -2.7867 -2.4809 0.9787
-3.6207 -3.1209 -2.4798 0.9787
-3.0063 -3.7118 -2.4780 0.9787
-1.8870 -4.3081 -2.4400 0.9790
0.5855 -4.7339 -2.4745 0.9787
1.4175 -4.5554 -2.4750 0.9787
2.2051 -4.2325 -2.4759 0.9787
2.5745 -4.0200 -2.4765 0.9787
4.2756 -2.1466 -2.4820 0.9787
4.5934 -1.3541 -2.4843 0.9787
4.6552 1.1847 -2.4920 0.9786
4.5332 1.5960 -2.4932 0.9786
4.0083 2.2799 -2.3923 0.9794
3.2659 3.2638 -2.3953 0.9794
2.9628 3.5434 -2.3962 0.9794
2.6358 3.7948 -2.3970 0.9794
1.9207 4.2051 -2.3983 0.9794
1.5383 4.3605 -2.3988 0.9794
0.7392 4.5658 -2.3995 0.9794
0.3291 4.6139 -2.3997 0.9794
-0.9041 4.5362 -2.3996 0.9794
-2.1614 4.3117 -2.5021 0.9785
-2.5368 4.1007 -2.5015 0.9785
-2.8916 3.8570 -2.5008 0.9785
-3.5285 3.2797 -2.4991 0.9785
-4.4450 1.8355 -2.4949 0.9786
-4.5888 1.4311 -2.4937 0.9786
-4.6959 1.0155 -2.4924 0.9786
-4.7897 -0.2635 -2.4886 0.9786
-4.7447 -0.6893 -2.4873 0.9786
-4.6619 -1.1092 -2.4860 0.9786
-4.5421 -1.5198 -2.4848 0.9786
-3.9721 -2.6643 -2.4812 0.9787
-3.1212 -3.6165 -2.4783 0.9787
-2.7853 -3.8792 -2.4775 0.9787
-2.0262 -4.2586 -2.4466 0.9790
-1.2344 -4.5403 -2.4409 0.9790
-0.8335 -4.6830 -2.4676 0.9788
0.4372 -4.7498 -2.4745 0.9787
1.2744 -4.5972 -2.4749 0.9787
1.6796 -4.4659 -2.4752 0.9787
2.0717 -4.2991 -2.4757 0.9787
3.1384 -3.6001 -2.4777 0.9787
3.4482 -3.3070 -2.4786 0.9787
4.2058 -2.2788 -2.4816 0.9787
4.5480 -1.4967 -2.4839 0.9787
4.7464 -0.6655 -2.4864 0.9786
4.7606 0.6158 -2.4903 0.9786
4.6891 1.0385 -2.4915 0.9786
4.5801 1.4534 -2.4928 0.9786
4.4344 1.8570 -2.4940 0.9786
3.3658 3.1598 -2.3950 0.9794
2.7528 3.7102 -2.3967 0.9794
2.4117 3.9421 -2.3974 0.9794
2.0510 4.1427 -2.3981 0.9794
1.2828 4.4430 -2.3991 0.9794
0.4731 4.6013 -2.3996 0.9794
-0.3520 4.6123 -2.3997 0.9794
-0.7620 4.5623 -2.3996 0.9794
-1.9739 4.2654 -2.4383 0.9790
-2.4076 4.1784 -2.5017 0.9785
-2.7700 3.9459 -2.5011 0.9785
-3.7120 3.0686 -2.4985 0.9785
-3.9693 2.7242 -2.4975 0.9785
-4.1946 2.3583 -2.4964 0.9785
-4.3863 1.9739 -2.4953 0.9786
-4.7453 0.7411 -2.4916 0.9786
-4.7965 -0.1137 -2.4890 0.9786
-4.7648 -0.5408 -2.4877 0.9786
-3.8097 -2.8895 -2.4806 0.9787
-3.2331 -3.5176 -2.4786 0.9787
-2.9055 -3.7907 -2.4777 0.9787
-2.5550 -4.0335 -2.4770 0.9787
-2.1662 -4.2088 -2.4557 0.9789
-1.7681 -4.3504 -2.4362 0.9791
-0.9748 -4.6327 -2.4560 0.9789
-0.1372 -4.7679 -2.4745 0.9787
0.2886 -4.7611 -2.4745 0.9787
1.9362 -4.3614 -2.4755 0.9787
2.3179 -4.1722 -2.4761 0.9787
2.6816 -3.9498 -2.4767 0.9787
3.0241 -3.6960 -2.4774 0.9787
3.3428 -3.4127 -2.4783 0.9787
3.8989 -2.7665 -2.4801 0.9787
4.3322 -2.0315 -2.4823 0.9787
4.6287 -1.2306 -2.4847 0.9786
4.7224 -0.8133 -2.4860 0.9786
4.7786 -0.3891 -2.4872 0.9786
4.7766 0.4667 -2.4898 0.9786
4.7184 0.8913 -2.4911 0.9786
4.6225 1.3093 -2.4924 0.9786
3.7194 2.7305 -2.3937 0.9794
3.4624 3.0526 -2.3947 0.9794
3.1776 3.3506 -2.3956 0.9794
2.5334 3.8645 -2.3972 0.9794
1.0229 4.5104 -2.3993 0.9794
0.2053 4.6212 -2.3997 0.9794
-0.2077 4.6211 -2.3998 0.9794
-0.6190 4.5840 -2.3997 0.9794
-1.0254 4.5102 -2.3995 0.9794
-1.4234 4.4002 -2.3992 0.9794
-1.8099 4.2550 -2.3988 0.9794
-2.2760 4.2519 -2.5019 0.9785
-3.3176 3.4946 -2.4998 0.9785
-3.8828 2.8473 -2.4979 0.9785
-4.6248 1.3073 -2.4933 0.9786
-4.7207 0.8892 -2.4920 0.9786
-4.7787 0.4643 -2.4908 0.9786
-4.7986 0.0362 -2.4895 0.9786
-4.7802 -0.3917 -2.4882 0.9786
-4.4991 -1.6408 -2.4844 0.9787
-4.3327 -2.0345 -2.4832 0.9787
-3.8987 -2.7695 -2.4809 0.9787
-3.6346 -3.1049 -2.4799 0.9787
-2.3076 -4.1586 -2.4673 0.9788
-1.5113 -4.4418 -2.4340 0.9791
-1.1149 -4.5828 -2.4468 0.9790
-0.7097 -4.7172 -2.4747 0.9787
0.9847 -4.6675 -2.4747 0.9787
2.1863 -4.2423 -2.4759 0.9787
2.5566 -4.0313 -2.4765 0.9787
3.5360 -3.2137 -2.4788 0.9787
3.8101 -2.8866 -2.4798 0.9787
4.0540 -2.5363 -2.4808 0.9787
4.2660 -2.1655 -2.4819 0.9787
4.7632 -0.5381 -2.4868 0.9786
4.6603 1.1640 -2.4919 0.9786
4.5402 1.5758 -2.4932 0.9786
3.8023 2.6126 -2.3933 0.9794
3.2803 3.2492 -2.3953 0.9794
2.3053 4.0057 -2.3977 0.9794
1.9393 4.1965 -2.3983 0.9794
1.1633 4.4760 -2.3992 0.9794
-1.2853 4.4428 -2.3993 0.9794
-1.6762 4.3098 -2.3990 0.9794
-2.1422 4.3213 -2.5021 0.9785
-2.5185 4.1120 -2.5015 0.9785
-2.8745 3.8699 -2.5009 0.9785
-3.5140 3.2954 -2.4992 0.9785
-3.7925 2.9677 -2.4982 0.9785
-4.0404 2.6165 -2.4972 0.9785
-4.2558 2.2447 -2.4961 0.9786
-4.4370 1.8553 -2.4949 0.9786
-4.6914 1.0364 -2.4925 0.9786
-4.7960 0.1862 -2.4899 0.9786
-4.7478 -0.6682 -2.4873 0.9786
-4.6669 -1.0885 -2.4861 0.9786
-4.5489 -1.4997 -2.4848 0.9786
-4.3949 -1.8985 -2.4836 0.9787
-4.2061 -2.2818 -2.4824 0.9787
-3.4474 -3.3097 -2.4792 0.9787
-1.2541 -4.5333 -2.4401 0.9790
-0.8537 -4.6758 -2.4658 0.9788
-0.4348 -4.7502 -2.4746 0.9787
0.4162 -4.7517 -2.4745 0.9787
1.6598 -4.4733 -2.4752 0.9787
2.0525 -4.3082 -2.4757 0.9787
3.1224 -3.6140 -2.4777 0.9787
3.7175 -3.0039 -2.4794 0.9787
3.9722 -2.6614 -2.4805 0.9787
4.5412 -1.5169 -2.4839 0.9787
4.6607 -1.1063 -2.4851 0.9786
4.7432 -0.6865 -2.4863 0.9786
4.7880 -0.2608 -2.4876 0.9786
4.7947 0.1674 -2.4889 0.9786
4.6936 1.0177 -2.4915 0.9786
4.4425 1.8372 -2.4940 0.9786
3.8814 2.4921 -2.3929 0.9794
3.0870 3.4349 -2.3959 0.9794
2.4291 3.9313 -2.3974 0.9794
1.6928 4.3025 -2.3986 0.9794
1.3025 4.4372 -2.3991 0.9794
0.0813 4.6250 -2.3997 0.9794
-1.9478 4.2583 -2.4293 0.9791
-2.7524 3.9582 -2.5011 0.9785
-3.6984 3.0851 -2.4986 0.9785
-4.3775 1.9934 -2.4953 0.9786
-4.5357 1.5942 -2.4942 0.9786
-4.6576 1.1827 -2.4929 0.9786
-4.7421 0.7622 -2.4917 0.9786
-4.7887 0.3360 -2.4904 0.9786
-4.7971 -0.0924 -2.4891 0.9786
-4.6994 -0.9423 -2.4865 0.9786
-3.8226 -2.8726 -2.4806 0.9787
-3.2488 -3.5033 -2.4786 0.9787
-2.9223 -3.7778 -2.4778 0.9787
-2.1863 -4.2017 -2.4572 0.9789
-1.7878 -4.3434 -2.4367 0.9791
-0.5830 -4.7344 -2.4747 0.9787
-4.0672 2.0537 -2.4955 0.9794
-4.2323 1.6820 -2.4944 0.9794
-4.3634 1.2972 -2.4932 0.9795
-4.5202 0.5008 -2.4909 0.9795
-4.5446 0.0956 -2.4896 0.9795
-4.5328 -0.3100 -2.4884 0.9795
-4.4848 -0.7127 -2.4872 0.9795
-4.2828 -1.4968 -2.4848 0.9795
-3.9451 -2.2319 -2.4826 0.9795
-3.7287 -2.5738 -2.4815 0.9795
-3.2096 -3.1929 -2.4796 0.9796
-2.5895 -3.7099 -2.4780 0.9796
-2.2477 -3.9250 -2.4773 0.9796
-1.1277 -4.3774 -2.4758 0.9796
-0.3319 -4.5073 -2.4753 0.9796
0.0715 -4.5188 -2.4752 0.9796
0.4742 -4.4944 -2.4753 0.9796
0.8732 -4.4345 -2.4754 0.9796
1.6477 -4.2098 -2.4760 0.9796
2.0170 -4.0468 -2.4765 0.9796
2.3704 -3.8516 -2.4770 0.9796
3.8076 -2.4542 -2.4811 0.9796
4.5043 -0.5704 -2.4867 0.9795
4.5394 -0.1665 -2.4879 0.9795
4.5384 0.2392 -2.4892 0.9795
4.5012 0.6434 -2.4904 0.9795
4.3195 1.4343 -2.4928 0.9795
3.4043 2.7408 -2.3937 0.9803
3.1474 3.0347 -2.3946 0.9803
2.5599 3.5480 -2.3962 0.9802
2.2338 3.7633 -2.3969 0.9802
1.8897 3.9485 -2.3975 0.9802
1.5304 4.1022 -2.3980 0.9802
-0.0008 4.3801 -2.3990 0.9802
-1.5379 4.1178 -2.4075 0.9802
-1.9733 4.1190 -2.5015 0.9794
-2.3323 3.9257 -2.5010 0.9794
-2.9910 3.4470 -2.4996 0.9794
-3.7928 2.5294 -2.4969 0.9794
-4.0016 2.1801 -2.4959 0.9794
-4.4300 1.0415 -2.4925 0.9795
-4.5057 -0.5723 -2.4876 0.9795
-4.3281 -1.3624 -2.4852 0.9795
-3.8079 -2.4564 -2.4819 0.9795
-3.3082 -3.0914 -2.4799 0.9796
-3.0182 -3.3729 -2.4790 0.9796
-1.2639 -4.3402 -2.4759 0.9796
-0.4726 -4.4948 -2.4754 0.9796
2.5904 -3.7082 -2.4774 0.9796
2.9116 -3.4633 -2.4781 0.9796
4.2818 -1.4947 -2.4839 0.9795
4.5312 -0.3082 -2.4875 0.9795
4.5429 0.0972 -2.4887 0.9795
4.4577 0.9038 -2.4912 0.9795
4.3614 1.2984 -2.4924 0.9795
4.2302 1.6830 -2.4935 0.9795
4.0651 2.0546 -2.4947 0.9794
3.7071 2.3102 -2.3924 0.9803
3.4878 2.6327 -2.3934 0.9803
2.3501 3.6913 -2.3967 0.9802
2.0120 3.8872 -2.3973 0.9802
1.6577 4.0521 -2.3979 0.9802
1.2899 4.1845 -2.3983 0.9802
0.5260 4.3482 -2.3989 0.9802
0.1361 4.3780 -2.3990 0.9802
-0.2550 4.3727 -2.3990 0.9802
-0.6440 4.3324 -2.3989 0.9802
-1.0277 4.2573 -2.3987 0.9802
-2.2086 3.9970 -2.5012 0.9794
-2.8821 3.5391 -2.4999 0.9794
-3.4628 2.9687 -2.4982 0.9794
-3.9321 2.3045 -2.4962 0.9794
-4.1202 1.9437 -2.4952 0.9794
-4.2753 1.5677 -2.4940 0.9794
-4.3960 1.1796 -2.4929 0.9795
-4.4816 0.7824 -2.4917 0.9795
-4.5313 0.3794 -2.4905 0.9795
-4.3693 -1.2268 -2.4856 0.9795
-4.2405 -1.6108 -2.4845 0.9795
-4.0780 -1.9817 -2.4833 0.9795
-3.8833 -2.3365 -2.4822 0.9795
-3.6579 -2.6725 -2.4812 0.9796
-3.4037 -2.9869 -2.4802 0.9796
-2.8168 -3.5417 -2.4785 0.9796
-2.4889 -3.7777 -2.4777 0.9796
-2.1415 -3.9835 -2.4771 0.9796
-1.7772 -4.1577 -2.4765 0.9796
-1.3990 -4.2989 -2.4761 0.9796
-0.2110 -4.5145 -2.4753 0.9796
0.1926 -4.5152 -2.4752 0.9796
0.5945 -4.4802 -2.4753 0.9796
1.7600 -4.1643 -2.4761 0.9796
2.1248 -3.9915 -2.4766 0.9796
3.6458 -2.6865 -2.4804 0.9796
4.0685 -1.9976 -2.4825 0.9795
4.2324 -1.6275 -2.4836 0.9795
4.4583 -0.8504 -2.4859 0.9795
4.5186 -0.4495 -2.4871 0.9795
4.5429 -0.0447 -2.4883 0.9795
4.5311 0.3608 -2.4895 0.9795
4.3991 1.1613 -2.4919 0.9795
4.2800 1.5498 -2.4931 0.9795
3.3300 2.8314 -2.3940 0.9803
3.0653 3.1183 -2.3949 0.9803
2.4641 3.6157 -2.3965 0.9802
1.7834 3.9980 -2.3977 0.9802
1.4199 4.1419 -2.3982 0.9802
0.6616 4.3295 -2.3988 0.9802
-0.1182 4.3785 -2.3990 0.9802
-0.5083 4.3505 -2.3990 0.9802
-0.8942 4.2875 -2.3988 0.9802
-1.6816 4.1588 -2.4569 0.9797
-2.4365 3.8615 -2.5008 0.9794
-2.7704 3.6278 -2.5001 0.9794
-3.0821 3.3653 -2.4994 0.9794
-3.3688 3.0759 -2.4985 0.9794
-3.8588 2.4265 -2.4966 0.9794
-4.2249 1.7008 -2.4944 0.9794
-4.5180 0.5209 -2.4909 0.9795
-4.5442 0.1158 -2.4897 0.9795
-4.1386 -1.8536 -2.4837 0.9795
-3.9550 -2.2144 -2.4826 0.9795
-2.6060 -3.6984 -2.4780 0.9796
-2.2651 -3.9150 -2.4773 0.9796
-1.5328 -4.2533 -2.4762 0.9796
0.8536 -4.4383 -2.4754 0.9796
1.2461 -4.3449 -2.4757 0.9796
1.6290 -4.2170 -2.4760 0.9796
1.9989 -4.0556 -2.4764 0.9796
3.0037 -3.3844 -2.4784 0.9796
4.3209 -1.3796 -2.4843 0.9795
4.4289 -0.9891 -2.4855 0.9795
4.5016 -0.5904 -2.4867 0.9795
4.5393 0.2190 -2.4891 0.9795
4.5039 0.6233 -2.4903 0.9795
4.3257 1.4150 -2.4927 0.9795
3.6444 2.4090 -2.3927 0.9803
3.4163 2.7256 -2.3937 0.9803
2.8798 3.2917 -2.3954 0.9803
2.2505 3.7532 -2.3969 0.9802
0.7965 4.3066 -2.3987 0.9802
0.4092 4.3608 -2.3989 0.9802
0.0187 4.3801 -2.3990 0.9802
-0.7599 4.3135 -2.3989 0.9802
-1.5148 4.1115 -2.3999 0.9802
-2.3148 3.9361 -2.5010 0.9794
-2.9757 3.4603 -2.4996 0.9794
-3.2715 3.1800 -2.4988 0.9794
-3.9920 2.1979 -2.4959 0.9794
-4.1703 1.8323 -2.4948 0.9794
-4.4254 1.0612 -2.4925 0.9795
-4.5418 -0.1481 -2.4889 0.9795
-4.3343 -1.3432 -2.4853 0.9795
-4.1952 -1.7237 -2.4841 0.9795
-3.8188 -2.4395 -2.4819 0.9795
-3.5845 -2.7692 -2.4809 0.9796
-3.0332 -3.3596 -2.4791 0.9796
-2.7206 -3.6156 -2.4783 0.9796
-0.4925 -4.4927 -2.4754 0.9796
0.7145 -4.4627 -2.4753 0.9796
1.1097 -4.3815 -2.4756 0.9796
1.4963 -4.2656 -2.4759 0.9796
1.8711 -4.1158 -2.4763 0.9796
2.2312 -3.9334 -2.4768 0.9796
2.5738 -3.7196 -2.4774 0.9796
2.8962 -3.4762 -2.4781 0.9796
3.1957 -3.2050 -2.4789 0.9796
3.4700 -2.9082 -2.4798 0.9796
3.7170 -2.5881 -2.4807 0.9796
3.9346 -2.2472 -2.4817 0.9795
4.3950 -1.1268 -2.4850 0.9795
4.4802 -0.7306 -2.4862 0.9795
4.5297 -0.3283 -2.4874 0.9795
4.5431 0.0771 -2.4887 0.9795
4.5204 0.4822 -2.4899 0.9795
4.3671 1.2790 -2.4923 0.9795
2.9809 3.1997 -2.3952 0.9803
2.6845 3.4540 -2.3959 0.9802
1.6756 4.0446 -2.3978 0.9802
1.3084 4.1787 -2.3983 0.9802
0.1555 4.3773 -2.3990 0.9802
-0.2356 4.3738 -2.3990 0.9802
-0.6247 4.3352 -2.3989 0.9802
-1.0088 4.2619 -2.3988 0.9802
-1.3847 4.1544 -2.3985 0.9802
-1.8251 4.1871 -2.5017 0.9794
-2.8664 3.5520 -2.4999 0.9794
-3.4497 2.9842 -2.4982 0.9794
-4.1117 1.9621 -2.4952 0.9794
-4.2684 1.5868 -2.4941 0.9794
-4.3908 1.1992 -2.4929 0.9795
-4.5297 0.3996 -2.4905 0.9795
-4.5241 -0.4112 -2.4881 0.9795
-4.3748 -1.2073 -2.4857 0.9795
-3.8937 -2.3193 -2.4823 0.9795
-3.6698 -2.6562 -2.4812 0.9796
-2.8325 -3.5292 -2.4785 0.9796
-2.5057 -3.7666 -2.4778 0.9796
-2.1592 -3.9740 -2.4771 0.9796
-1.4181 -4.2927 -2.4761 0.9796
0.1725 -4.5160 -2.4752 0.9796
0.5746 -4.4828 -2.4753 0.9796
0.9722 -4.4139 -2.4755 0.9796
1.7415 -4.1720 -2.4761 0.9796
2.1071 -4.0009 -2.4766 0.9796
2.7858 -3.5646 -2.4779 0.9796
3.0936 -3.3029 -2.4786 0.9796
4.3570 -1.2634 -2.4846 0.9795
4.5164 -0.4696 -2.4870 0.9795
4.5325 0.3407 -2.4895 0.9795
4.4862 0.7440 -2.4907 0.9795
4.2868 1.5307 -2.4931 0.9795
3.5789 2.5062 -2.3930 0.9803
2.7908 3.3680 -2.3957 0.9802
2.1492 3.8125 -2.3971 0.9802
1.8011 3.9900 -2.3977 0.9802
1.0638 4.2480 -2.3985 0.9802
0.6808 4.3265 -2.3988 0.9802
-0.4890 4.3527 -2.3990 0.9802
-1.6567 4.1502 -2.4475 0.9798
-2.7543 3.6402 -2.5001 0.9794
-3.0671 3.3790 -2.4994 0.9794
-3.3551 3.0909 -2.4986 0.9794
-3.6162 2.7783 -2.4976 0.9794
-4.2174 1.7196 -2.4945 0.9794
-4.3520 1.3360 -2.4934 0.9795
-4.4516 0.9421 -2.4922 0.9795
-4.5157 0.5410 -2.4910 0.9795
-4.5356 -0.2697 -2.4885 0.9795
-4.2961 -1.4588 -2.4849 0.9795
-3.7516 -2.5407 -2.4816 0.9795
-3.5086 -2.8640 -2.4806 0.9796
-2.2825 -3.9050 -2.4773 0.9796
-1.9246 -4.0920 -2.4767 0.9796
-1.5517 -4.2465 -2.4762 0.9796
-1.1665 -4.3673 -2.4758 0.9796
-0.7722 -4.4533 -2.4755 0.9796
-0.3719 -4.5042 -2.4753 0.9796
0.0313 -4.5192 -2.4752 0.9796
0.4343 -4.4985 -2.4753 0.9796
0.8338 -4.4420 -2.4754 0.9796
1.2268 -4.3504 -2.4756 0.9796
1.6102 -4.2242 -2.4760 0.9796
2.3360 -3.8724 -2.4770 0.9796
2.6728 -3.6496 -2.4776 0.9796
3.9939 -2.1412 -2.4820 0.9795
4.4243 -1.0087 -2.4854 0.9795
4.4988 -0.6104 -2.4866 0.9795
4.5401 0.1988 -2.4890 0.9795
4.4369 1.0034 -2.4915 0.9795
4.0022 2.1364 -2.4848 0.9795
3.6549 2.3928 -2.3926 0.9803
3.4283 2.7104 -2.3936 0.9803
3.1742 3.0065 -2.3945 0.9803
2.8944 3.2788 -2.3954 0.9803
2.2671 3.7432 -2.3969 0.9802
1.5667 4.0883 -2.3980 0.9802
0.8156 4.3029 -2.3987 0.9802
0.4286 4.3589 -2.3989 0.9802
-0.3527 4.3659 -2.3990 0.9802
-1.1227 4.2332 -2.3987 0.9802
-1.4956 4.1156 -2.3984 0.9802
-2.6395 3.7248 -2.5004 0.9794
-3.5280 2.8903 -2.4980 0.9794
-3.7703 2.5631 -2.4970 0.9794
-4.3088 1.4715 -2.4938 0.9794
-4.5108 -0.5323 -2.4877 0.9795
-4.4432 -0.9321 -2.4865 0.9795
-4.0322 -2.0722 -2.4830 0.9795
-3.8297 -2.4225 -2.4820 0.9795
-3.5969 -2.7533 -2.4809 0.9796
-3.3357 -3.0620 -2.4800 0.9796
-3.0481 -3.3461 -2.4791 0.9796
