ply
format ascii 1.0
element vertex 1595
property float32 x
property float32 y
property float32 z
property float32 I
end_header
5.3413 -0.5833 -2.4871 0.9766
5.3793 -0.1044 -2.4905 0.9766
5.3745 0.3765 -2.4939 0.9765
5.3266 0.8558 -2.4972 0.9765
5.2358 1.3295 -2.5005 0.9765
5.1027 1.7937 -2.5037 0.9764
4.7139 2.6787 -2.5097 0.9764
4.4610 3.0921 -2.5125 0.9764
4.1715 3.4815 -2.5151 0.9763
3.8479 3.8435 -2.5174 0.9763
3.4925 4.1751 -2.5196 0.9763
2.2663 4.9608 -2.5245 0.9762
1.8153 5.1454 -2.5256 0.9762
1.3492 5.2885 -2.5264 0.9762
0.8669 5.3568 -2.5119 0.9764
-0.0956 5.2320 -2.4222 0.9772
-0.5621 5.2017 -2.4218 0.9772
-1.0238 5.1292 -2.4211 0.9772
-1.8973 3.7809 -1.9581 0.9815
-2.7472 4.4364 -2.4154 0.9773
-3.8134 3.5403 -2.4086 0.9773
-4.1096 3.1823 -2.4059 0.9774
-4.3721 2.7996 -2.4031 0.9774
-4.5988 2.3953 -2.4002 0.9774
-4.7882 1.9728 -2.3971 0.9774
-4.9386 1.5356 -2.3940 0.9775
-5.0492 1.0873 -2.3908 0.9775
-5.1957 0.6409 -2.4232 0.9772
-5.3579 -0.3003 -2.4840 0.9766
-5.3027 -0.7762 -2.4807 0.9767
-5.0672 -1.7021 -2.4743 0.9767
-4.8891 -2.1449 -2.4713 0.9767
-4.6727 -2.5696 -2.4684 0.9768
-4.4199 -2.9731 -2.4657 0.9768
-3.4647 -4.0263 -2.4588 0.9769
-2.2700 -4.7909 -2.4540 0.9769
-1.8326 -4.9722 -2.4529 0.9769
-0.9190 -5.2161 -2.4516 0.9769
-0.4498 -5.2768 -2.4514 0.9769
0.9244 -4.9938 -2.3508 0.9779
1.3669 -4.8932 -2.3517 0.9779
1.7991 -4.7541 -2.3529 0.9778
2.2175 -4.5774 -2.3543 0.9778
3.9956 -3.1842 -2.3650 0.9777
4.5085 -2.4288 -2.3705 0.9777
4.7132 -2.0193 -2.3735 0.9777
5.2271 -1.2022 -2.4827 0.9766
5.3207 -0.7319 -2.4861 0.9766
5.3461 0.7064 -2.4962 0.9765
5.2687 1.1823 -2.4995 0.9765
3.6068 4.0749 -2.5190 0.9763
3.2313 4.3840 -2.5209 0.9763
2.8291 4.6581 -2.5227 0.9763
2.4035 4.8948 -2.5241 0.9763
1.9580 5.0921 -2.5253 0.9762
-0.4167 5.2157 -2.4219 0.9772
-1.3364 5.0553 -2.4204 0.9772
-1.7813 4.9134 -2.4192 0.9772
-2.6229 4.5125 -2.4160 0.9773
-3.0126 4.2569 -2.4140 0.9773
-3.3774 3.9674 -2.4118 0.9773
-3.7143 3.6466 -2.4094 0.9773
-4.7331 2.1066 -2.3981 0.9774
-5.0190 1.2284 -2.3918 0.9775
-5.1017 0.7745 -2.3886 0.9775
-5.3658 0.3294 -2.4884 0.9766
-5.3245 -0.6281 -2.4817 0.9766
-4.9489 -2.0083 -2.4722 0.9767
-4.7443 -2.4390 -2.4693 0.9768
-3.9165 -3.5973 -2.4616 0.9768
-2.8171 -4.4956 -2.4558 0.9769
-2.4033 -4.7263 -2.4544 0.9769
-1.9710 -4.9197 -2.4532 0.9769
-1.0644 -5.1886 -2.4518 0.9769
0.7846 -5.0171 -2.3506 0.9779
2.0884 -4.6366 -2.3539 0.9778
3.2496 -3.9270 -2.3594 0.9778
3.5905 -3.6248 -2.3617 0.9778
4.6624 -2.1536 -2.3772 0.9776
4.8639 -1.7388 -2.3910 0.9775
5.1893 -1.3471 -2.4817 0.9766
5.2959 -0.8798 -2.4850 0.9766
5.3825 0.0759 -2.4918 0.9766
5.3615 0.5566 -2.4951 0.9765
5.1908 1.5049 -2.5017 0.9765
4.3566 3.2411 -2.5135 0.9764
4.0540 3.6206 -2.5160 0.9763
2.5388 4.8249 -2.5237 0.9763
2.0991 5.0348 -2.5250 0.9762
1.1714 5.3312 -2.5266 0.9762
0.1965 5.2294 -2.4223 0.9772
-1.1949 5.0913 -2.4207 0.9772
-1.6437 4.9621 -2.4196 0.9772
-2.0787 4.7928 -2.4182 0.9772
-2.4964 4.5850 -2.4165 0.9773
-3.2663 4.0614 -2.4125 0.9773
-3.9283 3.4091 -2.4076 0.9773
-4.4614 2.6503 -2.4020 0.9774
-4.8492 1.8104 -2.3959 0.9774
-4.9848 1.3686 -2.3928 0.9775
-5.0802 0.9171 -2.3896 0.9775
-5.3567 0.4792 -2.4895 0.9766
-5.2711 -0.9529 -2.4795 0.9767
-5.1583 -1.4177 -2.4763 0.9767
-4.8123 -2.3064 -2.4702 0.9768
-4.3161 -3.1183 -2.4647 0.9768
-3.6860 -3.8286 -2.4600 0.9768
-2.1079 -4.8634 -2.4535 0.9769
-1.6648 -5.0301 -2.4526 0.9769
-1.2089 -5.1572 -2.4519 0.9769
-0.7437 -5.2437 -2.4515 0.9769
-0.2728 -5.2889 -2.4514 0.9769
0.2003 -5.2926 -2.4516 0.9769
1.5303 -4.8456 -2.3521 0.9779
1.9577 -4.6922 -2.3534 0.9778
2.3703 -4.5017 -2.3550 0.9778
3.1378 -4.0151 -2.3587 0.9778
3.4868 -3.7225 -2.3609 0.9778
3.8090 -3.4000 -2.3634 0.9777
5.1476 -1.4909 -2.4806 0.9767
5.2671 -1.0269 -2.4840 0.9766
5.3803 -0.0744 -2.4907 0.9766
5.3221 0.8856 -2.4974 0.9765
5.0930 1.8223 -2.5039 0.9764
4.9161 2.2724 -2.5069 0.9764
4.6992 2.7052 -2.5099 0.9764
4.4439 3.1172 -2.5126 0.9764
4.1523 3.5049 -2.5152 0.9763
3.8265 3.8651 -2.5176 0.9763
3.4693 4.1948 -2.5197 0.9763
2.2386 4.9735 -2.5246 0.9762
1.7865 5.1556 -2.5257 0.9762
1.3198 5.2961 -2.5264 0.9762
-0.1249 5.2313 -2.4222 0.9772
-1.0524 5.1233 -2.4210 0.9772
-1.5047 5.0068 -2.4200 0.9772
-1.9445 4.8499 -2.4187 0.9772
-2.7718 4.4208 -2.4152 0.9773
-3.5072 3.8506 -2.4109 0.9773
-3.8329 3.5187 -2.4084 0.9773
-4.6118 2.3694 -2.4000 0.9774
-4.7987 1.9459 -2.3969 0.9774
-5.2245 0.6149 -2.4350 0.9771
-5.3557 -0.3301 -2.4838 0.9766
-5.0572 -1.7303 -2.4741 0.9767
-4.4029 -2.9976 -2.4655 0.9768
-4.1136 -3.3751 -2.4630 0.9768
-3.7925 -3.7252 -2.4607 0.9768
-3.4420 -4.0454 -2.4586 0.9769
-2.2431 -4.8033 -2.4539 0.9769
-1.8048 -4.9822 -2.4528 0.9769
-0.8899 -5.2211 -2.4516 0.9769
0.0525 -5.2959 -2.4515 0.9769
0.5102 -5.1230 -2.3831 0.9776
0.9523 -4.9886 -2.3509 0.9779
2.2431 -4.5651 -2.3544 0.9778
3.0236 -4.1000 -2.3581 0.9778
3.7114 -3.5038 -2.3626 0.9778
4.2847 -2.7944 -2.3678 0.9777
4.5224 -2.4038 -2.3707 0.9777
4.7248 -1.9932 -2.3737 0.9777
5.2342 -1.1731 -2.4829 0.9766
5.3251 -0.7023 -2.4863 0.9766
5.3797 0.2563 -2.4930 0.9765
5.3426 0.7364 -2.4964 0.9765
5.2625 1.2118 -2.4997 0.9765
5.1399 1.6787 -2.5029 0.9764
4.5277 2.9908 -2.5118 0.9764
3.9318 3.7557 -2.5169 0.9763
1.4670 5.2567 -2.5262 0.9762
0.4881 5.2103 -2.4223 0.9772
-1.2866 4.7593 -2.4183 0.9783
-2.4969 4.2411 -2.4141 0.9783
-2.8632 3.9982 -2.4122 0.9783
-3.2058 3.7235 -2.4102 0.9783
-3.8092 3.0882 -2.4054 0.9784
-4.0652 2.7329 -2.4028 0.9784
-4.2879 2.3566 -2.4000 0.9784
-4.6273 1.5530 -2.3942 0.9785
-4.7415 1.1324 -2.3912 0.9785
-5.0257 0.7343 -2.4914 0.9776
-5.0215 -0.6208 -2.4819 0.9777
-4.8193 -1.4999 -2.4758 0.9778
-4.4657 -2.3274 -2.4702 0.9778
-3.9727 -3.0780 -2.4652 0.9779
-3.3565 -3.7287 -2.4609 0.9779
-3.0081 -4.0104 -2.4591 0.9779
-2.2446 -4.4760 -2.4562 0.9779
-1.4120 -4.8001 -2.4543 0.9780
-0.5361 -4.9730 -2.4535 0.9780
0.3566 -4.9897 -2.4538 0.9780
0.7938 -4.8971 -2.4335 0.9781
1.1873 -4.6484 -2.3534 0.9789
1.6018 -4.5364 -2.3598 0.9788
1.9967 -4.3677 -2.3557 0.9788
2.3801 -4.1748 -2.3573 0.9788
2.7452 -3.9487 -2.3590 0.9788
3.0892 -3.6910 -2.3610 0.9788
3.7032 -3.0890 -2.3655 0.9787
4.4732 -2.0360 -2.4108 0.9783
4.7686 -1.6748 -2.4792 0.9777
5.0029 -0.8025 -2.4854 0.9777
5.0788 0.1000 -2.4918 0.9776
4.9928 1.0038 -2.4981 0.9776
4.7462 1.8799 -2.5041 0.9775
4.5647 2.2986 -2.5070 0.9775
4.0920 3.0799 -2.5122 0.9774
3.8043 3.4360 -2.5146 0.9774
3.1380 4.0642 -2.5187 0.9774
2.3685 4.5629 -2.5218 0.9774
1.9527 4.7583 -2.5230 0.9773
1.5208 4.9153 -2.5239 0.9773
1.0764 5.0326 -2.5245 0.9773
-0.7212 4.8794 -2.4194 0.9783
-2.7512 4.0776 -2.4129 0.9783
-3.1015 3.8126 -2.4108 0.9783
-3.4262 3.5174 -2.4086 0.9784
-3.7227 3.1944 -2.4062 0.9784
-3.9887 2.8464 -2.4036 0.9784
-4.2220 2.4763 -2.4009 0.9784
-4.4209 2.0872 -2.3981 0.9785
-4.5840 1.6823 -2.3952 0.9785
-4.9110 0.8582 -2.4455 0.9780
-5.0680 -0.0290 -2.4860 0.9777
-4.9696 -0.9271 -2.4798 0.9777
-4.7143 -1.7915 -2.4738 0.9778
-4.5305 -2.2026 -2.4710 0.9778
-4.0584 -2.9667 -2.4659 0.9779
-3.7739 -3.3140 -2.4636 0.9779
-3.4601 -3.6345 -2.4615 0.9779
-2.7550 -4.1856 -2.4580 0.9779
-1.5456 -4.7592 -2.4545 0.9780
-1.1145 -4.8769 -2.4539 0.9780
-0.2297 -4.9965 -2.4535 0.9780
0.2171 -4.9975 -2.4537 0.9780
0.6624 -4.9592 -2.4542 0.9780
1.0617 -4.7007 -2.3639 0.9788
1.8736 -4.4209 -2.3553 0.9788
2.9841 -3.7748 -2.3603 0.9788
3.8887 -2.8578 -2.3672 0.9787
4.1328 -2.5021 -2.3698 0.9787
4.3600 -2.1334 -2.3810 0.9786
4.8666 -1.3801 -2.4813 0.9777
4.9766 -0.9415 -2.4844 0.9777
5.0472 -0.4942 -2.4876 0.9777
5.0776 -0.0419 -2.4908 0.9776
5.0169 0.8637 -2.4971 0.9776
4.9259 1.3096 -2.5002 0.9775
4.7951 1.7460 -2.5032 0.9775
4.1750 2.9635 -2.5114 0.9774
3.5883 3.6653 -2.5161 0.9774
1.6573 4.8705 -2.5236 0.9773
-0.1453 4.9315 -2.4201 0.9783
-1.0192 4.8248 -2.4189 0.9783
-1.4451 4.7127 -2.4179 0.9783
-1.8589 4.5626 -2.4167 0.9783
-3.3276 3.6127 -2.4093 0.9784
-3.6332 3.2982 -2.4070 0.9784
-3.9090 2.9577 -2.4044 0.9784
-4.1527 2.5941 -2.4018 0.9784
-4.5369 1.8103 -2.3961 0.9785
-4.7808 0.9737 -2.3932 0.9785
-5.0451 0.5652 -2.4902 0.9776
-5.0689 0.1126 -2.4870 0.9777
-5.0523 -0.3398 -2.4839 0.9777
-4.9955 -0.7883 -2.4807 0.9777
-4.7642 -1.6598 -2.4747 0.9778
-4.1409 -2.8531 -2.4667 0.9778
-3.2287 -3.8379 -2.4602 0.9779
-2.0930 -4.5479 -2.4558 0.9779
-0.8129 -4.9356 -2.4536 0.9780
0.0775 -5.0014 -2.4536 0.9780
0.5236 -4.9754 -2.4540 0.9780
0.9412 -4.7853 -2.3923 0.9785
1.3425 -4.6067 -2.3537 0.9788
2.1424 -4.2993 -2.3563 0.9788
2.8768 -3.8557 -2.3597 0.9788
3.5228 -3.2888 -2.3640 0.9788
3.8061 -2.9643 -2.3664 0.9787
4.6195 -1.9184 -2.4536 0.9780
5.0294 -0.6347 -2.4866 0.9777
5.0725 -0.1836 -2.4898 0.9776
4.9586 1.1710 -2.4992 0.9776
4.8402 1.6108 -2.5023 0.9775
4.6826 2.0387 -2.5052 0.9775
4.4870 2.4512 -2.5080 0.9775
4.2548 2.8449 -2.5106 0.9775
3.9879 3.2164 -2.5131 0.9774
3.3584 3.8808 -2.5175 0.9774
3.0009 4.1681 -2.5193 0.9774
2.6186 4.4221 -2.5209 0.9774
2.2147 4.6406 -2.5223 0.9774
1.7925 4.8217 -2.5233 0.9773
1.3555 4.9641 -2.5241 0.9773
-0.0075 4.9338 -2.4202 0.9783
-0.4478 4.9127 -2.4198 0.9783
-0.8842 4.8519 -2.4192 0.9783
-2.5205 4.2269 -2.4140 0.9783
-3.2264 3.7053 -2.4100 0.9783
-3.8261 3.0667 -2.4052 0.9784
-4.0801 2.7100 -2.4026 0.9784
-4.4863 1.9370 -2.3970 0.9785
-4.7474 1.1058 -2.3911 0.9785
-5.0293 0.7062 -2.4912 0.9776
-5.0618 -0.1987 -2.4848 0.9777
-5.0175 -0.6488 -2.4817 0.9777
-4.9335 -1.0926 -2.4786 0.9777
-4.8105 -1.5267 -2.4757 0.9778
-4.6497 -1.9476 -2.4728 0.9778
-4.4524 -2.3522 -2.4700 0.9778
-4.2203 -2.7373 -2.4674 0.9778
-3.9553 -3.0999 -2.4650 0.9779
-3.6595 -3.4374 -2.4628 0.9779
-2.9855 -4.0270 -2.4590 0.9779
-1.8093 -4.6665 -2.4551 0.9779
-1.3852 -4.8078 -2.4543 0.9780
-0.5083 -4.9759 -2.4535 0.9780
1.2132 -4.6418 -2.3534 0.9789
2.0211 -4.3566 -2.3558 0.9788
2.4034 -4.1616 -2.3574 0.9788
3.4286 -3.3848 -2.3633 0.9788
4.4962 -2.0162 -2.4171 0.9783
4.9124 -1.2168 -2.4825 0.9777
5.0786 0.1283 -2.4920 0.9776
4.8814 1.4745 -2.5013 0.9775
4.3312 2.7241 -2.5098 0.9775
4.0749 3.1029 -2.5124 0.9774
3.4646 3.7846 -2.5169 0.9774
3.1154 4.0818 -2.5188 0.9774
1.4934 4.9238 -2.5239 0.9773
1.0483 5.0387 -2.5245 0.9773
0.1302 4.9322 -2.4202 0.9783
-1.1801 4.7873 -2.4186 0.9783
-1.6019 4.6608 -2.4175 0.9783
-2.4020 4.2966 -2.4146 0.9783
-2.7738 4.0620 -2.4127 0.9783
-3.4456 3.4980 -2.4085 0.9784
-4.4322 2.0623 -2.3979 0.9785
-4.5929 1.6565 -2.3950 0.9785
-4.9408 0.8350 -2.4579 0.9779
-5.0357 -0.5086 -2.4827 0.9777
-4.9640 -0.9548 -2.4796 0.9777
-4.8531 -1.3923 -2.4766 0.9778
-4.7039 -1.8177 -2.4737 0.9778
-4.5178 -2.2277 -2.4709 0.9778
-4.2964 -2.6192 -2.4682 0.9778
-4.0415 -2.9892 -2.4658 0.9779
-3.7551 -3.3348 -2.4635 0.9779
-3.4396 -3.6535 -2.4614 0.9779
-3.0975 -3.9429 -2.4595 0.9779
-2.3443 -4.4253 -2.4565 0.9779
-1.9392 -4.6147 -2.4554 0.9779
-1.5190 -4.7677 -2.4545 0.9780
-0.6470 -4.9599 -2.4536 0.9780
-0.2018 -4.9977 -2.4535 0.9780
0.2450 -4.9962 -2.4537 0.9780
1.4964 -4.5600 -2.3541 0.9788
1.8984 -4.4105 -2.3554 0.9788
2.2858 -4.2262 -2.3568 0.9788
2.6558 -4.0082 -2.3585 0.9788
3.3317 -3.4782 -2.3626 0.9788
3.6324 -3.1701 -2.3649 0.9787
3.9049 -2.8363 -2.3674 0.9787
4.1470 -2.4792 -2.3700 0.9787
4.3825 -2.1141 -2.3868 0.9786
5.0503 -0.4660 -2.4878 0.9777
5.0782 -0.0135 -2.4910 0.9776
5.0656 0.4403 -2.4942 0.9776
4.7856 1.7729 -2.5034 0.9775
4.1587 2.9870 -2.5116 0.9774
3.5680 3.6854 -2.5162 0.9774
1.6301 4.8797 -2.5237 0.9773
0.7370 5.0940 -2.5247 0.9773
-0.1728 4.9306 -2.4201 0.9783
-1.0461 4.8190 -2.4189 0.9783
-1.4714 4.7044 -2.4179 0.9783
-1.9895 3.8044 -2.1059 0.9811
-3.6513 3.2776 -2.4068 0.9784
-3.9252 2.9356 -2.4043 0.9784
-4.1668 2.5707 -2.4016 0.9784
-4.5466 1.7848 -2.3959 0.9785
-4.8061 0.9510 -2.4032 0.9784
-5.0478 0.5370 -2.4900 0.9776
-5.0690 0.0843 -2.4868 0.9777
-4.9906 -0.8161 -2.4806 0.9777
-4.8919 -1.2567 -2.4775 0.9777
-4.7546 -1.6862 -2.4746 0.9778
-4.3693 -2.4990 -2.4690 0.9778
-4.1246 -2.8761 -2.4665 0.9778
-3.2071 -3.8558 -2.4601 0.9779
-2.4674 -4.3588 -2.4569 0.9779
-1.6517 -4.7238 -2.4547 0.9780
-1.2232 -4.8511 -2.4540 0.9780
-0.7853 -4.9400 -2.4536 0.9780
1.3683 -4.5993 -2.3538 0.9788
1.7741 -4.4611 -2.3550 0.9788
2.5422 -4.0798 -2.3580 0.9788
3.5413 -3.2692 -2.3642 0.9788
3.8229 -2.9432 -2.3666 0.9787
4.2948 -2.2217 -2.3719 0.9787
4.8330 -1.4880 -2.4805 0.9777
4.9527 -1.0520 -2.4836 0.9777
5.0738 -0.1552 -2.4900 0.9776
5.0333 0.7511 -2.4963 0.9776
4.8315 1.6380 -2.5024 0.9775
4.2391 2.8688 -2.5108 0.9775
3.6685 3.5834 -2.5155 0.9774
3.3368 3.8997 -2.5176 0.9774
2.1888 4.6530 -2.5223 0.9774
1.7656 4.8318 -2.5234 0.9773
1.3277 4.9716 -2.5242 0.9773
0.4126 5.0056 -2.4637 0.9779
-0.9112 4.8468 -2.4191 0.9783
-1.7568 4.6036 -2.4170 0.9783
-1.8566 3.8054 -2.0769 0.9813
-2.5439 4.2125 -2.4139 0.9783
-2.9074 3.9656 -2.4120 0.9783
-3.8429 3.0451 -2.4051 0.9784
-4.3133 2.3082 -2.3997 0.9784
-4.6437 1.5010 -2.3939 0.9785
-4.7531 1.0792 -2.3909 0.9785
-5.0134 -0.6767 -2.4815 0.9777
-4.9270 -1.1201 -2.4784 0.9777
-4.6384 -1.9734 -2.4726 0.9778
-3.9377 -3.1218 -2.4649 0.9779
-3.6401 -3.4576 -2.4627 0.9779
-3.3143 -3.7656 -2.4607 0.9779
-2.9628 -4.0434 -2.4589 0.9779
-2.5886 -4.2890 -2.4573 0.9779
-1.7832 -4.6764 -2.4550 0.9779
-0.4805 -4.9787 -2.4535 0.9780
-0.0343 -5.0018 -2.4536 0.9780
0.8433 -4.8585 -2.4188 0.9783
1.6486 -4.5081 -2.3546 0.9788
2.0455 -4.3455 -2.3559 0.9788
2.4268 -4.1483 -2.3575 0.9788
2.7894 -3.9182 -2.3592 0.9788
3.1306 -3.6567 -2.3612 0.9788
3.4476 -3.3658 -2.3634 0.9788
3.7380 -3.0478 -2.3658 0.9787
3.9993 -2.7049 -2.3683 0.9787
4.5192 -1.9963 -2.4234 0.9782
4.7877 -1.6217 -2.4796 0.9777
4.9195 -1.1895 -2.4827 0.9777
5.0782 0.1567 -2.4922 0.9776
5.0504 0.6100 -2.4953 0.9776
4.9820 1.0596 -2.4985 0.9776
3.7661 3.4787 -2.5148 0.9774
3.4436 3.8041 -2.5170 0.9774
3.0927 4.0993 -2.5189 0.9774
1.4659 4.9322 -2.5239 0.9773
0.5659 5.1160 -2.5248 0.9773
-1.2068 4.7805 -2.4185 0.9783
-1.6278 4.6516 -2.4174 0.9783
-2.4259 4.2829 -2.4144 0.9783
-3.7577 3.1522 -2.4059 0.9784
-4.0196 2.8013 -2.4033 0.9784
-4.2488 2.4286 -2.4006 0.9784
-4.6018 1.6307 -2.3948 0.9785
-5.0666 -0.0856 -2.4856 0.9777
-4.9582 -0.9824 -2.4794 0.9777
-4.2815 -2.6430 -2.4681 0.9778
-4.0245 -3.0115 -2.4656 0.9779
-3.7362 -3.3556 -2.4633 0.9779
-1.4924 -4.7760 -2.4544 0.9780
-1.0599 -4.8889 -2.4539 0.9780
-0.1739 -4.9988 -2.4535 0.9780
1.5219 -4.5517 -2.3542 0.9788
1.9230 -4.4000 -2.3555 0.9788
2.3095 -4.2135 -2.3569 0.9788
2.6782 -3.9935 -2.3587 0.9788
3.9209 -2.8146 -2.3675 0.9787
4.8824 -1.3258 -2.4817 0.9777
4.9875 -0.8859 -2.4848 0.9777
5.0532 -0.4379 -2.4880 0.9777
5.0786 0.0148 -2.4912 0.9776
5.0077 0.9198 -2.4975 0.9776
4.7760 1.7997 -2.5036 0.9775
4.3898 2.6260 -2.5092 0.9775
3.8607 3.3712 -2.5141 0.9774
3.2052 4.0104 -2.5183 0.9774
2.8365 4.2834 -2.5201 0.9774
2.4444 4.5221 -2.5215 0.9774
2.0320 4.7245 -2.5228 0.9773
1.6029 4.8889 -2.5237 0.9773
-0.2003 4.9295 -2.4200 0.9783
-0.6394 4.8910 -2.4196 0.9783
-1.0730 4.8129 -2.4188 0.9783
-1.9096 4.5412 -2.4165 0.9783
-2.6829 4.1237 -2.4132 0.9783
-3.0377 3.8647 -2.4112 0.9783
-3.6694 3.2570 -2.4067 0.9784
-3.9412 2.9134 -2.4041 0.9784
-4.5562 1.7592 -2.3957 0.9785
-4.6892 1.3439 -2.3928 0.9785
-4.8316 0.9280 -2.4133 0.9783
-5.0503 0.5087 -2.4898 0.9776
-5.0474 -0.3961 -2.4835 0.9777
-4.8844 -1.2839 -2.4773 0.9778
-4.7447 -1.7126 -2.4744 0.9778
-4.1082 -2.8988 -2.4664 0.9778
-3.5211 -3.5765 -2.4619 0.9779
-2.8250 -4.1394 -2.4583 0.9779
-1.6253 -4.7329 -2.4547 0.9780
-1.1961 -4.8578 -2.4540 0.9780
-0.7577 -4.9443 -2.4536 0.9780
-0.3134 -4.9920 -2.4535 0.9780
0.5792 -4.9693 -2.4541 0.9780
0.9898 -4.7513 -2.3807 0.9786
1.3940 -4.5917 -2.3539 0.9788
1.7991 -4.4512 -2.3550 0.9788
2.1905 -4.2755 -2.3565 0.9788
2.9200 -3.8237 -2.3600 0.9788
3.2524 -3.5510 -2.3620 0.9788
4.6705 -1.8787 -2.4694 0.9778
4.9460 1.2265 -2.4996 0.9776
4.6602 2.0912 -2.5055 0.9775
4.2233 2.8926 -2.5110 0.9775
3.9522 3.2611 -2.5134 0.9774
3.6487 3.6041 -2.5157 0.9774
2.9544 4.2017 -2.5195 0.9774
2.5692 4.4514 -2.5211 0.9774
1.7386 4.8417 -2.5234 0.9773
0.8506 5.0761 -2.5247 0.9773
0.3830 4.9857 -2.4528 0.9780
-0.0627 4.9334 -2.4201 0.9783
-0.5026 4.9073 -2.4197 0.9783
-0.9383 4.8415 -2.4191 0.9783
-1.3660 4.7367 -2.4181 0.9783
-1.8757 3.7907 -2.0746 0.9813
-2.5673 4.1980 -2.4138 0.9783
-2.9294 3.9491 -2.4119 0.9783
-3.5781 3.3592 -2.4074 0.9784
-3.8596 3.0233 -2.4049 0.9784
-4.1095 2.6639 -2.4023 0.9784
-4.3259 2.2839 -2.3995 0.9784
-4.5070 1.8865 -2.3966 0.9785
-4.7587 1.0526 -2.3907 0.9785
-5.0675 0.1976 -2.4876 0.9777
-5.0585 -0.2551 -2.4845 0.9777
-5.0092 -0.7047 -2.4813 0.9777
-4.7924 -1.5801 -2.4753 0.9778
-4.6270 -1.9992 -2.4724 0.9778
-4.4252 -2.4015 -2.4697 0.9778
-3.6205 -3.4777 -2.4625 0.9779
-3.2930 -3.7839 -2.4605 0.9779
-2.9401 -4.0597 -2.4588 0.9779
-2.1691 -4.5126 -2.4560 0.9779
-0.0063 -5.0019 -2.4536 0.9780
0.4401 -4.9832 -2.4539 0.9780
0.8679 -4.8393 -2.4117 0.9783
1.2651 -4.6282 -2.3535 0.9789
1.6738 -4.4990 -2.3546 0.9788
2.8114 -3.9027 -2.3594 0.9788
3.1511 -3.6394 -2.3614 0.9788
3.7552 -3.0271 -2.3660 0.9787
4.0147 -2.6827 -2.3685 0.9787
4.2428 -2.3164 -2.3712 0.9787
4.7971 -1.5951 -2.4798 0.9777
4.9264 -1.1621 -2.4828 0.9777
5.0674 -0.2685 -2.4892 0.9776
5.0777 0.1851 -2.4924 0.9776
4.8654 1.5292 -2.5017 0.9775
4.3011 2.7727 -2.5102 0.9775
4.0405 3.1486 -2.5127 0.9774
3.4225 3.8234 -2.5171 0.9774
3.0699 4.1167 -2.5190 0.9774
2.2919 4.6024 -2.5220 0.9774
1.8729 4.7907 -2.5231 0.9773
1.4383 4.9404 -2.5240 0.9773
0.5352 5.0986 -2.5147 0.9774
-0.3654 4.9197 -2.4199 0.9783
-1.7798 3.8646 -2.0871 0.9812
-2.4496 4.2691 -2.4143 0.9783
-2.8187 4.0304 -2.4125 0.9783
-4.4543 2.0124 -2.3976 0.9785
-5.0621 0.3391 -2.4886 0.9776
-5.0656 -0.1138 -2.4854 0.9777
-4.4921 -2.2777 -2.4705 0.9778
-4.2663 -2.6667 -2.4679 0.9778
-4.0073 -3.0337 -2.4655 0.9779
-3.3982 -3.6913 -2.4611 0.9779
-3.0530 -3.9769 -2.4593 0.9779
-2.6841 -4.2307 -2.4577 0.9779
-2.2946 -4.4509 -2.4563 0.9779
-1.8874 -4.6358 -2.4552 0.9779
-1.4656 -4.7842 -2.4544 0.9780
-1.0326 -4.8947 -2.4538 0.9780
0.3008 -4.9933 -2.4538 0.9780
1.5473 -4.5433 -2.3543 0.9788
2.7006 -3.9787 -2.3588 0.9788
3.0475 -3.7249 -2.3607 0.9788
3.6680 -3.1297 -2.3652 0.9787
4.8901 -1.2987 -2.4819 0.9777
4.9928 -0.8581 -2.4850 0.9777
5.0559 -0.4097 -2.4882 0.9777
5.0612 0.4969 -2.4946 0.9776
4.9044 1.3922 -2.5008 0.9775
4.7662 1.8265 -2.5037 0.9775
4.1256 3.0336 -2.5119 0.9774
3.8421 3.3929 -2.5143 0.9774
3.5270 3.7254 -2.5165 0.9774
3.1829 4.0285 -2.5184 0.9774
2.8126 4.2994 -2.5202 0.9774
2.4191 4.5359 -2.5216 0.9774
1.5756 4.8978 -2.5238 0.9773
0.6801 5.1020 -2.5248 0.9773
-0.6667 4.8873 -2.4195 0.9783
-1.9349 4.5303 -2.4164 0.9783
-3.3871 3.5559 -2.4089 0.9784
-3.6873 3.2362 -2.4065 0.9784
-4.1947 2.5236 -2.4013 0.9784
-4.3980 2.1368 -2.3985 0.9785
-4.5656 1.7336 -2.3955 0.9785
-4.6962 1.3177 -2.3926 0.9785
-5.0526 0.4805 -2.4896 0.9776
-5.0689 0.0276 -2.4864 0.9777
-5.0447 -0.4243 -2.4833 0.9777
-4.9804 -0.8717 -2.4802 0.9777
-4.8768 -1.3111 -2.4771 0.9778
-3.8111 -3.2720 -2.4639 0.9779
-3.5009 -3.5959 -2.4618 0.9779
-2.4184 -4.3858 -2.4567 0.9779
-2.0163 -4.5820 -2.4556 0.9779
-1.5988 -4.7418 -2.4546 0.9780
-0.7301 -4.9484 -2.4536 0.9780
0.1613 -4.9995 -2.4537 0.9780
3.5781 -3.2299 -2.3644 0.9788
3.8560 -2.9007 -2.3669 0.9787
4.8501 -1.4341 -2.4809 0.9777
5.0405 -0.5505 -2.4872 0.9777
5.0255 0.8074 -2.4967 0.9776
4.9395 1.2542 -2.4998 0.9776
4.6488 2.1173 -2.5057 0.9775
4.4462 2.5265 -2.5085 0.9775
4.2074 2.9163 -2.5111 0.9775
3.9341 3.2833 -2.5136 0.9774
3.2934 3.9371 -2.5178 0.9774
2.1368 4.6775 -2.5225 0.9773
1.2721 4.9863 -2.5242 0.9773
0.8222 5.0808 -2.5247 0.9773
0.3536 4.9660 -2.4421 0.9781
-0.0902 4.9329 -2.4201 0.9783
-0.5300 4.9044 -2.4197 0.9783
-0.9653 4.8361 -2.4190 0.9783
-1.8080 4.5834 -2.4168 0.9783
-1.8948 3.7760 -2.0723 0.9814
-2.5906 4.1835 -2.4137 0.9783
-3.8762 3.0015 -2.4048 0.9784
-4.3382 2.2596 -2.3993 0.9784
-4.5171 1.8612 -2.3965 0.9785
-4.6594 1.4488 -2.3935 0.9785
-5.0681 0.1692 -2.4874 0.9777
-5.0048 -0.7326 -2.4811 0.9777
-4.6154 -2.0248 -2.4723 0.9778
-4.1730 -2.8070 -2.4670 0.9778
-3.6008 -3.4977 -2.4624 0.9779
-2.9173 -4.0759 -2.4587 0.9779
-2.1438 -4.5245 -2.4559 0.9779
-1.3044 -4.8301 -2.4542 0.9780
-0.4249 -4.9837 -2.4535 0.9780
0.4680 -4.9807 -2.4539 0.9780
1.2909 -4.6212 -2.3536 0.9788
1.6990 -4.4897 -2.3547 0.9788
2.0941 -4.3226 -2.3561 0.9788
2.4731 -4.1213 -2.3577 0.9788
3.1716 -3.6219 -2.3615 0.9788
3.4854 -3.3275 -2.3637 0.9788
4.5690 -1.9575 -2.4382 0.9781
4.8063 -1.5684 -2.4799 0.9777
4.9332 -1.1346 -2.4830 0.9777
5.0693 -0.2402 -2.4894 0.9776
3.4012 3.8427 -2.5172 0.9774
3.0470 4.1340 -2.5191 0.9774
2.2662 4.6153 -2.5221 0.9774
1.8462 4.8012 -2.5232 0.9773
1.4108 4.9484 -2.5240 0.9773
0.9637 5.0556 -2.5246 0.9773
0.5040 5.0744 -2.5013 0.9775
0.0476 4.9337 -2.4202 0.9783
-1.2600 4.7665 -2.4184 0.9783
-1.6796 4.6329 -2.4173 0.9783
-1.7991 3.8498 -2.0844 0.9812
-2.8410 4.0143 -2.4124 0.9783
-3.1852 3.7415 -2.4103 0.9783
-3.7921 3.1096 -2.4056 0.9784
-4.4651 1.9873 -2.3974 0.9785
-4.6190 1.5790 -2.3944 0.9785
-4.7355 1.1590 -2.3914 0.9785
-5.0220 0.7624 -2.4916 0.9776
-5.0645 -0.1421 -2.4852 0.9777
-5.0253 -0.5928 -2.4821 0.9777
-4.9462 -1.0376 -2.4790 0.9777
-4.6718 -1.8958 -2.4731 0.9778
-4.4790 -2.3026 -2.4704 0.9778
-3.6981 -3.3967 -2.4631 0.9779
-2.2696 -4.4635 -2.4563 0.9779
-1.4388 -4.7922 -2.4544 0.9780
-1.0053 -4.9004 -2.4538 0.9780
-0.1181 -5.0004 -2.4535 0.9780
1.1612 -4.6549 -2.3533 0.9789
1.5790 -4.5528 -2.3637 0.9788
1.9722 -4.3786 -2.3556 0.9788
2.3566 -4.1878 -2.3571 0.9788
3.9526 -2.7710 -2.3678 0.9787
4.4504 -2.0556 -2.4047 0.9784
4.7588 -1.7013 -2.4790 0.9777
4.9979 -0.8303 -2.4852 0.9777
5.0789 0.0716 -2.4916 0.9776
4.8969 1.4197 -2.5009 0.9775
4.7563 1.8532 -2.5039 0.9775
4.1088 3.0568 -2.5121 0.9774
3.8233 3.4145 -2.5144 0.9774
2.7887 4.3152 -2.5203 0.9774
1.5483 4.9067 -2.5238 0.9773
1.1045 5.0265 -2.5244 0.9773
0.1853 4.9305 -2.4202 0.9783
-0.2554 4.9269 -2.4200 0.9783
-1.1266 4.8004 -2.4187 0.9783
-1.9601 4.5193 -2.4163 0.9783
-2.3541 4.3235 -2.4148 0.9783
-3.4067 3.5367 -2.4087 0.9784
-5.0548 0.4522 -2.4894 0.9776
-5.0418 -0.4524 -2.4831 0.9777
-4.9751 -0.8994 -2.4800 0.9777
-4.5431 -2.1774 -2.4712 0.9778
-4.0751 -2.9442 -2.4661 0.9779
-3.4806 -3.6153 -2.4616 0.9779
-3.1416 -3.9084 -2.4597 0.9779
-1.9907 -4.5930 -2.4555 0.9779
-1.5722 -4.7506 -2.4546 0.9780
-1.1417 -4.8707 -2.4539 0.9780
0.1892 -4.9986 -2.4537 0.9780
1.4453 -4.5761 -2.3540 0.9788
2.6106 -4.0373 -2.3583 0.9788
2.9628 -3.7912 -2.3602 0.9788
3.5963 -3.2101 -2.3646 0.9788
4.3376 -2.1525 -2.3753 0.9787
4.8584 -1.4071 -2.4811 0.9777
4.9708 -0.9692 -2.4842 0.9777
5.0769 -0.0702 -2.4906 0.9776
5.0694 0.3836 -2.4938 0.9776
5.0213 0.8355 -2.4969 0.9776
4.9327 1.2819 -2.5000 0.9775
3.6086 3.6450 -2.5159 0.9774
3.2715 3.9556 -2.5180 0.9774
2.5195 4.4801 -2.5213 0.9774
2.1107 4.6895 -2.5226 0.9773
0.7939 5.0854 -2.5247 0.9773
0.3244 4.9464 -2.4315 0.9782
-0.5573 4.9013 -2.4197 0.9783
-0.9922 4.8306 -2.4190 0.9783
-1.8335 4.5731 -2.4168 0.9783
-3.3076 3.6315 -2.4095 0.9784
-4.1384 2.6175 -2.4019 0.9784
-4.9064 -1.2022 -2.4779 0.9777
-3.5811 -3.5175 -2.4623 0.9779
-3.2503 -3.8201 -2.4603 0.9779
-2.8943 -4.0920 -2.4586 0.9779
-2.1184 -4.5363 -2.4558 0.9779
-1.7045 -4.7053 -2.4548 0.9780
-1.2774 -4.8372 -2.4541 0.9780
-0.8404 -4.9310 -2.4537 0.9780
-0.3970 -4.9860 -2.4535 0.9780
0.4958 -4.9781 -2.4540 0.9780
0.9168 -4.8024 -2.3982 0.9785
2.4962 -4.1076 -2.3578 0.9788
3.1919 -3.6043 -2.3616 0.9788
3.7893 -2.9853 -2.3663 0.9787
4.0449 -2.6381 -2.3688 0.9787
4.2691 -2.2692 -2.3715 0.9787
5.0253 -0.6627 -2.4864 0.9777
5.0406 0.6948 -2.4959 0.9776
4.9647 1.1432 -2.4990 0.9776
4.5003 2.4260 -2.5078 0.9775
4.2704 2.8209 -2.5105 0.9775
3.0240 4.1511 -2.5192 0.9774
1.8193 4.8116 -2.5233 0.9773
0.4732 5.0504 -2.4882 0.9777
-0.8098 4.5888 -2.4174 0.9792
-1.2156 4.4967 -2.4165 0.9792
-1.6113 4.3683 -2.4154 0.9792
-1.8159 3.8298 -2.1988 0.9811
-3.3285 3.2314 -2.4066 0.9793
-3.6001 2.9187 -2.4043 0.9793
-4.2309 1.8548 -2.3966 0.9794
-4.7889 0.2671 -2.4882 0.9786
-4.7487 -0.5871 -2.4823 0.9787
-4.5581 -1.4186 -2.4765 0.9787
-4.4085 -1.8177 -2.4738 0.9787
-4.0069 -2.5672 -2.4687 0.9788
-3.1756 -3.5278 -2.4624 0.9788
-2.4946 -4.0308 -2.4592 0.9789
-2.1238 -4.2352 -2.4579 0.9789
-0.5072 -4.7058 -2.4554 0.9789
0.3374 -4.7216 -2.4557 0.9789
2.2519 -3.9499 -2.3588 0.9797
2.9305 -3.5014 -2.3687 0.9796
3.5031 -2.9220 -2.3666 0.9797
4.3454 -1.9778 -2.4769 0.9787
4.6386 -1.1765 -2.4826 0.9787
4.7308 -0.7588 -2.4856 0.9786
4.7854 -0.3340 -2.4886 0.9786
4.8019 0.0945 -2.4916 0.9786
4.7800 0.5233 -2.4946 0.9786
4.7199 0.9489 -2.4976 0.9785
4.6217 1.3679 -2.5005 0.9785
4.1075 2.5515 -2.5085 0.9784
3.8671 2.9106 -2.5109 0.9784
3.5951 3.2470 -2.5131 0.9784
2.9651 3.8403 -2.5170 0.9784
2.6123 4.0921 -2.5186 0.9784
1.8450 4.4958 -2.5211 0.9783
1.0169 4.7548 -2.5225 0.9783
-0.2673 4.6534 -2.4181 0.9792
-0.6814 4.6100 -2.4176 0.9792
-1.0897 4.5294 -2.4168 0.9792
-2.2471 4.0726 -2.4131 0.9793
-2.5997 3.8531 -2.4113 0.9793
-3.5183 3.0190 -2.4051 0.9793
-3.7698 2.6903 -2.4026 0.9793
-4.1789 1.9729 -2.3974 0.9794
-4.3333 1.5903 -2.3947 0.9794
-4.4811 1.2034 -2.4071 0.9793
-4.7323 0.8270 -2.4922 0.9786
-4.7923 -0.0274 -2.4862 0.9786
-4.7650 -0.4544 -2.4832 0.9787
-4.6999 -0.8768 -2.4803 0.9787
-4.2854 -2.0834 -2.4720 0.9788
-4.0782 -2.4551 -2.4695 0.9788
-3.8392 -2.8065 -2.4671 0.9788
-3.2736 -3.4385 -2.4630 0.9788
-2.9515 -3.7143 -2.4612 0.9788
-2.2416 -4.1749 -2.4583 0.9789
-1.0546 -4.6148 -2.4558 0.9789
-0.2174 -4.7280 -2.4554 0.9789
0.2054 -4.7289 -2.4556 0.9789
1.0433 -4.6193 -2.4567 0.9789
1.4200 -4.4099 -2.4035 0.9793
2.1403 -4.0105 -2.3583 0.9797
2.8301 -3.5799 -2.3674 0.9796
3.4191 -3.0178 -2.3659 0.9797
4.6023 -1.3051 -2.4817 0.9787
4.7059 -0.8902 -2.4847 0.9786
4.7724 -0.4673 -2.4876 0.9786
4.7910 0.3895 -2.4937 0.9786
4.7428 0.8164 -2.4966 0.9785
4.6564 1.2379 -2.4996 0.9785
4.5325 1.6504 -2.5024 0.9785
4.3719 2.0505 -2.5051 0.9785
4.1758 2.4350 -2.5077 0.9785
3.9457 2.8007 -2.5102 0.9784
3.6833 3.1445 -2.5125 0.9784
3.3909 3.4636 -2.5146 0.9784
3.0706 3.7552 -2.5165 0.9784
2.7250 4.0169 -2.5181 0.9784
1.9696 4.4419 -2.5207 0.9783
1.5658 4.6017 -2.5217 0.9783
1.1493 4.7243 -2.5223 0.9783
0.2912 4.8543 -2.5228 0.9783
-0.1373 4.6593 -2.4182 0.9792
-0.5524 4.6276 -2.4178 0.9792
-1.3654 4.4527 -2.4161 0.9792
-2.4917 3.9251 -2.4119 0.9793
-2.8299 3.6843 -2.4101 0.9793
-3.1447 3.4141 -2.4080 0.9793
-3.6944 2.7954 -2.4034 0.9793
-4.1237 2.0896 -2.3983 0.9794
-4.2888 1.7113 -2.3955 0.9794
-4.4192 1.3202 -2.3927 0.9794
-4.7091 0.9592 -2.4931 0.9786
-4.7701 0.5344 -2.4901 0.9786
-4.6335 -1.1628 -2.4783 0.9787
-4.5061 -1.5699 -2.4755 0.9787
-3.3692 -3.3466 -2.4636 0.9788
-3.0548 -3.6312 -2.4617 0.9788
-2.7167 -3.8867 -2.4601 0.9789
-1.9804 -4.3033 -2.4575 0.9789
-1.1831 -4.5838 -2.4559 0.9789
0.9139 -4.6461 -2.4565 0.9789
1.3100 -4.4952 -2.4290 0.9791
1.6582 -4.2383 -2.3610 0.9797
2.0271 -4.0679 -2.3578 0.9797
2.7293 -3.6580 -2.3677 0.9796
3.0510 -3.4066 -2.3725 0.9796
3.6004 -2.8041 -2.3674 0.9796
3.8814 -2.5006 -2.3953 0.9794
4.2253 -2.2157 -2.4751 0.9787
4.4112 -1.8319 -2.4779 0.9787
4.7557 -0.6001 -2.4867 0.9786
4.7961 -0.1736 -2.4897 0.9786
4.7982 0.2555 -2.4927 0.9786
4.7620 0.6835 -2.4957 0.9786
4.6875 1.1070 -2.4987 0.9785
4.4259 1.9270 -2.5043 0.9785
4.2408 2.3167 -2.5069 0.9785
3.1735 3.6671 -2.5159 0.9784
2.4742 4.1783 -2.5191 0.9784
2.0925 4.3846 -2.5204 0.9783
1.6936 4.5557 -2.5214 0.9783
0.4266 4.8443 -2.5228 0.9783
-1.6357 4.3591 -2.4154 0.9792
-1.8350 3.8150 -2.1962 0.9811
-2.3816 3.9941 -2.4124 0.9793
-2.7266 3.7628 -2.4107 0.9793
-3.6161 2.8983 -2.4042 0.9793
-3.8564 2.5614 -2.4017 0.9794
-4.0651 2.2047 -2.3991 0.9794
-4.3823 1.4436 -2.3936 0.9794
-4.6285 1.0781 -2.4654 0.9788
-4.7552 0.6677 -2.4911 0.9786
-4.7900 0.2403 -2.4881 0.9786
-4.7865 -0.1879 -2.4851 0.9786
-4.6658 -1.0333 -2.4792 0.9787
-4.3979 -1.8422 -2.4736 0.9787
-4.2116 -2.2250 -2.4710 0.9788
-3.9922 -2.5894 -2.4686 0.9788
-3.7418 -2.9326 -2.4663 0.9788
-3.4622 -3.2520 -2.4642 0.9788
-3.1557 -3.5453 -2.4623 0.9788
-2.8248 -3.8101 -2.4606 0.9789
-2.4720 -4.0446 -2.4591 0.9789
-2.1001 -4.2469 -2.4579 0.9789
-1.7120 -4.4156 -2.4569 0.9789
-1.3108 -4.5494 -2.4561 0.9789
-0.8993 -4.6472 -2.4556 0.9789
-0.0588 -4.7327 -2.4554 0.9789
0.7837 -4.6694 -2.4563 0.9789
1.5510 -4.3158 -2.3792 0.9795
2.6283 -3.7359 -2.3697 0.9796
2.9506 -3.4857 -2.3692 0.9796
3.5196 -2.9026 -2.3667 0.9797
3.7787 -2.5866 -2.3756 0.9796
4.7774 0.5500 -2.4948 0.9786
4.7148 0.9753 -2.4977 0.9785
4.6143 1.3938 -2.5006 0.9785
4.3024 2.1967 -2.5061 0.9785
3.8510 2.9324 -2.5111 0.9784
3.2739 3.5763 -2.5153 0.9784
2.5895 4.1068 -2.5187 0.9784
2.2138 4.3238 -2.5200 0.9783
1.8199 4.5061 -2.5211 0.9783
0.9904 4.7605 -2.5225 0.9783
0.1262 4.7803 -2.4808 0.9787
-0.2933 4.6518 -2.4181 0.9792
-1.5135 4.4037 -2.4157 0.9792
-2.2697 4.0599 -2.4130 0.9793
-2.6211 3.8384 -2.4112 0.9793
-3.2562 3.3057 -2.4072 0.9793
-4.1896 1.9494 -2.3972 0.9794
-4.3418 1.5659 -2.3945 0.9794
-4.7364 0.8005 -2.4920 0.9786
-4.7620 -0.4810 -2.4830 0.9787
-4.6946 -0.9030 -2.4801 0.9787
-4.4492 -1.7193 -2.4745 0.9787
-4.0642 -2.4776 -2.4693 0.9788
-3.5525 -3.1549 -2.4648 0.9788
-3.2542 -3.4566 -2.4629 0.9788
-2.9306 -3.7305 -2.4611 0.9788
-1.4374 -4.5114 -2.4563 0.9789
-1.0288 -4.6206 -2.4558 0.9789
-0.6123 -4.6934 -2.4554 0.9789
-0.1910 -4.7292 -2.4554 0.9789
0.2318 -4.7277 -2.4556 0.9789
0.6530 -4.6891 -2.4561 0.9789
1.4420 -4.3942 -2.3992 0.9794
1.7962 -4.1732 -2.3570 0.9797
2.1627 -3.9986 -2.3584 0.9797
3.1519 -3.2905 -2.3638 0.9797
3.4361 -2.9988 -2.3660 0.9797
3.6937 -2.6829 -2.3683 0.9796
4.0067 -2.3953 -2.4217 0.9792
4.2990 -2.0738 -2.4762 0.9787
4.4720 -1.6838 -2.4790 0.9787
4.6098 -1.2795 -2.4819 0.9787
4.7753 -0.4407 -2.4878 0.9786
4.8013 -0.0128 -2.4909 0.9786
4.6498 1.2640 -2.4997 0.9785
4.3607 2.0750 -2.5053 0.9785
3.6659 3.1652 -2.5126 0.9784
3.3716 3.4826 -2.5147 0.9784
2.7026 4.0322 -2.5182 0.9784
1.1229 4.7307 -2.5224 0.9783
0.6963 4.8127 -2.5227 0.9783
0.2640 4.8559 -2.5228 0.9783
-0.1633 4.6584 -2.4182 0.9792
-0.5782 4.6244 -2.4177 0.9792
-0.9884 4.5530 -2.4170 0.9792
-1.3902 4.4449 -2.4161 0.9792
-1.7804 4.3010 -2.4149 0.9792
-2.5134 3.9110 -2.4118 0.9793
-3.4508 3.0976 -2.4056 0.9793
-4.1350 2.0664 -2.3981 0.9794
-4.2980 1.6872 -2.3953 0.9794
-4.4262 1.2954 -2.3925 0.9794
-4.7140 0.9328 -2.4929 0.9786
-4.7931 0.0797 -2.4869 0.9786
-4.7754 -0.3480 -2.4839 0.9787
-4.6266 -1.1886 -2.4781 0.9787
-4.4970 -1.5949 -2.4753 0.9787
-4.1331 -2.3639 -2.4701 0.9788
-3.9018 -2.7207 -2.4677 0.9788
-3.6402 -3.0553 -2.4655 0.9788
-3.0343 -3.6480 -2.4616 0.9788
-1.9563 -4.3142 -2.4575 0.9789
-0.7431 -4.6746 -2.4555 0.9789
-0.3229 -4.7220 -2.4554 0.9789
0.0997 -4.7322 -2.4555 0.9789
0.9398 -4.6410 -2.4565 0.9789
2.0498 -4.0567 -2.3579 0.9797
2.4053 -3.8601 -2.3595 0.9797
2.7495 -3.6424 -2.3675 0.9796
3.0710 -3.3908 -2.3733 0.9796
3.3501 -3.0927 -2.3653 0.9797
3.6162 -2.7841 -2.3676 0.9796
4.2379 -2.1923 -2.4753 0.9787
4.4217 -1.8074 -2.4781 0.9787
4.5706 -1.4072 -2.4810 0.9787
4.6835 -0.9948 -2.4839 0.9787
4.7973 -0.1468 -2.4899 0.9786
4.7971 0.2823 -2.4929 0.9786
4.5669 1.5483 -2.5017 0.9785
4.2280 2.3405 -2.5071 0.9785
3.4667 3.3863 -2.5141 0.9784
2.8136 3.9544 -2.5177 0.9784
1.6681 4.5652 -2.5215 0.9783
1.2544 4.6972 -2.5222 0.9783
0.8304 4.7913 -2.5227 0.9783
-0.0332 4.6699 -2.4227 0.9792
-0.8609 4.5793 -2.4173 0.9792
-1.2657 4.4826 -2.4164 0.9792
-1.6599 4.3497 -2.4153 0.9792
-2.4038 3.9805 -2.4123 0.9793
-3.3639 3.1937 -2.4064 0.9793
-4.6554 1.0570 -2.4766 0.9787
-4.7411 -0.6400 -2.4819 0.9787
-4.6596 -1.0593 -2.4790 0.9787
-4.5414 -1.4692 -2.4762 0.9787
-4.3873 -1.8666 -2.4735 0.9787
-4.1988 -2.2483 -2.4709 0.9788
-3.7251 -2.9533 -2.4662 0.9788
-2.4493 -4.0582 -2.4590 0.9789
-2.0763 -4.2584 -2.4578 0.9789
-1.2853 -4.5565 -2.4561 0.9789
-0.0324 -4.7330 -2.4554 0.9789
0.3901 -4.7176 -2.4557 0.9789
0.8098 -4.6650 -2.4563 0.9789
1.5726 -4.3002 -2.3754 0.9796
1.9354 -4.1115 -2.3575 0.9797
2.9707 -3.4699 -2.3697 0.9796
3.2615 -3.1841 -2.3646 0.9797
3.5359 -2.8831 -2.3669 0.9797
3.7991 -2.5695 -2.3794 0.9795
4.1410 -2.2909 -2.4551 0.9789
4.3679 -1.9294 -2.4772 0.9787
4.7396 -0.7060 -2.4860 0.9786
4.8013 0.1482 -2.4920 0.9786
4.7097 1.0017 -2.4979 0.9785
4.6068 1.4196 -2.5008 0.9785
4.0792 2.5975 -2.5088 0.9784
2.1897 4.3363 -2.5201 0.9783
1.7947 4.5163 -2.5212 0.9783
1.3850 4.6600 -2.5220 0.9783
0.5347 4.8335 -2.5228 0.9783
0.0991 4.7593 -2.4695 0.9788
-0.3209 4.6734 -2.4302 0.9791
-0.7328 4.6020 -2.4175 0.9792
-1.1402 4.5167 -2.4167 0.9792
-2.2922 4.0470 -2.4129 0.9793
-3.2744 3.2873 -2.4071 0.9793
-3.5513 2.9791 -2.4048 0.9793
-4.0160 2.2956 -2.3997 0.9794
-4.2001 1.9259 -2.3971 0.9794
-4.5275 1.1618 -2.4249 0.9792
-4.6891 -0.9291 -2.4799 0.9787
-4.5822 -1.3423 -2.4771 0.9787
-4.4392 -1.7440 -2.4743 0.9787
-4.2613 -2.1309 -2.4717 0.9788
-3.8072 -2.8489 -2.4669 0.9788
-3.5347 -3.1745 -2.4647 0.9788
-3.2347 -3.4746 -2.4627 0.9788
-2.9096 -3.7467 -2.4610 0.9789
-2.5621 -3.9889 -2.4595 0.9789
-2.1947 -4.1994 -2.4582 0.9789
-1.4121 -4.5192 -2.4563 0.9789
-0.5860 -4.6967 -2.4554 0.9789
0.6792 -4.6854 -2.4561 0.9789
2.1851 -3.9866 -2.3585 0.9797
2.5339 -3.7783 -2.3601 0.9797
3.1704 -3.2730 -2.3640 0.9797
3.4530 -2.9798 -2.3661 0.9797
3.7088 -2.6624 -2.3685 0.9796
4.0288 -2.3781 -2.4270 0.9791
4.4816 -1.6589 -2.4792 0.9787
4.6172 -1.2538 -2.4821 0.9787
4.7780 -0.4140 -2.4880 0.9786
4.8017 0.0141 -2.4910 0.9786
4.7871 0.4430 -2.4940 0.9786
4.7341 0.8695 -2.4970 0.9785
4.5144 1.7011 -2.5027 0.9785
3.9146 2.8449 -2.5105 0.9784
3.6484 3.1858 -2.5127 0.9784
3.3523 3.5016 -2.5148 0.9784
3.0287 3.7896 -2.5167 0.9784
2.6801 4.0474 -2.5183 0.9784
-0.1893 4.6574 -2.4181 0.9792
-0.6041 4.6210 -2.4177 0.9792
-1.8044 4.2908 -2.4148 0.9792
-2.8705 3.6521 -2.4098 0.9793
-3.4678 3.0781 -2.4055 0.9793
-3.9517 2.4076 -2.4006 0.9794
-4.1462 2.0431 -2.3979 0.9794
-4.3070 1.6630 -2.3952 0.9794
-4.4330 1.2705 -2.3924 0.9794
-4.7188 0.9063 -2.4928 0.9786
-4.7932 0.0529 -2.4867 0.9786
-4.7730 -0.3746 -2.4838 0.9787
-4.6196 -1.2143 -2.4779 0.9787
-4.3206 -2.0117 -2.4725 0.9788
-3.8864 -2.7423 -2.4676 0.9788
-2.6729 -3.9165 -2.4599 0.9789
-1.9321 -4.3249 -2.4574 0.9789
-1.5379 -4.4785 -2.4565 0.9789
-0.2966 -4.7237 -2.4554 0.9789
1.7023 -4.2117 -2.3567 0.9797
3.0911 -3.3749 -2.3742 0.9796
3.3675 -3.0741 -2.3654 0.9797
3.6319 -2.7640 -2.3677 0.9796
3.9228 -2.4658 -2.4037 0.9793
4.6893 -0.9688 -2.4841 0.9787
4.7547 0.7367 -2.4961 0.9786
4.6755 1.1595 -2.4990 0.9785
4.5585 1.5739 -2.5019 0.9785
4.4048 1.9766 -2.5046 0.9785
3.7349 3.0819 -2.5120 0.9784
3.4479 3.4057 -2.5142 0.9784
3.1326 3.7027 -2.5161 0.9784
2.7916 3.9702 -2.5178 0.9784
2.4275 4.2059 -2.5193 0.9784
1.6426 4.5745 -2.5215 0.9783
0.3724 4.8488 -2.5228 0.9783
-0.4748 4.6364 -2.4179 0.9792
-0.8865 4.5744 -2.4172 0.9792
-1.8732 3.7856 -2.1912 0.9811
-2.7681 3.7317 -2.4104 0.9793
-3.3816 3.1746 -2.4062 0.9793
-3.6478 2.8574 -2.4039 0.9793
-4.0889 2.1588 -2.3988 0.9794
-4.3975 1.3943 -2.3932 0.9794
-4.7371 -0.6664 -2.4817 0.9787
-4.3765 -1.8909 -2.4733 0.9787
-3.9626 -2.6335 -2.4683 0.9788
-3.7084 -2.9739 -2.4660 0.9788
-3.1156 -3.5800 -2.4621 0.9788
-2.7818 -3.8411 -2.4604 0.9789
-2.0524 -4.2699 -2.4577 0.9789
-1.6625 -4.4342 -2.4568 0.9789
-1.2598 -4.5636 -2.4560 0.9789
-0.8474 -4.6569 -2.4556 0.9789
-0.0060 -4.7331 -2.4555 0.9789
0.4165 -4.7154 -2.4558 0.9789
0.8358 -4.6605 -2.4564 0.9789
1.2430 -4.5474 -2.4457 0.9790
1.5941 -4.2847 -2.3717 0.9796
3.2794 -3.1660 -2.3648 0.9797
3.5522 -2.8635 -2.3670 0.9796
4.3789 -1.9051 -2.4774 0.9787
4.5367 -1.5085 -2.4802 0.9787
4.7914 -0.2538 -2.4892 0.9786
4.7043 1.0281 -2.4981 0.9785
4.0649 2.6204 -2.5090 0.9784
3.8184 2.9755 -2.5113 0.9784
2.9007 3.8899 -2.5173 0.9784
2.5436 4.1358 -2.5189 0.9784
1.7695 4.5264 -2.5212 0.9783
1.3590 4.6677 -2.5220 0.9783
0.0722 4.7410 -2.4598 0.9789
-0.7585 4.5977 -2.4174 0.9792
-1.1654 4.5102 -2.4166 0.9792
-1.5625 4.3863 -2.4156 0.9792
-2.3147 4.0339 -2.4128 0.9793
-2.9903 3.5527 -2.4091 0.9793
-3.5677 2.9591 -2.4046 0.9793
-4.2105 1.9022 -2.3969 0.9794
-4.3710 1.5215 -2.4010 0.9794
-4.5510 1.1408 -2.4340 0.9791
-4.7444 0.7474 -2.4916 0.9786
-4.7863 0.3206 -2.4886 0.9786
-4.6835 -0.9552 -2.4797 0.9787
-4.5743 -1.3678 -2.4769 0.9787
-4.4291 -1.7686 -2.4741 0.9787
-3.5167 -3.1941 -2.4646 0.9788
-3.2151 -3.4924 -2.4626 0.9788
-1.7859 -4.3866 -2.4570 0.9789
-0.1382 -4.7310 -2.4554 0.9789
0.2846 -4.7249 -2.4556 0.9789
2.2075 -3.9745 -2.3586 0.9797
2.5675 -3.7825 -2.3716 0.9796
3.1888 -3.2554 -2.3641 0.9797
3.7239 -2.6418 -2.3686 0.9796
4.0511 -2.3608 -2.4324 0.9791
4.3225 -2.0259 -2.4765 0.9787
4.4912 -1.6339 -2.4793 0.9787
4.6245 -1.2281 -2.4822 0.9787
4.8019 0.0409 -2.4912 0.9786
4.7295 0.8960 -2.4972 0.9785
3.8989 2.8669 -2.5106 0.9784
3.6308 3.2063 -2.5129 0.9784
3.3329 3.5204 -2.5149 0.9784
2.6576 4.0624 -2.5184 0.9784
2.2857 4.2857 -2.5198 0.9784
1.8950 4.4747 -2.5209 0.9783
1.4886 4.6275 -2.5218 0.9783
1.0700 4.7430 -2.5224 0.9783
0.6425 4.8203 -2.5228 0.9783
-0.2153 4.6562 -2.4181 0.9792
-0.6299 4.6175 -2.4176 0.9792
-1.4397 4.4288 -2.4159 0.9792
-1.8282 4.2805 -2.4147 0.9792
-2.2016 4.0978 -2.4133 0.9793
-2.8907 3.6358 -2.4097 0.9793
-3.9648 2.3853 -2.4004 0.9794
-4.1572 2.0198 -2.3977 0.9794
-4.3159 1.6388 -2.3950 0.9794
-4.7234 0.8799 -2.4926 0.9786
-4.7773 0.4543 -2.4896 0.9786
-4.7930 0.0261 -2.4866 0.9786
-4.6123 -1.2400 -2.4778 0.9787
-4.3090 -2.0357 -2.4723 0.9788
-3.3121 -3.4021 -2.4632 0.9788
-2.2882 -4.1498 -2.4585 0.9789
-1.5128 -4.4869 -2.4565 0.9789
-1.1061 -4.6028 -2.4558 0.9789
0.1526 -4.7308 -2.4555 0.9789
0.9916 -4.6304 -2.4566 0.9789
1.7259 -4.2023 -2.3567 0.9797
2.0952 -4.0338 -2.3581 0.9797
2.4484 -3.8333 -2.3597 0.9797
2.7898 -3.6112 -2.3673 0.9796
3.1113 -3.3590 -2.3752 0.9796
3.3848 -3.0554 -2.3656 0.9797
3.9436 -2.4482 -2.4081 0.9793
4.2627 -2.1451 -2.4756 0.9787
4.5867 -1.3562 -2.4813 0.9787
4.6950 -0.9426 -2.4843 0.9787
4.7994 -0.0932 -2.4903 0.9786
4.7509 0.7633 -2.4963 0.9786
3.7178 3.1028 -2.5122 0.9784
3.1120 3.7203 -2.5162 0.9784
2.7695 3.9859 -2.5179 0.9784
2.4041 4.2196 -2.5194 0.9784
0.7768 4.8003 -2.5227 0.9783
0.3454 4.8508 -2.5228 0.9783
-0.0852 4.6606 -2.4182 0.9792
-0.9120 4.5692 -2.4172 0.9792
-3.1067 3.4494 -2.4083 0.9793
-3.6635 2.8368 -2.4037 0.9793
-3.8979 2.4959 -2.4012 0.9794
-4.1006 2.1358 -2.3986 0.9794
-4.2700 1.7593 -2.3959 0.9794
-4.4049 1.3696 -2.3931 0.9794
-4.6988 1.0118 -2.4935 0.9786
-4.7646 0.5878 -2.4905 0.9786
-4.7330 -0.6928 -2.4815 0.9787
-4.5240 -1.5196 -2.4758 0.9787
-4.3656 -1.9152 -2.4731 0.9787
-3.4067 -3.3091 -2.4638 0.9788
-2.7602 -3.8565 -2.4603 0.9789
-2.4036 -4.0850 -2.4589 0.9789
-0.8213 -4.6615 -2.4556 0.9789
0.4428 -4.7131 -2.4558 0.9789
1.2654 -4.5300 -2.4400 0.9790
1.6156 -4.2692 -2.3681 0.9796
2.3399 -3.8993 -2.3592 0.9797
3.0108 -3.4383 -2.3710 0.9796
4.1867 -2.2555 -2.4671 0.9788
4.6651 -1.0730 -2.4833 0.9787
4.8000 0.2018 -2.4924 0.9786
4.7686 0.6301 -2.4953 0.9786
4.4466 1.8772 -2.5039 0.9785
3.8020 2.9970 -2.5115 0.9784
3.2140 3.6311 -2.5157 0.9784
2.1412 4.3607 -2.5203 0.9783
1.3329 4.6753 -2.5221 0.9783
0.4807 4.8392 -2.5228 0.9783
-0.7841 4.5934 -2.4174 0.9792
-1.1905 4.5035 -2.4166 0.9792
-2.3371 4.0207 -2.4126 0.9793
-2.6846 3.7934 -2.4109 0.9793
-3.0100 3.5358 -2.4089 0.9793
-3.3106 3.2502 -2.4068 0.9793
-3.5840 2.9389 -2.4045 0.9793
-3.8280 2.6047 -2.4020 0.9794
-4.0408 2.2502 -2.3994 0.9794
-4.7877 0.2939 -2.4884 0.9786
-4.7890 -0.1344 -2.4854 0.9786
-4.5663 -1.3932 -2.4767 0.9787
-4.2367 -2.1781 -2.4714 0.9788
-4.0214 -2.5449 -2.4689 0.9788
-2.8674 -3.7786 -2.4608 0.9789
-1.3615 -4.5346 -2.4562 0.9789
-0.1117 -4.7317 -2.4554 0.9789
0.3111 -4.7233 -2.4557 0.9789
1.5076 -4.3471 -2.3869 0.9795
2.2297 -3.9623 -2.3587 0.9797
2.9104 -3.5172 -2.3683 0.9796
3.7388 -2.6211 -2.3688 0.9796
4.0734 -2.3435 -2.4379 0.9790
4.7831 -0.3607 -2.4884 0.9786
4.8020 0.0677 -2.4914 0.9786
4.7247 0.9225 -2.4974 0.9785
4.4957 1.7517 -2.5031 0.9785
3.8831 2.8888 -2.5108 0.9784
3.6130 3.2267 -2.5130 0.9784
2.9864 3.8235 -2.5169 0.9784
2.6350 4.0774 -2.5185 0.9784
2.2618 4.2986 -2.5199 0.9783
0.1813 4.8230 -2.5039 0.9785
-1.8520 4.2701 -2.4146 0.9792
-2.5783 3.8678 -2.4115 0.9793
-2.9109 3.6194 -2.4096 0.9793
-3.2194 3.3423 -2.4075 0.9793
-3.7550 2.7114 -2.4028 0.9793
-3.9778 2.3630 -2.4002 0.9794
-4.1681 1.9964 -2.3976 0.9794
-4.3247 1.6146 -2.3948 0.9794
-4.7794 0.4276 -2.4894 0.9786
-4.7927 -0.0006 -2.4864 0.9786
-3.8550 -2.7852 -2.4673 0.9788
-2.6288 -3.9459 -2.4597 0.9789
-2.2650 -4.1624 -2.4584 0.9789
-1.8836 -4.3460 -2.4573 0.9789
-1.0804 -4.6089 -2.4558 0.9789
-0.6647 -4.6862 -2.4555 0.9789
-0.2438 -4.7267 -2.4554 0.9789
1.0175 -4.6249 -2.4567 0.9789
1.7493 -4.1927 -2.3568 0.9797
2.8099 -3.5956 -2.3673 0.9796
3.1146 -3.3251 -2.3636 0.9797
3.6630 -2.7236 -2.3680 0.9796
4.5946 -1.3307 -2.4815 0.9787
4.7005 -0.9165 -2.4845 0.9787
4.7693 -0.4939 -2.4875 0.9786
3.7007 3.1237 -2.5123 0.9784
3.4100 3.4444 -2.5144 0.9784
3.0914 3.7378 -2.5163 0.9784
2.7473 4.0014 -2.5180 0.9784
2.3806 4.2331 -2.5195 0.9784
1.9943 4.4307 -2.5207 0.9783
1.5915 4.5928 -2.5216 0.9783
1.1756 4.7177 -2.5223 0.9783
-0.1113 4.6600 -2.4182 0.9792
-0.9375 4.5640 -2.4171 0.9792
-1.3405 4.4604 -2.4162 0.9792
-1.7324 4.3209 -2.4150 0.9792
-1.9112 3.7563 -2.1864 0.9812
-2.4698 3.9392 -2.4120 0.9793
-3.4164 3.1363 -2.4059 0.9793
-3.6790 2.8161 -2.4036 0.9793
-3.9116 2.4740 -2.4011 0.9794
-4.1122 2.1127 -2.3984 0.9794
-4.2795 1.7354 -2.3957 0.9794
-4.7674 0.5611 -2.4903 0.9786
-4.7927 0.1333 -2.4873 0.9786
-4.7287 -0.7192 -2.4814 0.9787
-4.6402 -1.1370 -2.4785 0.9787
-4.5151 -1.5448 -2.4757 0.9787
-4.3545 -1.9394 -2.4730 0.9787
-3.9325 -2.6773 -2.4680 0.9788
-3.6745 -3.0148 -2.4658 0.9788
-3.3880 -3.3279 -2.4637 0.9788
-2.3807 -4.0982 -2.4588 0.9789
-1.6128 -4.4523 -2.4567 0.9789
-1.2087 -4.5772 -2.4560 0.9789
-0.7953 -4.6660 -2.4555 0.9789
0.4692 -4.7106 -2.4558 0.9789
0.8879 -4.6511 -2.4565 0.9789
2.0043 -4.0790 -2.3577 0.9797
2.7092 -3.6736 -2.3680 0.9796
3.0309 -3.4225 -2.3717 0.9796
3.5844 -2.8239 -2.3673 0.9796
3.8607 -2.5179 -2.3912 0.9794
4.2096 -2.2376 -2.4732 0.9787
4.4005 -1.8564 -2.4777 0.9787
4.7946 -0.2003 -2.4895 0.9786
4.7992 0.2286 -2.4925 0.9786
4.5833 1.4970 -2.5013 0.9785
4.2534 2.2929 -2.5068 0.9785
2.4975 4.1642 -2.5191 0.9784
2.1169 4.3727 -2.5203 0.9783
0.0187 4.6027 -2.5209 0.9792
-0.3765 4.4028 -2.4202 0.9800
-1.1506 4.2563 -2.4149 0.9801
-1.5252 4.1349 -2.4138 0.9801
-2.2335 3.7935 -2.4111 0.9801
-2.8681 3.3312 -2.4076 0.9802
-3.4086 2.7634 -2.4033 0.9802
-3.8378 2.1092 -2.3985 0.9802
-4.0065 1.7564 -2.3960 0.9802
-4.5360 0.2530 -2.4883 0.9795
-4.4985 -0.5561 -2.4826 0.9795
-4.4260 -0.9543 -2.4799 0.9796
-4.1770 -1.7223 -2.4746 0.9796
-4.0026 -2.0861 -2.4721 0.9796
-3.5615 -2.7593 -2.4676 0.9797
-3.2983 -3.0637 -2.4656 0.9797
-3.0095 -3.3433 -2.4638 0.9797
-2.6974 -3.5962 -2.4621 0.9797
-2.3643 -3.8204 -2.4607 0.9797
-0.4808 -4.4604 -2.4571 0.9797
-0.0808 -4.4856 -2.4572 0.9797
0.7181 -4.4299 -2.4579 0.9797
1.1109 -4.3494 -2.4587 0.9797
1.8594 -4.0674 -2.4495 0.9798
2.7986 -3.3438 -2.3883 0.9803
3.1057 -3.1005 -2.4036 0.9802
3.4197 -2.8525 -2.4390 0.9799
4.1170 -1.8738 -2.4775 0.9796
4.3942 -1.1146 -2.4829 0.9795
4.5327 -0.3163 -2.4886 0.9795
4.5480 0.0895 -2.4914 0.9795
3.8889 2.4157 -2.5075 0.9793
3.4035 3.0739 -2.5118 0.9793
2.8068 3.6353 -2.5155 0.9793
2.4727 3.8736 -2.5170 0.9793
2.1183 4.0809 -2.5183 0.9792
1.3601 4.3957 -2.5201 0.9792
0.9626 4.5005 -2.5207 0.9792
0.1472 4.6005 -2.5210 0.9792
-1.7169 3.8987 -2.3332 0.9808
-2.1271 3.8552 -2.4116 0.9801
-2.4610 3.6476 -2.4100 0.9801
-2.7746 3.4108 -2.4082 0.9801
-3.5694 2.5472 -2.4017 0.9802
-3.7787 2.2163 -2.3993 0.9802
-4.5288 0.3797 -2.4892 0.9795
-4.5394 -0.0260 -2.4863 0.9795
-4.5139 -0.4305 -2.4835 0.9795
-4.4525 -0.8306 -2.4807 0.9796
-4.3558 -1.2233 -2.4780 0.9796
-4.0605 -1.9741 -2.4729 0.9796
-3.8644 -2.3264 -2.4705 0.9796
-3.1024 -3.2587 -2.4643 0.9797
-2.7973 -3.5202 -2.4626 0.9797
-2.4705 -3.7535 -2.4611 0.9797
-2.1246 -3.9570 -2.4599 0.9797
-1.3863 -4.2684 -2.4581 0.9797
-0.9996 -4.3741 -2.4575 0.9797
-0.6052 -4.4453 -2.4572 0.9797
-0.2061 -4.4815 -2.4571 0.9797
0.9889 -4.3783 -2.4584 0.9797
1.3762 -4.2741 -2.4593 0.9797
1.7529 -4.1362 -2.4605 0.9797
2.7027 -3.4188 -2.3869 0.9803
3.3198 -2.9301 -2.4252 0.9800
3.8642 -2.3395 -2.4741 0.9796
4.4578 -0.8433 -2.4849 0.9795
4.4916 0.7732 -2.4962 0.9794
4.4095 1.1723 -2.4990 0.9794
4.1396 1.9415 -2.5042 0.9794
3.9537 2.3055 -2.5067 0.9793
3.7356 2.6516 -2.5090 0.9793
3.2100 3.2788 -2.5132 0.9793
2.9067 3.5548 -2.5150 0.9793
1.8642 4.2045 -2.5190 0.9792
1.0878 4.4716 -2.5205 0.9792
0.6845 4.5515 -2.5209 0.9792
-0.5229 4.3801 -2.4160 0.9801
-1.2924 4.2147 -2.4145 0.9801
-3.2509 2.9511 -2.4047 0.9802
-4.4600 0.9084 -2.4929 0.9795
-4.5400 0.1008 -2.4872 0.9795
-4.5257 -0.3044 -2.4844 0.9795
-4.4755 -0.7063 -2.4816 0.9795
-4.2694 -1.4874 -2.4762 0.9796
-4.1154 -1.8605 -2.4736 0.9796
-3.9291 -2.2182 -2.4712 0.9796
-3.7120 -2.5576 -2.4689 0.9797
-3.1929 -3.1716 -2.4649 0.9797
-2.8951 -3.4414 -2.4631 0.9797
-2.5748 -3.6837 -2.4616 0.9797
-2.2346 -3.8967 -2.4603 0.9797
-1.8771 -4.0787 -2.4591 0.9797
-1.5051 -4.2285 -2.4583 0.9797
-1.1214 -4.3448 -2.4576 0.9797
-0.7291 -4.4268 -2.4573 0.9797
1.6365 -4.1829 -2.4601 0.9797
2.2959 -3.7309 -2.3993 0.9802
2.9137 -3.2533 -2.3920 0.9803
3.5412 -2.7580 -2.4584 0.9797
4.1792 -1.7355 -2.4785 0.9796
4.3221 -1.3571 -2.4812 0.9796
4.4310 -0.9671 -2.4840 0.9795
4.5047 -0.5685 -2.4868 0.9795
4.4390 1.0483 -2.4981 0.9794
4.0153 2.1935 -2.5060 0.9793
3.5679 2.8777 -2.5105 0.9793
3.2996 3.1872 -2.5126 0.9793
2.6841 3.7282 -2.5161 0.9793
1.9807 4.1503 -2.5187 0.9792
1.2121 4.4392 -2.5204 0.9792
0.8113 4.5305 -2.5208 0.9792
0.4038 4.5851 -2.5210 0.9792
-0.7907 4.3390 -2.4156 0.9801
-1.5483 4.1262 -2.4138 0.9801
-1.8325 3.8098 -2.3155 0.9809
-2.2545 3.7809 -2.4110 0.9801
-3.1681 3.0415 -2.4054 0.9802
-3.4237 2.7441 -2.4032 0.9802
-3.6514 2.4253 -2.4008 0.9802
-4.0159 1.7339 -2.3958 0.9802
-4.5038 0.6324 -2.4909 0.9795
-4.5371 0.2277 -2.4881 0.9795
-4.5341 -0.1779 -2.4852 0.9795
-4.4950 -0.5812 -2.4824 0.9795
-4.4203 -0.9790 -2.4797 0.9796
-3.7830 -2.4537 -2.4696 0.9796
-3.2810 -3.0819 -2.4655 0.9797
-2.9907 -3.3599 -2.4637 0.9797
-2.6772 -3.6111 -2.4620 0.9797
-2.3429 -3.8334 -2.4606 0.9797
-1.9905 -4.0252 -2.4595 0.9797
-1.6227 -4.1852 -2.4585 0.9797
-0.8524 -4.4049 -2.4573 0.9797
-0.0558 -4.4859 -2.4572 0.9797
0.3448 -4.4735 -2.4574 0.9797
1.1352 -4.3432 -2.4587 0.9797
3.4398 -2.8368 -2.4420 0.9799
3.7252 -2.5500 -2.4725 0.9796
3.9419 -2.2096 -2.4750 0.9796
4.1277 -1.8509 -2.4776 0.9796
4.4007 -1.0901 -2.4831 0.9795
4.4855 -0.6938 -2.4859 0.9795
4.5347 -0.2910 -2.4888 0.9795
4.5478 0.1149 -2.4916 0.9795
4.4650 0.9236 -2.4973 0.9794
4.2388 1.7063 -2.5026 0.9794
4.0737 2.0799 -2.5052 0.9794
3.8756 2.4375 -2.5076 0.9793
3.3864 3.0930 -2.5120 0.9793
3.0992 3.3855 -2.5139 0.9793
2.7866 3.6511 -2.5156 0.9793
2.4512 3.8875 -2.5171 0.9793
2.0955 4.0928 -2.5184 0.9792
1.7226 4.2652 -2.5194 0.9792
1.3355 4.4033 -2.5202 0.9792
0.5316 4.5720 -2.5210 0.9792
-1.0554 4.2813 -2.4151 0.9801
-2.1485 3.8431 -2.4115 0.9801
-2.4812 3.6336 -2.4099 0.9801
-2.7935 3.3951 -2.4080 0.9801
-3.0828 3.1297 -2.4060 0.9802
-3.3467 2.8395 -2.4039 0.9802
-3.5834 2.5271 -2.4016 0.9802
-3.7908 2.1950 -2.3992 0.9802
-4.5305 0.3544 -2.4890 0.9795
-4.5389 -0.0513 -2.4861 0.9795
-4.4475 -0.8554 -2.4805 0.9796
-4.3486 -1.2476 -2.4778 0.9796
-4.2155 -1.6290 -2.4752 0.9796
-3.8512 -2.3478 -2.4703 0.9796
-3.6230 -2.6797 -2.4681 0.9797
-2.7775 -3.5356 -2.4625 0.9797
-2.4494 -3.7671 -2.4611 0.9797
-2.1024 -3.9687 -2.4598 0.9797
-1.3624 -4.2761 -2.4580 0.9797
-0.9751 -4.3796 -2.4575 0.9797
-0.5804 -4.4486 -2.4572 0.9797
0.2198 -4.4812 -2.4573 0.9797
0.6189 -4.4445 -2.4578 0.9797
1.0134 -4.3728 -2.4585 0.9797
1.4001 -4.2665 -2.4594 0.9797
1.7761 -4.1265 -2.4606 0.9797
2.7219 -3.4039 -2.3871 0.9803
3.0288 -3.1620 -2.3981 0.9802
3.3397 -2.9147 -2.4278 0.9800
3.6515 -2.6522 -2.4718 0.9796
3.8774 -2.3181 -2.4742 0.9796
4.0730 -1.9648 -2.4768 0.9796
4.2367 -1.5952 -2.4795 0.9796
4.3670 -1.2121 -2.4822 0.9795
4.4628 -0.8185 -2.4850 0.9795
4.5357 0.3942 -2.4936 0.9795
4.4032 1.1970 -2.4991 0.9794
4.1289 1.9647 -2.5044 0.9794
3.9410 2.3277 -2.5069 0.9793
3.7209 2.6726 -2.5092 0.9793
3.4706 2.9965 -2.5113 0.9793
3.1918 3.2969 -2.5133 0.9793
2.5583 3.8168 -2.5166 0.9793
2.2086 4.0321 -2.5180 0.9793
1.0628 4.4776 -2.5206 0.9792
0.2499 4.5961 -2.5210 0.9792
-0.1597 4.5575 -2.4977 0.9794
-1.6853 4.0712 -2.4133 0.9801
