ply
format ascii 1.0
element vertex 1579
property float32 x
property float32 y
property float32 z
property float32 I
end_header
-0.2570 -11.2498 -2.3786 0.9550
0.7473 -11.2262 -2.3783 0.9550
3.6934 -10.6296 -2.3786 0.9550
6.3825 -9.2823 -2.3812 0.9550
7.1889 -8.6808 -2.3825 0.9550
7.9396 -8.0100 -2.3840 0.9549
9.1610 -6.4190 -2.3645 0.9553
9.7054 -5.5811 -2.3665 0.9553
10.1740 -4.6976 -2.3687 0.9552
10.5629 -3.7751 -2.3711 0.9552
10.8688 -2.8209 -2.3736 0.9551
11.7073 -0.8833 -2.4817 0.9531
11.7048 1.2137 -2.4874 0.9530
11.0039 4.2839 -2.4961 0.9529
10.5898 5.2543 -2.4989 0.9528
9.6721 5.9285 -2.3980 0.9547
7.0156 8.9715 -2.4074 0.9545
7.2922 11.2689 -2.8373 0.9466
-0.7630 14.9925 -3.1732 0.9405
-2.2661 16.0615 -3.4287 0.9358
-9.2261 6.6819 -2.4080 0.9545
-9.7768 5.8273 -2.4059 0.9545
-10.9381 3.0220 -2.3987 0.9547
-11.6338 2.1200 -2.4997 0.9528
-11.7634 1.0727 -2.4969 0.9529
-11.5875 -2.0728 -2.4882 0.9530
-11.3433 -3.0945 -2.4854 0.9531
-11.0095 -4.0892 -2.4825 0.9531
-10.5889 -5.0492 -2.4797 0.9532
-8.4795 -7.3310 -2.3694 0.9552
-7.7844 -8.0505 -2.3672 0.9552
-7.0291 -8.7050 -2.3651 0.9553
-5.4146 -9.8959 -2.3845 0.9549
-4.5074 -10.3327 -2.3829 0.9550
-3.5658 -10.6874 -2.3815 0.9550
-2.5971 -10.9576 -2.3804 0.9550
0.3962 -11.2446 -2.3784 0.9550
1.3975 -11.1635 -2.3782 0.9550
2.3877 -10.9946 -2.3782 0.9550
3.3593 -10.7391 -2.3785 0.9550
4.3047 -10.3989 -2.3790 0.9550
7.6837 -8.2523 -2.3834 0.9549
8.3949 -7.5392 -2.3851 0.9549
8.9534 -6.7001 -2.3638 0.9553
9.5233 -5.8798 -2.3658 0.9553
10.0189 -5.0115 -2.3680 0.9552
10.4361 -4.1019 -2.3703 0.9552
11.4988 -2.2816 -2.4780 0.9532
11.6694 -1.2482 -2.4807 0.9532
11.7322 0.8470 -2.4864 0.9530
11.6234 1.8922 -2.4893 0.9530
11.1280 3.9364 -2.4951 0.9529
10.7446 4.9189 -2.4979 0.9528
9.3182 6.4843 -2.3997 0.9546
8.0339 8.0528 -2.4045 0.9546
6.3935 11.2634 -2.7377 0.9484
5.4142 11.9003 -2.7636 0.9480
3.0227 8.6093 -1.9287 0.9634
2.1504 8.4803 -1.8493 0.9649
2.2287 13.8961 -2.9749 0.9441
1.0010 14.3356 -3.0376 0.9429
-0.2914 14.8649 -3.1427 0.9410
-2.2374 4.4468 -1.0522 0.9799
-7.7626 7.1937 -2.2371 0.9577
-9.5929 6.1319 -2.4066 0.9545
-8.3679 3.4409 -1.9125 0.9637
-10.8424 3.3636 -2.3996 0.9546
-11.1363 -3.7447 -2.4835 0.9531
-8.7074 -7.0649 -2.3702 0.9552
-7.2999 -8.4837 -2.3658 0.9553
-6.3308 -8.8449 -2.2992 0.9565
-2.9387 -10.8728 -2.3808 0.9550
-1.9563 -11.0870 -2.3798 0.9550
-0.9593 -11.2137 -2.3790 0.9550
4.9018 -10.1336 -2.3795 0.9550
6.6301 -9.1093 -2.3816 0.9550
9.3321 -6.1726 -2.3651 0.9553
11.6202 -1.6116 -2.4798 0.9532
11.7308 -0.5694 -2.4826 0.9531
11.6721 1.5275 -2.4883 0.9530
11.5027 2.5655 -2.4912 0.9530
11.2410 3.5854 -2.4941 0.9529
10.8888 4.5789 -2.4969 0.9529
10.4487 5.5381 -2.4997 0.9528
8.9323 7.0188 -2.4013 0.9546
8.2788 7.7953 -2.4037 0.9546
6.7743 9.1587 -2.4080 0.9545
4.6796 12.1043 -2.7431 0.9483
2.4465 8.5212 -1.8740 0.9644
-7.2816 7.1837 -2.1621 0.9590
-8.5907 7.0804 -2.3532 0.9555
-9.9268 5.5616 -2.4052 0.9545
-11.6826 1.8067 -2.4988 0.9528
-11.7038 -1.3460 -2.4903 0.9530
-11.5237 -2.3818 -2.4874 0.9530
-8.9271 -6.7918 -2.3711 0.9552
-8.2775 -7.5535 -2.3687 0.9552
-7.5637 -8.2540 -2.3665 0.9553
-5.5137 -8.7330 -2.1831 0.9587
-3.2775 -10.7775 -2.3812 0.9550
0.6975 -11.2295 -2.3783 0.9550
2.6816 -10.9269 -2.3783 0.9550
3.6461 -10.6457 -2.3786 0.9550
4.5823 -10.2807 -2.3792 0.9550
6.3411 -9.3104 -2.3811 0.9550
7.1501 -8.7124 -2.3824 0.9550
8.5959 -7.3131 -2.3856 0.9549
9.1320 -6.4593 -2.3644 0.9553
10.1525 -4.7425 -2.3686 0.9552
10.5455 -3.8218 -2.3710 0.9552
10.8555 -2.8689 -2.3734 0.9551
11.5597 -1.9731 -2.4788 0.9532
11.7528 0.1124 -2.4844 0.9531
11.0222 4.2348 -2.4959 0.9529
9.6979 5.8852 -2.3979 0.9547
9.1439 6.7338 -2.4004 0.9546
8.5155 7.5302 -2.4028 0.9546
7.8173 8.2676 -2.4051 0.9545
5.9972 11.2580 -2.6963 0.9492
3.6761 8.6910 -1.9947 0.9622
4.0774 12.6919 -2.8179 0.9470
1.1087 8.3364 -1.7777 0.9662
-0.6954 14.9747 -3.1688 0.9406
-2.1813 15.9730 -3.4077 0.9362
-8.1346 7.1428 -2.2883 0.9567
-10.2265 4.9731 -2.4037 0.9546
-10.9252 3.0708 -2.3989 0.9547
-11.6250 2.1717 -2.4998 0.9528
-11.5972 -2.0214 -2.4884 0.9530
-11.3576 -3.0442 -2.4855 0.9531
-9.1382 -6.5119 -2.3719 0.9552
-7.0680 -8.6741 -2.3652 0.9553
-5.9429 -8.7918 -2.2432 0.9575
-4.5534 -10.3129 -2.3830 0.9550
1.3479 -11.1696 -2.3782 0.9550
3.3115 -10.7538 -2.3785 0.9550
4.2584 -10.4178 -2.3790 0.9550
5.1722 -9.9996 -2.3797 0.9550
8.3610 -7.5762 -2.3850 0.9549
10.4172 -4.1480 -2.3701 0.9552
10.7567 -3.2055 -2.3726 0.9551
11.6631 -1.2999 -2.4806 0.9532
11.7352 0.7948 -2.4863 0.9530
11.6310 1.8405 -2.4892 0.9530
11.4338 2.8739 -2.4920 0.9529
11.1447 3.8868 -2.4949 0.9529
10.7658 4.8709 -2.4978 0.9528
9.9171 5.6020 -2.4076 0.9545
8.7436 7.2579 -2.4020 0.9546
8.0692 8.0167 -2.4043 0.9546
7.8732 11.2640 -2.9050 0.9454
6.4602 11.2641 -2.7448 0.9483
4.0227 8.7388 -2.0335 0.9614
3.0620 8.5989 -1.9295 0.9634
2.2872 13.8669 -2.9708 0.9442
1.0645 14.3285 -3.0371 0.9430
-0.2251 14.8471 -3.1387 0.9411
-7.7026 7.2019 -2.2290 0.9578
-8.9847 7.0092 -2.4087 0.9545
-8.3080 3.4595 -1.9023 0.9639
-11.7959 0.4403 -2.4952 0.9529
-11.7746 -0.6129 -2.4923 0.9529
-11.6595 -1.6587 -2.4894 0.9530
-11.4518 -2.6889 -2.4865 0.9530
-11.1534 -3.6954 -2.4836 0.9531
-10.7672 -4.6702 -2.4808 0.9532
-9.8692 -5.3733 -2.3753 0.9551
-9.3406 -6.2254 -2.3728 0.9551
-8.0697 -7.7705 -2.3680 0.9552
-6.3969 -8.8540 -2.3089 0.9563
-2.9870 -10.8599 -2.3808 0.9550
-2.0055 -11.0784 -2.3798 0.9550
-1.0091 -11.2095 -2.3790 0.9550
-0.0053 -11.2522 -2.3785 0.9550
3.9305 -10.5449 -2.3788 0.9550
6.5894 -9.1384 -2.3815 0.9550
8.1182 -7.8318 -2.3844 0.9549
10.6473 -3.5388 -2.3717 0.9552
11.6123 -1.6631 -2.4796 0.9532
11.7275 -0.6214 -2.4824 0.9531
11.7496 0.4276 -2.4853 0.9531
11.6781 1.4756 -2.4881 0.9530
11.2562 3.5352 -2.4939 0.9529
10.4726 5.4914 -2.4996 0.9528
9.5396 6.1450 -2.3986 0.9547
7.5950 8.4765 -2.4058 0.9545
6.8146 9.1281 -2.4079 0.9545
5.7232 11.4748 -2.7105 0.9489
4.7296 12.0741 -2.7410 0.9484
2.7122 13.7520 -2.9629 0.9443
1.5061 14.2360 -3.0260 0.9432
0.2369 14.7155 -3.1110 0.9416
-1.1060 15.0781 -3.1958 0.9401
-2.7088 16.5189 -3.5384 0.9339
-5.2057 7.4625 -1.9233 0.9635
-7.6332 7.5977 -2.2765 0.9569
-8.5244 7.0895 -2.3436 0.9557
-9.9024 5.6059 -2.4053 0.9545
-11.6751 1.8587 -2.4990 0.9528
-11.7811 0.8090 -2.4962 0.9529
-11.7104 -1.2941 -2.4904 0.9530
-8.3114 -7.5171 -2.3688 0.9552
-5.1910 -10.0128 -2.3840 0.9549
-4.2745 -10.4293 -2.3825 0.9550
-3.3254 -10.7631 -2.3812 0.9550
-0.3569 -11.2474 -2.3787 0.9550
0.6476 -11.2326 -2.3783 0.9550
3.5988 -10.6617 -2.3786 0.9550
4.5365 -10.3008 -2.3792 0.9550
5.4391 -9.8585 -2.3800 0.9550
7.1112 -8.7438 -2.3823 0.9550
7.8676 -8.0797 -2.3838 0.9549
9.1029 -6.4996 -2.3643 0.9553
9.6546 -5.6665 -2.3663 0.9553
10.8421 -2.9169 -2.3733 0.9551
11.5502 -2.0243 -2.4787 0.9532
11.7524 0.0603 -2.4843 0.9531
11.7138 1.1095 -2.4871 0.9530
11.5815 2.1524 -2.4900 0.9530
11.3565 3.1805 -2.4929 0.9529
10.6349 5.1595 -2.4986 0.9528
9.7234 5.8417 -2.3977 0.9547
8.5484 7.4920 -2.4027 0.9546
7.8536 8.2324 -2.4050 0.9545
7.0944 8.9081 -2.4072 0.9545
5.9443 9.0093 -2.2815 0.9568
5.1471 12.0198 -2.7639 0.9479
4.1351 12.6780 -2.8188 0.9469
3.1185 13.5648 -2.9421 0.9447
1.9308 14.0407 -2.9958 0.9437
0.3903 8.2371 -1.7431 0.9668
-0.6281 14.9568 -3.1644 0.9406
-2.0975 15.8851 -3.3869 0.9366
-1.7798 7.9370 -1.7194 0.9673
-8.0719 7.1514 -2.2795 0.9569
-9.1671 6.7642 -2.4082 0.9545
-9.7255 5.9145 -2.4061 0.9545
-10.2048 5.0187 -2.4038 0.9546
-10.6013 4.0845 -2.4015 0.9546
-11.7547 1.1772 -2.4971 0.9528
-11.7499 -0.9280 -2.4914 0.9530
-9.7184 -5.6341 -2.3745 0.9551
-7.8563 -7.9818 -2.3674 0.9552
-4.5993 -10.2929 -2.3830 0.9550
-3.6607 -10.6559 -2.3817 0.9550
-2.6944 -10.9346 -2.3805 0.9550
-1.7077 -11.1270 -2.3796 0.9550
-0.7082 -11.2316 -2.3789 0.9550
0.2963 -11.2478 -2.3784 0.9550
2.2899 -11.0153 -2.3782 0.9550
3.2637 -10.7683 -2.3785 0.9550
4.2121 -10.4365 -2.3790 0.9550
6.8331 -8.9599 -2.3819 0.9550
7.6096 -8.3197 -2.3833 0.9550
9.4699 -5.9637 -2.3656 0.9553
9.9731 -5.0998 -2.3677 0.9552
10.3982 -4.1940 -2.3700 0.9552
11.2767 -2.3417 -2.4345 0.9540
11.7439 -0.3069 -2.4833 0.9531
11.7379 0.7427 -2.4861 0.9531
11.4457 2.8230 -2.4919 0.9529
11.1612 3.8371 -2.4948 0.9529
10.7867 4.8227 -2.4976 0.9528
7.9477 11.2638 -2.9140 0.9452
6.5272 11.2648 -2.7520 0.9482
4.0731 8.7458 -2.0393 0.9613
3.4095 12.9615 -2.8330 0.9467
1.1280 14.3228 -3.0369 0.9430
-0.1589 14.8291 -3.1348 0.9412
-1.5412 15.3563 -3.2623 0.9389
-1.5264 7.9647 -1.7142 0.9674
-2.9925 7.7618 -1.7584 0.9666
-2.1950 4.4607 -1.0509 0.9799
-8.9337 7.0334 -2.4034 0.9546
-8.2919 3.4961 -1.9022 0.9639
-10.8132 3.4601 -2.3999 0.9546
-11.7168 1.5445 -2.4981 0.9528
-11.7945 0.4928 -2.4953 0.9529
-11.7779 -0.5606 -2.4924 0.9529
-11.6674 -1.6070 -2.4895 0.9530
-11.1704 -3.6461 -2.4838 0.9531
-8.7707 -6.9880 -2.3705 0.9552
-7.3756 -8.4193 -2.3660 0.9553
-6.4636 -8.8631 -2.3188 0.9561
-5.3743 -8.9497 -2.2067 0.9582
-4.9198 -10.1464 -2.3836 0.9549
-2.0548 -11.0696 -2.3799 0.9550
-1.0589 -11.2050 -2.3791 0.9550
1.9446 -11.0813 -2.3782 0.9550
2.9254 -10.8645 -2.3783 0.9550
4.8115 -10.1764 -2.3794 0.9550
5.7021 -9.7104 -2.3803 0.9550
6.5486 -9.1674 -2.3814 0.9550
7.3443 -8.5515 -2.3828 0.9550
8.0830 -7.8675 -2.3843 0.9549
8.7590 -7.1203 -2.3861 0.9549
9.8057 -5.4072 -2.3670 0.9553
10.9199 -2.6261 -2.3741 0.9551
11.6041 -1.7146 -2.4795 0.9532
11.6839 1.4236 -2.4880 0.9530
11.2711 3.4850 -2.4938 0.9529
10.9278 4.4816 -2.4966 0.9529
10.4963 5.4445 -2.4994 0.9528
8.9933 6.9385 -2.4010 0.9546
8.3469 7.7207 -2.4034 0.9546
6.8547 9.0974 -2.4078 0.9545
3.7868 12.7609 -2.8137 0.9470
2.7733 13.7403 -2.9630 0.9443
1.5671 14.2087 -3.0216 0.9432
0.3018 14.6959 -3.1071 0.9417
-3.4967 7.7048 -1.7885 0.9660
-9.3428 6.5144 -2.4075 0.9545
-10.3327 4.7420 -2.4031 0.9546
-10.9882 2.8248 -2.3982 0.9547
-11.7780 0.8614 -2.4963 0.9529
-10.4944 -5.2371 -2.4792 0.9532
-8.3451 -7.4804 -2.3689 0.9552
-5.2356 -9.9900 -2.3841 0.9549
-2.4000 -11.0015 -2.3802 0.9550
-1.4087 -11.1676 -2.3793 0.9550
-0.4068 -11.2458 -2.3787 0.9550
3.5514 -10.6775 -2.3786 0.9550
5.3952 -9.8824 -2.3800 0.9550
9.0735 -6.5396 -2.3642 0.9553
9.6289 -5.7092 -2.3662 0.9553
10.1091 -4.8320 -2.3684 0.9552
11.5903 2.1008 -2.4899 0.9530
11.3699 3.1299 -2.4928 0.9529
9.7487 5.7982 -2.3976 0.9547
6.0034 9.0117 -2.2889 0.9567
5.2069 12.0115 -2.7673 0.9479
4.1929 12.6640 -2.8198 0.9469
3.1613 13.4766 -2.9260 0.9450
1.9903 14.0123 -2.9916 0.9438
-0.3057 8.1409 -1.7220 0.9672
-2.0151 15.8014 -3.3672 0.9369
-9.6996 5.9579 -2.4062 0.9545
-10.1829 5.0642 -2.4040 0.9546
-10.5836 4.1317 -2.4016 0.9546
-10.8986 3.1680 -2.3991 0.9547
-11.7500 1.2295 -2.4973 0.9528
-11.7546 -0.8758 -2.4916 0.9530
-10.6571 -4.9085 -2.4801 0.9532
-8.5777 -7.2185 -2.3697 0.9552
-7.8921 -7.9472 -2.3675 0.9552
-7.1454 -8.6117 -2.3654 0.9553
-6.0693 -8.8091 -2.2612 0.9572
-1.7571 -11.1195 -2.3796 0.9550
-0.7581 -11.2285 -2.3789 0.9550
2.2410 -11.0253 -2.3782 0.9550
3.2158 -10.7826 -2.3784 0.9550
4.1656 -10.4549 -2.3789 0.9550
5.9612 -9.5553 -2.3806 0.9550
8.2928 -7.6496 -2.3848 0.9549
10.3789 -4.2399 -2.3699 0.9552
11.7418 -0.3590 -2.4831 0.9531
11.7404 0.6905 -2.4860 0.9531
11.6456 1.7369 -2.4889 0.9530
11.4575 2.7720 -2.4918 0.9529
10.8074 4.7745 -2.4975 0.9528
9.4023 6.3585 -2.3993 0.9547
8.8068 7.1792 -2.4018 0.9546
7.4051 8.6462 -2.4063 0.9545
4.5111 12.3209 -2.7735 0.9478
2.4037 13.8081 -2.9626 0.9443
1.1916 14.3169 -3.0368 0.9430
-0.0929 14.8108 -3.1308 0.9412
-1.4907 7.9697 -1.7138 0.9674
-2.1797 4.4797 -1.0531 0.9798
-4.5458 7.5466 -1.8623 0.9646
-7.5838 7.2182 -2.2131 0.9581
-8.8644 7.0429 -2.3932 0.9548
-9.5116 6.2599 -2.4069 0.9545
-10.0230 5.3817 -2.4048 0.9546
-8.3062 3.5456 -1.9090 0.9638
-10.7983 3.5083 -2.4000 0.9546
-11.7929 0.5451 -2.4954 0.9529
-11.6751 -1.5553 -2.4897 0.9530
-11.4765 -2.5874 -2.4868 0.9530
-11.1871 -3.5966 -2.4839 0.9531
-10.8094 -4.5750 -2.4811 0.9531
-9.9276 -5.2913 -2.3780 0.9550
-8.8021 -6.9494 -2.3706 0.9552
-4.9649 -10.1248 -2.3836 0.9549
-3.0835 -10.8335 -2.3809 0.9550
-1.1087 -11.2004 -2.3791 0.9550
-0.1052 -11.2520 -2.3785 0.9550
0.8987 -11.2150 -2.3782 0.9550
3.8366 -10.5791 -2.3787 0.9550
4.7662 -10.1975 -2.3794 0.9550
5.6588 -9.7354 -2.3803 0.9550
6.5076 -9.1961 -2.3814 0.9550
7.3060 -8.5838 -2.3827 0.9550
8.0478 -7.9030 -2.3842 0.9549
10.9076 -2.6744 -2.3739 0.9551
11.5957 -1.7660 -2.4794 0.9532
11.7516 0.3232 -2.4850 0.9531
9.0236 6.8981 -2.4009 0.9546
8.3807 7.6832 -2.4033 0.9546
7.6692 8.4080 -2.4056 0.9545
6.8948 9.0665 -2.4077 0.9545
5.7980 11.3708 -2.6980 0.9492
4.8478 12.0594 -2.7474 0.9482
2.8344 13.7284 -2.9631 0.9443
1.6279 14.1813 -3.0173 0.9433
0.3667 14.6760 -3.1032 0.9417
-0.9693 15.0449 -3.1868 0.9402
-1.2408 8.0115 -1.7137 0.9674
-3.4555 7.7050 -1.7850 0.9661
-6.0506 7.3380 -2.0104 0.9619
-8.3932 7.1074 -2.3248 0.9560
-9.3141 6.5561 -2.4076 0.9545
-9.8532 5.6941 -2.4055 0.9545
-10.6873 3.8453 -2.4009 0.9546
-11.6594 1.9626 -2.4992 0.9528
-11.7958 -0.1400 -2.4936 0.9529
-11.7228 -1.1902 -2.4907 0.9530
-11.2985 -3.2466 -2.4849 0.9531
-10.9514 -4.2367 -2.4821 0.9531
-7.0806 -5.2396 -1.8619 0.9646
-8.3786 -7.4437 -2.3691 0.9552
-6.9101 -8.7979 -2.3648 0.9553
-5.6938 -8.7577 -2.2081 0.9582
-3.4211 -10.7337 -2.3813 0.9550
-0.4568 -11.2440 -2.3787 0.9550
0.5478 -11.2380 -2.3783 0.9550
3.5039 -10.6930 -2.3786 0.9550
5.3511 -9.9060 -2.3799 0.9550
6.2161 -9.3933 -2.3810 0.9550
7.7951 -8.1487 -2.3837 0.9549
10.0870 -4.8766 -2.3683 0.9552
10.4921 -3.9613 -2.3706 0.9552
11.5305 -2.1266 -2.4784 0.9532
11.6871 -1.0909 -2.4812 0.9531
11.7512 -0.0442 -2.4840 0.9531
11.7218 1.0053 -2.4868 0.9530
11.5989 2.0493 -2.4897 0.9530
11.0758 4.0869 -2.4955 0.9529
10.6792 5.0642 -2.4983 0.9528
9.7998 5.7698 -2.4038 0.9546
9.2314 6.6104 -2.4000 0.9546
7.9257 8.1616 -2.4048 0.9546
7.1726 8.8440 -2.4070 0.9545
6.0622 9.0129 -2.2960 0.9566
4.8701 8.8557 -2.1363 0.9595
3.2036 13.3892 -2.9101 0.9453
0.8179 14.5304 -3.0763 0.9422
-0.2697 8.1459 -1.7228 0.9672
10.2849 -2.3289 -2.4784 0.9576
10.4619 -1.4037 -2.4808 0.9576
10.5561 -0.4654 -2.4833 0.9575
10.4925 1.4206 -2.4885 0.9574
10.3348 2.3532 -2.4911 0.9574
9.3718 5.0207 -2.4987 0.9573
8.5268 5.6003 -2.3976 0.9589
8.0007 6.3445 -2.3998 0.9589
2.3939 12.7329 -3.0450 0.9482
-3.6109 7.6829 -1.9951 0.9657
-7.3271 7.1646 -2.4085 0.9588
-8.4715 5.7407 -2.4051 0.9588
-9.3412 4.1372 -2.4011 0.9589
-10.5098 1.5776 -2.4977 0.9573
-10.5978 0.6333 -2.4952 0.9573
-10.6011 -0.3142 -2.4926 0.9574
-10.3550 -2.1882 -2.4874 0.9574
-9.7812 -3.9851 -2.4823 0.9575
-8.5308 -5.4141 -2.3746 0.9593
-6.7751 -7.4596 -2.3683 0.9594
-6.0779 -8.0279 -2.3665 0.9595
-5.3339 -8.5320 -2.3648 0.9595
-3.7650 -9.4239 -2.3850 0.9592
-2.9080 -9.7174 -2.3839 0.9592
-1.1344 -10.0723 -2.3822 0.9592
-0.2314 -10.1310 -2.3816 0.9592
1.5721 -10.0092 -2.3812 0.9592
3.3261 -9.5724 -2.3817 0.9592
4.1676 -9.2397 -2.3822 0.9592
4.9767 -8.8340 -2.3830 0.9592
10.4094 -1.7293 -2.4800 0.9576
10.5327 -0.7947 -2.4825 0.9575
10.5280 1.0916 -2.4876 0.9574
10.1877 2.9510 -2.4928 0.9574
9.8941 3.8519 -2.4953 0.9573
5.7804 10.9680 -2.9138 0.9503
-0.6927 13.6103 -3.2029 0.9455
-2.0202 14.3187 -3.3986 0.9423
-5.9074 7.3645 -2.2189 0.9619
-7.7271 6.7245 -2.4074 0.9588
-10.1703 2.8099 -2.4798 0.9576
-10.5766 0.9644 -2.4961 0.9573
-10.5579 -0.9282 -2.4909 0.9574
-9.9045 -3.6788 -2.4832 0.9575
-9.5273 -4.5430 -2.4807 0.9576
-7.6317 -6.5981 -2.3710 0.9594
-5.5992 -8.3632 -2.3654 0.9595
-1.4487 -10.0329 -2.3824 0.9592
-0.5479 -10.1195 -2.3818 0.9592
0.3568 -10.1264 -2.3814 0.9592
1.2585 -10.0534 -2.3812 0.9592
2.1503 -9.9013 -2.3813 0.9592
3.0252 -9.6711 -2.3815 0.9592
4.6977 -8.9841 -2.3827 0.9592
6.2244 -8.0132 -2.3847 0.9592
6.9181 -7.4301 -2.3860 0.9591
8.5725 -5.2928 -2.3678 0.9594
9.0178 -4.5107 -2.3697 0.9594
9.6931 -2.8418 -2.3740 0.9593
10.3467 -2.0529 -2.4791 0.9576
10.4990 -1.1230 -2.4816 0.9575
10.5680 -0.1823 -2.4841 0.9575
10.4540 1.7019 -2.4893 0.9574
8.3760 5.8286 -2.3983 0.9589
7.8299 6.5585 -2.4005 0.9589
7.2201 7.2371 -2.4026 0.9589
6.5512 7.8586 -2.4045 0.9588
5.0579 8.9105 -2.4080 0.9588
3.1872 12.5688 -3.0475 0.9481
0.9195 13.1682 -3.1024 0.9472
-0.2654 13.5368 -3.1821 0.9459
-1.5274 13.9688 -3.3025 0.9439
-3.0380 15.1248 -3.6257 0.9386
-8.1006 6.2619 -2.4063 0.9588
-8.6204 5.5102 -2.4045 0.9588
-9.0700 4.7155 -2.4025 0.9589
-9.7460 3.0235 -2.3982 0.9589
-10.3979 2.2325 -2.4994 0.9572
-9.2417 -5.0849 -2.4791 0.9576
-7.2319 -7.0259 -2.3697 0.9594
-6.5711 -7.6367 -2.3678 0.9594
-5.8593 -8.1862 -2.3660 0.9595
-5.1521 -8.7549 -2.3874 0.9591
-2.6462 -9.7906 -2.3836 0.9592
-0.8639 -10.0983 -2.3820 0.9592
0.0402 -10.1331 -2.3815 0.9592
0.9438 -10.0880 -2.3813 0.9592
1.8398 -9.9635 -2.3812 0.9592
3.5817 -9.4804 -2.3818 0.9592
4.4142 -9.1255 -2.3824 0.9592
5.9700 -8.2023 -2.3843 0.9592
8.4006 -5.5565 -2.3672 0.9595
9.5964 -3.1423 -2.3732 0.9594
10.4551 -1.4500 -2.4807 0.9576
10.5534 -0.5122 -2.4832 0.9575
10.5679 0.4316 -2.4858 0.9575
10.4982 1.3739 -2.4884 0.9574
10.3446 2.3072 -2.4910 0.9574
10.1081 3.2240 -2.4936 0.9573
8.5512 5.5621 -2.3975 0.9590
8.0285 6.3086 -2.3997 0.9589
6.7916 7.6479 -2.4039 0.9588
0.8407 8.2988 -1.9604 0.9663
-8.4463 5.7784 -2.4052 0.9588
-9.6500 3.3276 -2.3990 0.9589
-10.3266 2.5572 -2.5003 0.9572
-10.5032 1.6243 -2.4978 0.9573
-10.5259 -1.2106 -2.4901 0.9574
-10.1222 -3.0552 -2.4850 0.9575
-9.3993 -4.7953 -2.4799 0.9576
-7.4502 -6.7986 -2.3704 0.9594
-6.8084 -7.4297 -2.3684 0.9594
-6.1138 -8.0012 -2.3666 0.9595
-3.8069 -9.4073 -2.3851 0.9592
-2.0730 -9.9251 -2.3830 0.9592
-1.1791 -10.0673 -2.3822 0.9592
-0.2764 -10.1300 -2.3817 0.9592
1.5276 -10.0160 -2.3812 0.9592
2.4150 -9.8403 -2.3813 0.9592
3.2835 -9.5870 -2.3817 0.9592
4.1265 -9.2580 -2.3822 0.9592
4.9373 -8.8558 -2.3829 0.9592
5.7099 -8.3835 -2.3839 0.9592
7.1161 -7.2432 -2.3864 0.9591
7.6639 -6.5202 -2.3648 0.9595
8.2207 -5.8148 -2.3665 0.9595
9.1378 -4.2685 -2.3703 0.9594
9.7686 -2.5817 -2.3747 0.9593
10.4011 -1.7754 -2.4798 0.9576
10.4079 1.9821 -2.4901 0.9574
10.2002 2.9056 -2.4926 0.9574
9.9106 3.8077 -2.4952 0.9573
6.3396 8.0333 -2.4051 0.9588
4.8053 11.3604 -2.8990 0.9506
2.8477 12.6438 -3.0460 0.9481
-1.9486 14.2686 -3.3846 0.9425
-7.6975 6.7589 -2.4075 0.9588
-8.2638 6.0411 -2.4058 0.9588
-9.5444 3.6287 -2.3998 0.9589
-10.0544 2.8260 -2.4546 0.9580
-10.5728 1.0114 -2.4962 0.9573
-10.6100 0.0643 -2.4936 0.9573
-10.2164 -2.7384 -2.4859 0.9575
-9.5478 -4.5008 -2.4808 0.9576
-7.6613 -6.5644 -2.3711 0.9594
-7.0392 -7.2154 -2.3691 0.9594
-4.9146 -8.8881 -2.3870 0.9591
-4.0998 -9.2855 -2.3856 0.9592
-3.2535 -9.6092 -2.3843 0.9592
-0.5929 -10.1171 -2.3818 0.9592
0.3119 -10.1279 -2.3814 0.9592
4.6577 -9.0047 -2.3827 0.9592
5.4443 -8.5566 -2.3835 0.9592
6.1887 -8.0405 -2.3846 0.9592
6.8848 -7.4605 -2.3859 0.9591
7.4546 -6.7549 -2.3643 0.9595
9.3754 -3.7331 -2.3717 0.9594
10.4934 -1.1696 -2.4815 0.9575
10.5666 -0.2292 -2.4840 0.9575
10.2823 2.5845 -2.4917 0.9574
10.0212 3.4949 -2.4943 0.9573
9.2594 5.2304 -2.4994 0.9572
8.4014 5.7911 -2.3982 0.9589
7.2518 7.2046 -2.4025 0.9589
6.5857 7.8292 -2.4045 0.9588
5.0973 8.8876 -2.4080 0.9588
-0.2050 13.5255 -3.1792 0.9459
-1.4595 13.9195 -3.2893 0.9441
-3.0299 7.7561 -1.9570 0.9664
-2.2137 4.4488 -1.1679 0.9798
-6.5110 7.2804 -2.2955 0.9607
-7.4843 6.9978 -2.4081 0.9588
-9.7329 3.0669 -2.3983 0.9589
-10.5398 1.3418 -2.4971 0.9573
-10.5887 -0.5511 -2.4920 0.9574
-10.4864 -1.4918 -2.4894 0.9574
-10.3008 -2.4186 -2.4868 0.9575
-10.0336 -3.3244 -2.4842 0.9575
-9.2646 -5.0441 -2.4792 0.9576
-8.4056 -5.6022 -2.3741 0.9593
-6.6052 -7.6077 -2.3679 0.9594
-4.3888 -9.1547 -2.3860 0.9591
-3.5528 -9.5045 -2.3847 0.9592
-1.8060 -9.9761 -2.3827 0.9592
-0.9087 -10.0945 -2.3820 0.9592
-0.0048 -10.1332 -2.3815 0.9592
0.8990 -10.0921 -2.3813 0.9592
1.7955 -9.9715 -2.3812 0.9592
2.6780 -9.7723 -2.3814 0.9592
3.5396 -9.4961 -2.3818 0.9592
5.1735 -8.7213 -2.3832 0.9592
5.9334 -8.2286 -2.3842 0.9592
6.6471 -7.6705 -2.3855 0.9592
8.3755 -5.5936 -2.3671 0.9595
8.8481 -4.8280 -2.3689 0.9594
10.2629 -2.4199 -2.4782 0.9576
10.4480 -1.4963 -2.4806 0.9576
10.5505 -0.5590 -2.4831 0.9575
10.5692 0.3846 -2.4856 0.9575
10.5037 1.3272 -2.4882 0.9574
10.3542 2.2612 -2.4908 0.9574
8.5754 5.5239 -2.3974 0.9590
8.0561 6.2726 -2.3996 0.9589
6.1233 8.2022 -2.4057 0.9588
5.3712 8.7220 -2.4074 0.9588
4.4689 11.4085 -2.8796 0.9509
3.5615 12.1999 -2.9869 0.9491
2.5070 12.7119 -3.0451 0.9482
0.8785 8.3041 -1.9625 0.9663
0.2163 13.4409 -3.1593 0.9463
-2.3897 14.5732 -3.4708 0.9411
-7.2636 7.2299 -2.4086 0.9588
-8.4209 5.8161 -2.4053 0.9588
-8.8990 5.0378 -2.4033 0.9589
-10.4964 1.6710 -2.4980 0.9573
-10.5929 0.7274 -2.4954 0.9573
-10.5317 -1.1639 -2.4903 0.9574
-10.3751 -2.0964 -2.4877 0.9574
-9.8173 -3.8984 -2.4825 0.9575
-9.4209 -4.7538 -2.4800 0.9576
-6.8416 -7.3997 -2.3685 0.9594
-6.1495 -7.9742 -2.3667 0.9595
-5.4098 -8.4849 -2.3650 0.9595
-3.8487 -9.3906 -2.3852 0.9592
-2.9944 -9.6916 -2.3840 0.9592
-2.1171 -9.9160 -2.3830 0.9592
-0.3214 -10.1287 -2.3817 0.9592
0.5832 -10.1156 -2.3813 0.9592
1.4831 -10.0227 -2.3812 0.9592
2.3712 -9.8509 -2.3813 0.9592
4.8979 -8.8775 -2.3829 0.9592
7.6346 -6.5539 -2.3648 0.9595
8.1945 -5.8510 -2.3664 0.9595
8.6904 -5.1007 -2.3683 0.9594
9.1183 -4.3088 -2.3702 0.9594
9.4747 -3.4814 -2.3723 0.9594
9.7565 -2.6249 -2.3746 0.9593
10.5722 0.0542 -2.4847 0.9575
9.1185 5.4784 -2.5001 0.9572
5.6397 8.5478 -2.4068 0.9588
4.8612 11.3520 -2.9023 0.9505
3.8665 11.8546 -2.9305 0.9501
1.7651 12.8358 -3.0451 0.9482
0.6298 13.2915 -3.1273 0.9468
-1.8774 14.2186 -3.3707 0.9428
-4.8941 7.5050 -2.1058 0.9639
-8.2372 6.0780 -2.4059 0.9588
-8.7397 5.3149 -2.4040 0.9588
-9.1713 4.5104 -2.4020 0.9589
-10.4427 1.9989 -2.4988 0.9573
-10.5687 1.0584 -2.4963 0.9573
-10.6102 0.1114 -2.4938 0.9573
-10.4394 -1.7718 -2.4886 0.9574
-10.2290 -2.6931 -2.4860 0.9575
-8.8593 -5.1360 -2.4067 0.9588
-7.0715 -7.1844 -2.3692 0.9594
-6.3974 -7.7803 -2.3673 0.9595
-2.4263 -9.8463 -2.3833 0.9592
2.0622 -9.9199 -2.3813 0.9592
3.7931 -9.3984 -2.3820 0.9592
4.6176 -9.0252 -2.3826 0.9592
5.4062 -8.5805 -2.3835 0.9592
6.8514 -7.4908 -2.3859 0.9591
7.4244 -6.7877 -2.3642 0.9595
8.5245 -5.3683 -2.3676 0.9595
8.9766 -4.5903 -2.3695 0.9594
9.3584 -3.7746 -2.3716 0.9594
9.6666 -2.9275 -2.3738 0.9593
10.3270 -2.1446 -2.4789 0.9576
10.5649 -0.2761 -2.4838 0.9575
10.5584 0.6681 -2.4864 0.9575
10.4676 1.6088 -2.4890 0.9574
9.6982 4.3361 -2.4967 0.9573
7.8871 6.4881 -2.4003 0.9589
7.2834 7.1721 -2.4024 0.9589
6.6202 7.7995 -2.4044 0.9588
5.1365 8.8646 -2.4079 0.9588
3.2882 12.5001 -3.0378 0.9483
1.0332 13.1181 -3.0926 0.9474
-0.8100 8.0706 -1.9063 0.9672
-1.5263 7.9642 -1.9058 0.9672
-6.4594 7.2875 -2.2887 0.9608
-7.4534 7.0312 -2.4082 0.9588
-8.0453 6.3340 -2.4065 0.9588
-9.0285 4.7962 -2.4027 0.9589
-10.3787 2.3250 -2.4997 0.9572
-10.5342 1.3886 -2.4972 0.9573
-10.6053 0.4431 -2.4947 0.9573
-10.5916 -0.5041 -2.4921 0.9574
-10.4934 -1.4453 -2.4895 0.9574
-8.4308 -5.5651 -2.3742 0.9593
-6.6391 -7.5787 -2.3680 0.9594
-5.9321 -8.1344 -2.3661 0.9595
-5.1794 -8.6251 -2.3645 0.9595
-4.4296 -9.1354 -2.3861 0.9591
-3.5951 -9.4889 -2.3848 0.9592
-0.0497 -10.1332 -2.3816 0.9592
3.4973 -9.5116 -2.3818 0.9592
4.3328 -9.1640 -2.3824 0.9592
5.1346 -8.7440 -2.3832 0.9592
5.8966 -8.2546 -2.3842 0.9592
6.6128 -7.6997 -2.3854 0.9592
7.2774 -7.0834 -2.3868 0.9591
7.8091 -6.3482 -2.3653 0.9595
8.3503 -5.6305 -2.3670 0.9595
9.2330 -4.0639 -2.3709 0.9594
9.5673 -3.2271 -2.3730 0.9594
10.4408 -1.5427 -2.4805 0.9576
10.5702 0.3377 -2.4855 0.9575
10.5089 1.2805 -2.4881 0.9574
10.1353 3.1338 -2.4933 0.9573
9.4364 4.8947 -2.4984 0.9573
8.0835 6.2365 -2.3995 0.9589
7.5017 6.9389 -2.4016 0.9589
6.8587 7.5867 -2.4037 0.9588
6.1595 8.1747 -2.4056 0.9588
5.5844 11.0729 -2.9146 0.9503
3.6057 12.1505 -2.9787 0.9493
0.2758 13.4281 -3.1566 0.9463
-0.9402 13.6480 -3.2152 0.9453
-7.8454 6.5839 -2.4071 0.9588
-9.2865 4.2618 -2.4014 0.9589
-9.6209 3.4135 -2.3992 0.9589
-10.5901 0.7745 -2.4956 0.9573
-10.6060 -0.1730 -2.4930 0.9574
-10.5373 -1.1171 -2.4904 0.9574
-10.1500 -2.9654 -2.4852 0.9575
-7.5109 -6.7327 -2.3706 0.9594
-6.8747 -7.3696 -2.3686 0.9594
-5.4476 -8.4610 -2.3651 0.9595
-4.7138 -8.9944 -2.3866 0.9591
-3.0374 -9.6785 -2.3841 0.9592
-2.1612 -9.9067 -2.3831 0.9592
-1.2685 -10.0567 -2.3823 0.9592
-0.3663 -10.1273 -2.3817 0.9592
2.3275 -9.8613 -2.3813 0.9592
3.1981 -9.6156 -2.3816 0.9592
4.0440 -9.2940 -2.3821 0.9592
6.3678 -7.9011 -2.3849 0.9592
7.6052 -6.5875 -2.3647 0.9595
8.1681 -5.8871 -2.3664 0.9595
9.4587 -3.5233 -2.3722 0.9594
9.7444 -2.6680 -2.3744 0.9593
10.5196 -0.9348 -2.4821 0.9575
9.9430 3.7192 -2.4950 0.9573
9.1423 5.4376 -2.5000 0.9572
7.0904 7.3666 -2.4030 0.9589
6.4102 7.9761 -2.4049 0.9588
5.6774 8.5224 -2.4067 0.9588
4.9173 11.3434 -2.9057 0.9505
2.9603 12.6197 -3.0464 0.9481
0.6877 13.2673 -3.1223 0.9469
-1.8069 14.1687 -3.3570 0.9430
-3.3986 15.4773 -3.7242 0.9370
-4.0116 7.6290 -2.0258 0.9652
-7.6377 6.8275 -2.4077 0.9588
-8.2104 6.1147 -2.4060 0.9588
-9.5126 3.7136 -2.4000 0.9589
-10.4342 2.0453 -2.4989 0.9573
-10.5645 1.1054 -2.4964 0.9573
-10.6101 0.1585 -2.4939 0.9573
-10.5710 -0.7876 -2.4913 0.9574
-10.4477 -1.7255 -2.4887 0.9574
-9.9542 -3.5471 -2.4836 0.9575
-9.5884 -4.4163 -2.4810 0.9576
-7.7200 -6.4967 -2.3713 0.9594
-7.1036 -7.1533 -2.3693 0.9594
-4.9937 -8.8447 -2.3871 0.9591
-3.3389 -9.5804 -2.3844 0.9592
-1.5823 -10.0132 -2.3825 0.9592
-0.6827 -10.1117 -2.3819 0.9592
0.2219 -10.1304 -2.3815 0.9592
1.1246 -10.0694 -2.3812 0.9592
2.8960 -9.7103 -2.3815 0.9592
5.3679 -8.6042 -2.3835 0.9592
7.3939 -6.8204 -2.3641 0.9595
7.9782 -6.1379 -2.3658 0.9595
8.5002 -5.4059 -2.3675 0.9595
8.9558 -4.6299 -2.3694 0.9594
9.3411 -3.8160 -2.3715 0.9594
9.6530 -2.9703 -2.3737 0.9593
10.3169 -2.1903 -2.4788 0.9576
10.5631 -0.3230 -2.4837 0.9575
10.4741 1.5622 -2.4889 0.9574
10.3038 2.4929 -2.4915 0.9574
10.0507 3.4055 -2.4941 0.9573
9.7169 4.2927 -2.4966 0.9573
9.3046 5.1475 -2.4991 0.9572
7.9156 6.4527 -2.4002 0.9589
7.3149 7.1393 -2.4023 0.9589
6.6545 7.7697 -2.4043 0.9588
4.1980 11.4658 -2.8697 0.9511
-1.3264 13.8345 -3.2663 0.9445
-2.1792 4.4788 -1.1706 0.9797
-6.4081 7.2947 -2.2820 0.9609
-8.5472 5.6252 -2.4048 0.9588
-8.2964 3.5414 -2.1200 0.9636
-10.3229 -2.3273 -2.4870 0.9575
-9.7251 -4.1160 -2.4819 0.9575
-5.2178 -8.6023 -2.3646 0.9595
-3.6373 -9.4730 -2.3849 0.9592
-1.8946 -9.9600 -2.3828 0.9592
0.8093 -10.0998 -2.3813 0.9592
1.7069 -9.9871 -2.3812 0.9592
2.5911 -9.7956 -2.3814 0.9592
3.4550 -9.5269 -2.3817 0.9592
4.2920 -9.1830 -2.3823 0.9592
5.0957 -8.7665 -2.3831 0.9592
6.5783 -7.7288 -2.3853 0.9592
7.2457 -7.1154 -2.3867 0.9591
8.3249 -5.6673 -2.3669 0.9595
9.2145 -4.1047 -2.3708 0.9594
10.1741 -2.4946 -2.4620 0.9579
10.5711 0.2907 -2.4854 0.9575
10.5139 1.2338 -2.4880 0.9574
10.3728 2.1689 -2.4906 0.9574
9.8428 3.9856 -2.4957 0.9573
7.5321 6.9052 -2.4015 0.9589
6.8920 7.5559 -2.4036 0.9588
6.1955 8.1469 -2.4055 0.9588
5.6208 11.0234 -2.9081 0.9504
4.5800 11.3932 -2.8859 0.9508
3.6496 12.1013 -2.9706 0.9494
0.3351 13.4109 -3.1529 0.9464
-7.8163 6.6190 -2.4072 0.9588
-8.8546 5.1170 -2.4035 0.9588
-9.2679 4.3032 -2.4015 0.9589
-10.5871 0.8215 -2.4957 0.9573
-10.6072 -0.1259 -2.4931 0.9573
-10.5427 -1.0704 -2.4905 0.9574
-10.3944 -2.0044 -2.4879 0.9574
-9.8525 -3.8115 -2.4828 0.9575
-8.6272 -5.2628 -2.3751 0.9593
-6.9076 -7.3392 -2.3687 0.9594
-5.4853 -8.4371 -2.3651 0.9595
-3.0805 -9.6651 -2.3841 0.9592
-1.3131 -10.0511 -2.3823 0.9592
-0.4113 -10.1257 -2.3817 0.9592
0.4934 -10.1204 -2.3814 0.9592
2.2836 -9.8715 -2.3813 0.9592
3.1554 -9.6296 -2.3816 0.9592
4.8187 -8.9204 -2.3828 0.9592
5.5973 -8.4583 -2.3838 0.9592
6.3324 -7.9291 -2.3849 0.9592
7.0183 -7.3367 -2.3862 0.9591
8.6441 -5.1773 -2.3681 0.9594
9.0789 -4.3893 -2.3700 0.9594
9.4426 -3.5651 -2.3721 0.9594
10.3750 -1.9135 -2.4795 0.9576
10.5147 -0.9814 -2.4820 0.9575
10.5435 0.9043 -2.4871 0.9574
10.2364 2.7691 -2.4923 0.9574
9.6012 4.5530 -2.4974 0.9573
9.1659 5.3966 -2.4999 0.9572
8.2978 5.9419 -2.3986 0.9589
6.4453 7.9472 -2.4048 0.9588
6.0323 10.9691 -2.9421 0.9499
3.9506 11.7573 -2.9151 0.9503
0.7454 13.2430 -3.1173 0.9470
-0.4492 13.5697 -3.1909 0.9457
-1.7369 14.1190 -3.3433 0.9432
-3.2976 15.3420 -3.6881 0.9376
9.3394 -2.1148 -2.4794 0.9612
9.4993 -1.2745 -2.4816 0.9612
9.5839 -0.4225 -2.4839 0.9611
9.3803 2.1359 -2.4909 0.9610
9.1611 2.9669 -2.4933 0.9610
5.4881 7.4891 -2.4040 0.9624
4.8013 7.9539 -2.4055 0.9623
2.4035 8.5137 -2.2905 0.9641
2.1987 11.6946 -3.0810 0.9520
1.1584 11.9638 -3.1121 0.9515
-1.0436 12.6824 -3.2948 0.9488
-6.0423 7.0684 -2.4077 0.9623
-7.6840 5.2070 -2.4033 0.9624
-8.1119 4.4976 -2.4016 0.9624
-8.4741 3.7532 -2.3997 0.9624
-9.3795 2.2785 -2.4991 0.9609
-9.6215 -0.2852 -2.4923 0.9610
-9.3999 -1.9864 -2.4876 0.9611
-8.8808 -3.6182 -2.4829 0.9612
-7.8743 -4.9975 -2.4147 0.9622
-7.2713 -5.5832 -2.3736 0.9628
-6.7389 -6.2045 -2.3717 0.9629
-6.1539 -6.7757 -2.3699 0.9629
-3.4207 -8.5620 -2.3872 0.9626
-2.6422 -8.8292 -2.3862 0.9626
-1.8435 -9.0263 -2.3853 0.9626
-1.0308 -9.1521 -2.3846 0.9627
-0.2103 -9.2057 -2.3842 0.9627
0.6116 -9.1867 -2.3839 0.9627
1.4285 -9.0951 -2.3838 0.9627
4.5219 -8.0267 -2.3854 0.9626
7.4913 -5.2490 -2.3684 0.9629
7.9352 -4.5632 -2.3700 0.9629
8.3169 -3.8401 -2.3719 0.9629
9.2660 -2.4049 -2.4786 0.9612
9.5630 -0.7215 -2.4831 0.9611
9.5981 0.1345 -2.4854 0.9611
9.5569 0.9909 -2.4877 0.9611
9.4394 1.8412 -2.4901 0.9610
8.6393 4.2865 -2.4971 0.9609
8.2298 5.0445 -2.4993 0.9609
7.4326 5.5246 -2.3978 0.9625
5.0464 7.7983 -2.4050 0.9623
3.5273 11.1493 -3.0278 0.9528
2.5570 11.5929 -3.0738 0.9521
-0.6396 12.5667 -3.2580 0.9493
-1.1326 8.0274 -2.0990 0.9671
-1.8514 7.9260 -2.1074 0.9669
-5.8195 7.2550 -2.4081 0.9623
-6.4401 6.7035 -2.4068 0.9623
-7.5194 5.4459 -2.4039 0.9624
-9.4904 1.7294 -2.4977 0.9609
-9.4606 -1.6923 -2.4884 0.9611
-9.2631 -2.5270 -2.4860 0.9611
-8.9924 -3.3400 -2.4837 0.9611
-8.6507 -4.1250 -2.4814 0.9612
-6.3643 -6.5818 -2.3705 0.9629
-4.3859 -8.0159 -2.3658 0.9629
-3.6515 -8.3707 -2.3646 0.9630
-2.9172 -8.7435 -2.3865 0.9626
-0.4979 -9.1952 -2.3843 0.9627
0.3242 -9.2016 -2.3839 0.9627
3.5224 -8.5092 -2.3845 0.9627
4.2684 -8.1632 -2.3851 0.9627
4.9812 -7.7526 -2.3859 0.9626
5.6553 -7.2805 -2.3869 0.9626
6.7997 -6.1066 -2.3663 0.9629
9.0430 -2.6512 -2.4399 0.9618
9.3953 -1.8642 -2.4800 0.9612
9.5945 -0.1655 -2.4846 0.9611
9.4891 1.5448 -2.4892 0.9611
9.0808 3.2123 -2.4940 0.9610
8.3809 4.7834 -2.4985 0.9609
7.1033 5.9499 -2.3991 0.9624
6.5495 6.5649 -2.4010 0.9624
4.5872 8.0813 -2.4060 0.9623
3.0226 8.6090 -2.3624 0.9630
2.9096 11.4744 -3.0650 0.9523
-2.2364 4.4447 -1.2883 0.9797
-4.6763 7.5342 -2.2959 0.9640
-6.2287 6.9028 -2.4073 0.9623
-6.8157 6.3162 -2.4060 0.9623
-7.8192 4.9981 -2.4028 0.9624
-8.2277 4.2776 -2.4010 0.9624
-8.3424 3.4304 -2.3355 0.9634
-9.4347 2.0257 -2.4985 0.9609
-9.6268 0.3166 -2.4939 0.9610
-9.6077 -0.5429 -2.4916 0.9610
-9.0954 -3.0584 -2.4845 0.9611
-8.7782 -3.8539 -2.4822 0.9612
-7.6103 -5.1211 -2.3750 0.9628
-5.9688 -6.9368 -2.3694 0.9629
-5.3226 -7.4364 -2.3678 0.9629
-4.6352 -7.8766 -2.3663 0.9629
-3.9120 -8.2540 -2.3650 0.9630
-3.1895 -8.6495 -2.3869 0.9626
-2.4043 -8.8957 -2.3859 0.9626
0.8576 -9.1668 -2.3838 0.9627
2.4729 -8.8690 -2.3839 0.9627
3.2546 -8.6145 -2.3843 0.9627
6.6042 -6.3148 -2.3658 0.9629
8.4189 -3.6166 -2.3724 0.9628
9.3296 -2.1562 -2.4793 0.9612
9.5938 0.3918 -2.4861 0.9611
9.3893 2.0941 -2.4908 0.9610
8.5235 4.5178 -2.4977 0.9609
6.1605 6.9373 -2.4022 0.9624
5.5211 7.4644 -2.4039 0.9624
4.1121 8.3369 -2.4069 0.9623
3.3538 8.6749 -2.4081 0.9623
2.4461 8.5195 -2.2950 0.9640
2.2498 11.6809 -3.0800 0.9520
1.2091 11.9347 -3.1059 0.9516
-0.9844 12.6507 -3.2854 0.9489
-6.6163 6.5274 -2.4064 0.9623
-7.1679 5.9076 -2.4050 0.9623
-7.6611 5.2413 -2.4034 0.9624
-8.0922 4.5338 -2.4016 0.9624
-8.4577 3.7910 -2.3998 0.9624
-9.3697 2.3202 -2.4993 0.9609
-9.6231 -0.2425 -2.4924 0.9610
-9.5541 -1.0988 -2.4900 0.9610
-9.4091 -1.9447 -2.4877 0.9611
-8.5347 -4.3542 -2.4808 0.9612
-7.9686 -5.0078 -2.4368 0.9619
-6.7666 -6.1748 -2.3718 0.9629
-6.1842 -6.7486 -2.3700 0.9629
-5.5537 -7.2681 -2.3683 0.9629
-4.8801 -7.7295 -2.3668 0.9629
-3.4588 -8.5470 -2.3873 0.9626
-2.6815 -8.8175 -2.3862 0.9626
-1.0714 -9.1476 -2.3847 0.9627
-0.2512 -9.2048 -2.3842 0.9627
2.9836 -8.7114 -2.3842 0.9627
4.4862 -8.0466 -2.3853 0.9626
5.1879 -7.6172 -2.3862 0.9626
6.4024 -6.5168 -2.3654 0.9630
6.9622 -5.9232 -2.3668 0.9629
7.4676 -5.2821 -2.3683 0.9629
7.9146 -4.5982 -2.3700 0.9629
8.2995 -3.8769 -2.3718 0.9629
8.6191 -3.1237 -2.3737 0.9628
9.2548 -2.4459 -2.4785 0.9612
9.4444 -1.6121 -2.4807 0.9612
9.5593 -0.7639 -2.4829 0.9612
9.5607 0.9484 -2.4876 0.9611
9.2576 2.6371 -2.4923 0.9610
8.9939 3.4556 -2.4946 0.9610
8.6578 4.2479 -2.4969 0.9609
5.7503 7.2865 -2.4033 0.9624
5.0808 7.7756 -2.4049 0.9623
4.3697 8.2028 -2.4064 0.9623
3.6226 8.5644 -2.4077 0.9623
2.6074 11.5767 -3.0725 0.9522
-6.4104 6.7322 -2.4069 0.9623
-6.9813 6.1301 -2.4055 0.9623
-7.4954 5.4794 -2.4040 0.9624
-8.3375 4.0545 -2.4004 0.9624
-8.6589 3.2920 -2.3985 0.9624
-9.2954 2.6127 -2.5000 0.9609
-9.4830 1.7716 -2.4978 0.9609
-9.6292 0.0583 -2.4932 0.9610
-9.5870 -0.8000 -2.4909 0.9610
-9.4684 -1.6503 -2.4885 0.9611
-9.2747 -2.4860 -2.4862 0.9611
-8.6693 -4.0867 -2.4815 0.9612
-7.4684 -5.3220 -2.3744 0.9628
-6.9582 -5.9620 -2.3725 0.9628
-6.3937 -6.5538 -2.3706 0.9629
-5.7795 -7.0928 -2.3689 0.9629
-5.1203 -7.5749 -2.3673 0.9629
-4.4216 -7.9966 -2.3659 0.9629
-2.1647 -8.9560 -2.3856 0.9626
-1.3569 -9.1105 -2.3849 0.9627
-0.5387 -9.1930 -2.3843 0.9627
1.1030 -9.1404 -2.3838 0.9627
2.7098 -8.7999 -2.3840 0.9627
3.4846 -8.5246 -2.3845 0.9627
5.6228 -7.3053 -2.3869 0.9626
6.1945 -6.7124 -2.3649 0.9630
7.7650 -4.8420 -2.3694 0.9629
8.5148 -3.3905 -2.3730 0.9628
8.9473 -2.6663 -2.4173 0.9622
9.5932 -0.2081 -2.4844 0.9611
9.4954 1.5026 -2.4891 0.9611
9.3324 2.3458 -2.4915 0.9610
8.7835 3.9740 -2.4961 0.9609
8.4016 4.7459 -2.4984 0.9609
7.1294 5.9180 -2.3990 0.9624
5.3201 7.6113 -2.4044 0.9624
3.8877 8.4455 -2.4073 0.9623
2.9594 11.4567 -3.0637 0.9523
1.3810 8.3729 -2.1972 0.9655
-0.1890 12.4681 -3.2286 0.9498
-2.6540 13.5238 -3.5684 0.9446
-3.0296 7.7555 -2.1558 0.9662
-2.2133 4.4480 -1.2864 0.9797
-7.3222 5.7123 -2.4045 0.9624
-7.7972 5.0330 -2.4029 0.9624
-8.2992 3.4558 -2.3277 0.9635
-9.2120 2.9027 -2.5008 0.9609
-9.4260 2.0677 -2.4986 0.9609
-9.6258 0.3593 -2.4940 0.9610
-9.5185 -1.3541 -2.4893 0.9611
-9.3509 -2.1956 -2.4870 0.9611
-8.7956 -3.8150 -2.4823 0.9612
-8.4127 -4.5803 -2.4801 0.9612
-5.9998 -6.9104 -2.3695 0.9629
-5.3558 -7.4129 -2.3679 0.9629
-4.6703 -7.8561 -2.3664 0.9629
-3.9487 -8.2367 -2.3650 0.9630
-3.2280 -8.6354 -2.3870 0.9626
-2.4438 -8.8851 -2.3860 0.9626
-1.6410 -9.0646 -2.3851 0.9627
-0.8257 -9.1724 -2.3845 0.9627
-0.0043 -9.2078 -2.3841 0.9627
0.8169 -9.1705 -2.3838 0.9627
1.6316 -9.0610 -2.3838 0.9627
3.2162 -8.6287 -2.3843 0.9627
4.7007 -7.9243 -2.3856 0.9626
6.5759 -6.3439 -2.3658 0.9629
7.1198 -5.7356 -2.3672 0.9629
7.6081 -5.0810 -2.3688 0.9629
9.5789 -0.5075 -2.4836 0.9611
9.5949 0.3492 -2.4860 0.9611
9.3980 2.0523 -2.4907 0.9610
9.1862 2.8851 -2.4930 0.9610
8.9005 3.6964 -2.4953 0.9610
8.5431 4.4797 -2.4976 0.9609
7.3087 5.6907 -2.3983 0.9624
6.7775 6.3251 -2.4003 0.9624
5.5540 7.4396 -2.4038 0.9624
3.3922 8.6597 -2.4080 0.9623
2.4888 8.5254 -2.2995 0.9640
-7.1418 5.9396 -2.4051 0.9623
-8.4412 3.8286 -2.3999 0.9624
-9.6130 0.6601 -2.4948 0.9610
-9.6246 -0.1997 -2.4925 0.9610
-9.5594 -1.0564 -2.4902 0.9610
-9.4181 -1.9030 -2.4878 0.9611
-9.2021 -2.7329 -2.4854 0.9611
-8.9134 -3.5395 -2.4831 0.9611
-8.5543 -4.3165 -2.4809 0.9612
-6.7942 -6.1449 -2.3719 0.9629
-5.5861 -7.2436 -2.3684 0.9629
-4.9145 -7.7080 -2.3669 0.9629
-4.2049 -8.1108 -2.3655 0.9630
-3.4968 -8.5317 -2.3874 0.9626
-2.7206 -8.8057 -2.3863 0.9626
-1.9237 -9.0099 -2.3854 0.9626
-0.2921 -9.2037 -2.3842 0.9627
0.5300 -9.1918 -2.3839 0.9627
2.9449 -8.7245 -2.3841 0.9627
5.7611 -7.0838 -2.3641 0.9630
6.3732 -6.5450 -2.3653 0.9630
7.8938 -4.6331 -2.3699 0.9629
8.2819 -3.9135 -2.3717 0.9629
8.6048 -3.1618 -2.3736 0.9628
9.5553 -0.8064 -2.4828 0.9612
9.5644 0.9060 -2.4875 0.9611
8.6762 4.2092 -2.4968 0.9609
8.2736 4.9707 -2.4991 0.9609
6.4022 6.7111 -2.4015 0.9624
5.1151 7.7527 -2.4049 0.9623
3.6604 8.5480 -2.4076 0.9623
2.6577 11.5602 -3.0712 0.9522
1.6272 11.8329 -3.0926 0.9518
-0.3416 8.1348 -2.1081 0.9669
-1.7207 13.0315 -3.4034 0.9471
-3.0830 13.7483 -3.6481 0.9434
-3.2614 7.7307 -2.1725 0.9659
-5.7551 7.3067 -2.4082 0.9623
-7.9276 4.8211 -2.4024 0.9624
-8.3197 4.0916 -2.4005 0.9624
-8.6445 3.3306 -2.3986 0.9624
-9.2841 2.6540 -2.5001 0.9609
-9.5909 -0.7575 -2.4910 0.9610
-9.4761 -1.6083 -2.4886 0.9611
-9.2861 -2.4449 -2.4863 0.9611
-8.2847 -4.8029 -2.4794 0.9612
-6.4230 -6.5256 -2.3707 0.9629
-5.8111 -7.0673 -2.3690 0.9629
-4.4572 -7.9771 -2.3660 0.9629
-1.3973 -9.1045 -2.3849 0.9627
1.8739 -9.0141 -2.3838 0.9627
2.6707 -8.8118 -2.3840 0.9627
3.4466 -8.5399 -2.3844 0.9627
4.1957 -8.2006 -2.3850 0.9627
4.9121 -7.7962 -2.3858 0.9626
7.7432 -4.8763 -2.3693 0.9629
8.1533 -4.1693 -2.3710 0.9629
8.4994 -3.4281 -2.3729 0.9628
8.8608 -2.6835 -2.3971 0.9625
9.5224 -1.1042 -2.4820 0.9612
9.5918 -0.2506 -2.4843 0.9611
9.5849 0.6064 -2.4867 0.9611
9.3423 2.3042 -2.4914 0.9610
9.1081 3.1312 -2.4937 0.9610
8.4222 4.7083 -2.4983 0.9609
6.6071 6.5060 -2.4008 0.9624
6.0049 7.0747 -2.4026 0.9624
5.3536 7.5873 -2.4043 0.9624
4.6585 8.0397 -2.4058 0.9623
3.9183 10.8507 -2.9870 0.9535
3.0090 11.4389 -3.0625 0.9523
1.9914 11.7480 -3.0852 0.9520
-0.1334 12.4498 -3.2237 0.9499
-1.5262 7.9637 -2.0995 0.9671
-2.9920 7.7607 -2.1536 0.9662
-8.2854 3.4933 -2.3281 0.9635
-9.5592 1.2601 -2.4964 0.9609
-9.5249 -1.3119 -2.4894 0.9611
-9.3610 -2.1542 -2.4871 0.9611
-6.6255 -6.3234 -2.3714 0.9629
-5.3888 -7.3893 -2.3679 0.9629
-4.7053 -7.8356 -2.3664 0.9629
-3.9854 -8.2193 -2.3651 0.9630
-1.6813 -9.0573 -2.3852 0.9627
-0.8664 -9.1687 -2.3845 0.9627
0.7762 -9.1741 -2.3838 0.9627
1.5913 -9.0681 -2.3838 0.9627
3.9370 -8.3268 -2.3848 0.9627
5.3576 -7.5000 -2.3865 0.9626
6.5475 -6.3729 -2.3657 0.9630
7.5852 -5.1146 -2.3687 0.9629
8.0170 -4.4208 -2.3704 0.9629
9.4802 -1.4007 -2.4812 0.9612
9.5761 -0.5501 -2.4835 0.9611
9.4066 2.0105 -2.4905 0.9610
9.1985 2.8442 -2.4929 0.9610
8.5626 4.4415 -2.4975 0.9609
7.3336 5.6580 -2.3982 0.9625
6.8052 6.2947 -2.4002 0.9624
4.9064 7.8886 -2.4053 0.9623
3.4305 8.6444 -2.4080 0.9623
1.3121 11.8971 -3.0991 0.9517
-0.8678 12.5978 -3.2695 0.9492
-3.6784 14.5632 -3.8891 0.9398
-2.7319 7.8041 -2.1408 0.9664
-5.9480 7.1488 -2.4078 0.9623
-7.1156 5.9714 -2.4051 0.9623
-7.6147 5.3095 -2.4035 0.9624
-8.4244 3.8662 -2.4000 0.9624
-8.7286 3.0969 -2.3980 0.9625
-9.5181 1.5587 -2.4972 0.9609
-9.6258 -0.1570 -2.4926 0.9610
-9.5644 -1.0140 -2.4903 0.9610
-9.4269 -1.8613 -2.4879 0.9611
-9.2146 -2.6922 -2.4856 0.9611
-4.9488 -7.6864 -2.3670 0.9629
-3.5005 -8.4339 -2.3643 0.9630
-2.7598 -8.7937 -2.3863 0.9626
-1.9637 -9.0014 -2.3854 0.9626
-0.3329 -9.2023 -2.3842 0.9627
0.4891 -9.1941 -2.3839 0.9627
2.1149 -8.9607 -2.3838 0.9627
4.4144 -8.0859 -2.3853 0.9627
5.7295 -7.1091 -2.3641 0.9630
7.4199 -5.3478 -2.3681 0.9629
7.8729 -4.6679 -2.3698 0.9629
8.2640 -3.9501 -2.3716 0.9629
8.5903 -3.1998 -2.3735 0.9628
9.2319 -2.5277 -2.4783 0.9612
9.5512 -0.8487 -2.4827 0.9612
9.5977 0.0066 -2.4850 0.9611
9.5679 0.8634 -2.4874 0.9611
9.2798 2.5545 -2.4921 0.9610
9.0234 3.3752 -2.4944 0.9610
8.6944 4.1704 -2.4967 0.9609
6.9966 6.0773 -2.3995 0.9624
6.4318 6.6823 -2.4014 0.9624
5.1493 7.7297 -2.4048 0.9624
3.6983 8.5315 -2.4076 0.9623
3.6481 11.0187 -3.0052 0.9532
1.6791 11.8215 -3.0915 0.9519
0.6310 12.1747 -3.1565 0.9509
-0.4709 12.5416 -3.2495 0.9495
-1.6579 13.0001 -3.3932 0.9473
-6.3507 6.7893 -2.4070 0.9623
-7.9064 4.8564 -2.4024 0.9624
-8.3018 4.1287 -2.4006 0.9624
-9.2727 2.6954 -2.5002 0.9609
-9.4678 1.8559 -2.4980 0.9609
-9.5869 1.0031 -2.4958 0.9610
-9.6292 0.1439 -2.4934 0.9610
-9.5946 -0.7149 -2.4911 0.9610
-9.2973 -2.4037 -2.4864 0.9611
-8.7061 -4.0099 -2.4818 0.9612
-8.3063 -4.7662 -2.4795 0.9612
-7.5160 -5.2559 -2.3746 0.9628
-7.0114 -5.9004 -2.3727 0.9628
-5.8427 -7.0417 -2.3691 0.9629
-4.4927 -7.9575 -2.3660 0.9629
-3.7630 -8.3219 -2.3647 0.9630
-1.4378 -9.0983 -2.3850 0.9627
-0.6203 -9.1880 -2.3844 0.9627
0.2016 -9.2053 -2.3840 0.9627
1.0218 -9.1498 -2.3838 0.9627
1.8339 -9.0223 -2.3838 0.9627
3.4086 -8.5550 -2.3844 0.9627
4.1591 -8.2190 -2.3850 0.9627
7.2475 -5.5758 -2.3676 0.9629
8.4837 -3.4657 -2.3728 0.9628
9.3684 -1.9889 -2.4797 0.9612
9.5170 -1.1464 -2.4819 0.9612
9.5901 -0.2933 -2.4842 0.9611
9.5870 0.5638 -2.4865 0.9611
9.5075 1.4180 -2.4889 0.9611
8.4427 4.6706 -2.4982 0.9609
7.8455 5.3057 -2.4522 0.9616
5.3871 7.5632 -2.4042 0.9624
4.6941 8.0187 -2.4058 0.9623
3.9703 10.8438 -2.9899 0.9534
2.2784 8.5075 -2.2804 0.9643
2.0428 11.7351 -3.0841 0.9520
1.0023 12.0419 -3.1286 0.9513
-0.0780 12.4313 -3.2187 0.9499
-1.2251 12.7784 -3.3237 0.9483
-2.1788 4.4779 -1.2893 0.9796
-7.7528 5.1023 -2.4030 0.9624
-8.1709 4.3873 -2.4013 0.9624
-9.1035 2.9576 -2.4783 0.9612
-9.5539 1.3026 -2.4966 0.9609
-9.6154 -0.4149 -2.4919 0.9610
-9.5311 -1.2697 -2.4896 0.9610
-9.1366 -2.9373 -2.4849 0.9611
-8.8299 -3.7372 -2.4826 0.9612
-6.6538 -6.2941 -2.3715 0.9629
-6.0613 -6.8574 -2.3697 0.9629
-5.4217 -7.3656 -2.3680 0.9629
-4.0219 -8.2018 -2.3652 0.9630
-3.3047 -8.6068 -2.3871 0.9626
-0.9072 -9.1649 -2.3846 0.9627
0.7354 -9.1775 -2.3838 0.9627
2.3545 -8.9011 -2.3839 0.9627
3.1395 -8.6568 -2.3842 0.9627
4.6300 -7.9654 -2.3855 0.9626
5.3240 -7.5236 -2.3864 0.9626
7.5622 -5.1480 -2.3686 0.9629
7.9969 -4.4562 -2.3703 0.9629
8.3689 -3.7281 -2.3721 0.9629
9.5732 -0.5926 -2.4834 0.9611
9.5968 0.2639 -2.4857 0.9611
9.5440 1.1200 -2.4881 0.9611
9.2106 2.8032 -2.4928 0.9610
8.5818 4.4032 -2.4974 0.9609
7.3584 5.6252 -2.3981 0.9625
5.6195 7.3895 -2.4037 0.9624
3.4688 8.6288 -2.4079 0.9623
1.3645 11.8870 -3.0980 0.9518
0.3072 12.2966 -3.1848 0.9504
-3.5737 14.4179 -3.8460 0.9405
-5.9164 7.1753 -2.4079 0.9623
-6.5294 6.6155 -2.4066 0.9623
-7.5913 5.3434 -2.4036 0.9624
-9.3392 2.4452 -2.4996 0.9609
-9.6076 0.7455 -2.4951 0.9610
-9.5693 -0.9716 -2.4904 0.9610
-9.4355 -1.8195 -2.4880 0.9611
-8.9453 -3.4606 -2.4834 0.9611
-8.1734 -4.9859 -2.4789 0.9612
-7.0757 -5.2359 -2.2791 0.9643
-6.2743 -6.6663 -2.3703 0.9629
-4.2771 -8.0736 -2.3656 0.9630
-3.5380 -8.4185 -2.3644 0.9630
-2.0036 -8.9928 -2.3855 0.9626
-1.1932 -9.1329 -2.3848 0.9627
0.4483 -9.1962 -2.3839 0.9627
2.0751 -8.9700 -2.3838 0.9627
2.8673 -8.7501 -2.3841 0.9627
3.6370 -8.4612 -2.3846 0.9627
5.6977 -7.1343 -2.3640 0.9630
6.3146 -6.6010 -2.3652 0.9630
7.3959 -5.3805 -2.3681 0.9629
7.8517 -4.7027 -2.3697 0.9629
8.2461 -3.9866 -2.3715 0.9629
9.2202 -2.5686 -2.4782 0.9612
9.4208 -1.7375 -2.4804 0.9612
9.5469 -0.8911 -2.4826 0.9612
9.0379 3.3350 -2.4943 0.9610
8.7125 4.1316 -2.4966 0.9609
7.5283 5.3909 -2.3974 0.9625
7.0233 6.0459 -2.3994 0.9624
6.4611 6.6535 -2.4013 0.9624
1.7311 11.8098 -3.0905 0.9519
0.6841 12.1541 -3.1519 0.9509
-1.5954 12.9687 -3.3831 0.9474
8.7671 -0.3865 -2.4843 0.9642
8.7741 0.3974 -2.4864 0.9641
8.7112 1.1794 -2.4886 0.9641
8.3775 2.7131 -2.4929 0.9641
8.1091 3.4525 -2.4950 0.9640
7.7753 4.1655 -2.4971 0.9640
6.6357 5.2620 -2.3975 0.9654
5.0162 6.8452 -2.4024 0.9653
4.3882 7.2696 -2.4039 0.9653
3.7243 7.6361 -2.4051 0.9653
2.3103 8.1834 -2.4072 0.9653
1.5717 8.3596 -2.4080 0.9653
0.0827 11.4685 -3.2467 0.9534
-1.3831 7.9898 -2.2955 0.9669
-3.5209 13.1969 -3.8666 0.9448
-4.2897 7.3438 -2.4077 0.9653
-4.9259 6.9295 -2.4068 0.9653
-6.0732 5.9385 -2.4046 0.9653
-7.0235 4.7594 -2.4018 0.9653
-7.4151 4.1112 -2.4002 0.9654
-8.3621 2.8420 -2.5002 0.9639
-8.7330 -1.0437 -2.4898 0.9641
-8.3941 -2.5743 -2.4855 0.9642
-5.6316 -6.2006 -2.3713 0.9658
-4.4348 -7.0938 -2.3684 0.9658
1.3077 -8.3259 -2.3859 0.9656
2.7666 -7.9623 -2.3863 0.9656
3.4665 -7.6853 -2.3867 0.9656
6.3962 -5.3929 -2.3684 0.9658
6.8558 -4.8038 -2.3698 0.9658
7.2617 -4.1758 -2.3714 0.9658
8.4777 -2.2003 -2.4795 0.9642
8.7796 0.1230 -2.4857 0.9642
8.7412 0.9064 -2.4878 0.9641
8.6330 1.6838 -2.4900 0.9641
8.4557 2.4493 -2.4921 0.9641
8.2105 3.1964 -2.4943 0.9640
7.8993 3.9194 -2.4964 0.9640
6.3222 5.6409 -2.3986 0.9654
4.6123 7.1275 -2.4034 0.9653
3.2759 7.8417 -2.4059 0.9653
2.5645 8.1061 -2.4069 0.9653
1.8319 8.3055 -2.4077 0.9653
0.4373 11.3646 -3.2196 0.9538
-0.4135 8.1239 -2.3028 0.9667
-1.1322 8.0245 -2.2942 0.9669
-1.8512 7.9250 -2.3039 0.9667
-4.0586 7.4751 -2.4079 0.9653
-5.3183 6.6302 -2.4062 0.9653
-5.8857 6.1265 -2.4050 0.9653
-6.4053 5.5741 -2.4038 0.9653
-7.6376 3.6723 -2.3991 0.9654
-8.2133 3.0810 -2.4833 0.9642
-8.5086 2.3508 -2.4990 0.9640
-8.6774 1.5812 -2.4970 0.9640
-8.7765 0.8003 -2.4949 0.9640
-8.7640 -0.7705 -2.4906 0.9641
-6.8114 -4.8996 -2.3753 0.9657
-6.3425 -5.4835 -2.3735 0.9657
-5.2601 -6.5142 -2.3703 0.9658
-4.6552 -6.9532 -2.3688 0.9658
-4.0143 -7.3366 -2.3675 0.9658
-2.6444 -7.9258 -2.3653 0.9659
-1.9262 -8.1272 -2.3645 0.9659
-0.4557 -8.4174 -2.3864 0.9656
1.0469 -8.3628 -2.3859 0.9656
1.7886 -8.2362 -2.3860 0.9656
2.5164 -8.0445 -2.3862 0.9656
3.2244 -7.7893 -2.3866 0.9656
6.2233 -5.5891 -2.3680 0.9658
6.7009 -5.0146 -2.3693 0.9658
8.4025 -2.4634 -2.4788 0.9643
8.5956 -1.7055 -2.4808 0.9642
8.7765 -0.1514 -2.4849 0.9642
8.5255 2.1832 -2.4914 0.9641
8.3039 2.9375 -2.4935 0.9640
4.8318 6.9784 -2.4029 0.9653
4.1924 7.3858 -2.4042 0.9653
3.5188 7.7343 -2.4055 0.9653
2.8162 8.0209 -2.4066 0.9653
1.3471 8.3994 -2.4082 0.9653
-0.8812 8.0592 -2.2951 0.9669
-4.1285 13.9600 -4.1212 0.9413
-5.1093 6.7941 -2.4065 0.9653
-5.6924 6.3085 -2.4055 0.9653
-6.2292 5.7727 -2.4042 0.9653
-6.7154 5.1911 -2.4029 0.9653
-7.1471 4.5685 -2.4013 0.9654
-7.8341 3.2214 -2.3980 0.9654
-8.7498 1.0744 -2.4956 0.9640
-8.7865 -0.4965 -2.4914 0.9641
-8.3199 -2.7977 -2.4849 0.9642
-7.2645 -4.8884 -2.4788 0.9643
-6.0108 -5.8396 -2.3724 0.9658
-5.4623 -6.3481 -2.3708 0.9658
-4.2423 -7.2090 -2.3680 0.9658
-3.5806 -7.5547 -2.3667 0.9658
-2.8912 -7.8404 -2.3657 0.9659
-2.1795 -8.0640 -2.3648 0.9659
-0.7186 -8.3996 -2.3866 0.9656
0.0335 -8.4288 -2.3862 0.9656
0.7851 -8.3915 -2.3859 0.9656
3.6715 -7.5902 -2.3869 0.9656
4.9169 -6.7555 -2.3654 0.9659
6.5396 -5.2204 -2.3688 0.9658
6.9834 -4.6191 -2.3703 0.9658
7.7036 -3.3094 -2.3736 0.9657
8.3192 -2.7240 -2.4781 0.9643
8.5357 -1.9727 -2.4801 0.9642
8.6847 -1.2045 -2.4821 0.9642
8.7754 0.3584 -2.4863 0.9641
8.7160 1.1407 -2.4885 0.9641
8.5870 1.9152 -2.4906 0.9641
7.7933 4.1307 -2.4970 0.9640
6.1700 5.8096 -2.3991 0.9654
5.6312 6.3412 -2.4008 0.9654
5.0464 6.8226 -2.4024 0.9653
2.3465 8.1729 -2.4072 0.9653
1.6088 8.3524 -2.4080 0.9653
1.1179 11.0347 -3.1399 0.9549
-0.6298 8.0940 -2.2983 0.9668
-1.3474 7.9947 -2.2952 0.9669
-3.5845 7.7155 -2.4084 0.9653
-5.4934 6.4843 -2.4059 0.9653
-6.0469 5.9656 -2.4047 0.9653
-7.7316 3.4655 -2.3986 0.9654
-8.6060 -1.7787 -2.4878 0.9641
-8.4058 -2.5371 -2.4856 0.9642
-8.1390 -3.2739 -2.4835 0.9642
-7.4157 -4.6603 -2.4795 0.9642
-6.6761 -5.0793 -2.3748 0.9657
-5.6593 -6.1758 -2.3714 0.9658
-5.0826 -6.6516 -2.3698 0.9658
-1.7075 -8.1751 -2.3643 0.9659
-0.2299 -8.4262 -2.3863 0.9656
1.2707 -8.3316 -2.3859 0.9656
2.0088 -8.1854 -2.3860 0.9656
2.7312 -7.9745 -2.3863 0.9656
3.4323 -7.7006 -2.3867 0.9656
4.0668 -7.2944 -2.3642 0.9659
5.3021 -6.4605 -2.3660 0.9659
6.3720 -5.4211 -2.3684 0.9658
6.8342 -4.8340 -2.3698 0.9658
7.2428 -4.2079 -2.3713 0.9658
7.5945 -3.5476 -2.3730 0.9658
7.8865 -2.8581 -2.3747 0.9657
8.4675 -2.2378 -2.4794 0.9642
8.6404 -1.4748 -2.4814 0.9642
8.7447 -0.6989 -2.4835 0.9642
8.6400 1.6454 -2.4899 0.9641
8.2243 3.1599 -2.4942 0.9640
7.9163 3.8841 -2.4963 0.9640
6.3469 5.6126 -2.3985 0.9654
5.8252 6.1607 -2.4002 0.9654
4.6438 7.1067 -2.4033 0.9653
3.9936 7.4968 -2.4046 0.9653
3.3107 7.8270 -2.4058 0.9653
-0.3775 8.1289 -2.3037 0.9667
-1.0965 8.0295 -2.2942 0.9669
-1.8153 7.9300 -2.3030 0.9667
-4.0254 7.4931 -2.4080 0.9653
-4.6762 7.1019 -2.4072 0.9653
-5.8586 6.1527 -2.4051 0.9653
-6.3806 5.6026 -2.4038 0.9653
-7.2656 4.3744 -2.4009 0.9654
-8.1331 3.0921 -2.4632 0.9645
-8.6706 1.6198 -2.4971 0.9640
-8.8056 0.0534 -2.4929 0.9641
-8.6600 -1.5094 -2.4885 0.9641
-8.4835 -2.2739 -2.4864 0.9641
-7.9310 -3.7387 -2.4822 0.9642
-6.8334 -4.8695 -2.3754 0.9657
-6.3670 -5.4555 -2.3736 0.9657
-5.2891 -6.4910 -2.3703 0.9658
-4.6862 -6.9326 -2.3689 0.9658
-3.3763 -7.6469 -2.3664 0.9658
-2.6796 -7.9142 -2.3654 0.9659
-1.9623 -8.1187 -2.3645 0.9659
-1.2421 -8.3396 -2.3869 0.9656
-0.4931 -8.4154 -2.3864 0.9656
0.2594 -8.4246 -2.3861 0.9656
1.0098 -8.3673 -2.3859 0.9656
