ply
format ascii 1.0
element vertex 1570
property float32 x
property float32 y
property float32 z
property float32 I
end_header
13.1634 2.1287 -2.5063 0.9472
12.9381 3.2987 -2.5097 0.9471
12.0859 4.2610 -2.4087 0.9492
11.6714 5.3282 -2.4116 0.9491
6.5779 7.8738 -1.9285 0.9591
4.5084 7.9229 -1.7134 0.9636
2.8028 7.9560 -1.5855 0.9663
3.6085 14.1674 -2.7479 0.9422
-0.3189 17.1998 -3.2334 0.9324
-2.3795 8.0773 -1.5827 0.9663
-10.0942 7.8200 -2.4001 0.9494
-11.2907 5.8852 -2.3932 0.9495
-12.6447 3.9374 -2.4893 0.9475
-13.1043 1.6232 -2.4819 0.9477
-13.1778 0.4473 -2.4783 0.9477
-13.0113 -1.8960 -2.4714 0.9479
-11.9196 -3.9941 -2.3628 0.9501
-11.5024 -5.0354 -2.3601 0.9502
-10.9955 -6.0347 -2.3575 0.9502
-8.4583 -8.1999 -2.2143 0.9532
-7.3538 -10.2513 -2.3714 0.9499
-6.4074 -10.8618 -2.3704 0.9500
-4.3735 -11.8219 -2.3692 0.9500
-2.2035 -12.4115 -2.3694 0.9500
-1.0880 -12.5614 -2.3699 0.9500
0.0368 -12.6128 -2.3707 0.9500
1.1622 -12.5652 -2.3718 0.9499
5.4997 -11.4003 -2.3791 0.9498
7.4537 -10.2637 -2.3842 0.9497
8.3495 -9.5695 -2.3871 0.9496
9.1815 -8.7978 -2.3901 0.9496
9.8466 -7.8774 -2.3702 0.9500
11.1209 -6.0195 -2.3769 0.9498
11.6305 -5.0109 -2.3803 0.9498
12.5704 -4.1308 -2.4870 0.9476
12.9079 -2.9976 -2.4907 0.9475
13.1433 -1.8370 -2.4944 0.9474
13.2741 -0.6583 -2.4981 0.9473
13.2172 1.7155 -2.5052 0.9472
12.2079 3.8795 -2.4077 0.9492
11.3508 6.0009 -2.4133 0.9491
10.7814 6.9966 -2.4158 0.9490
12.1936 9.5606 -2.9124 0.9389
10.5992 9.9589 -2.7337 0.9425
7.7029 10.3911 -2.4312 0.9487
6.4486 10.5512 -2.3243 0.9509
3.8912 13.4986 -2.6405 0.9444
2.7947 14.4275 -2.7622 0.9419
-9.8497 8.1355 -2.4012 0.9493
-10.5214 7.2145 -2.3979 0.9494
-11.6021 5.2151 -2.3909 0.9495
-12.5220 4.3328 -2.4906 0.9475
-13.0539 2.0329 -2.4832 0.9476
-12.8683 -2.6455 -2.4693 0.9479
-11.6587 -4.6754 -2.3610 0.9502
-11.1828 -5.6903 -2.3584 0.9502
-8.5408 -7.7773 -2.1712 0.9541
-7.6720 -10.0183 -2.3718 0.9499
-5.7652 -11.2130 -2.3699 0.9500
-1.4798 -12.5201 -2.3697 0.9500
0.7688 -12.5931 -2.3714 0.9499
1.8901 -12.4812 -2.3727 0.9499
2.9978 -12.2711 -2.3743 0.9499
5.1390 -11.5627 -2.3783 0.9498
10.9219 -6.3608 -2.3757 0.9499
11.4623 -5.3691 -2.3791 0.9498
11.9131 -4.3317 -2.3826 0.9497
13.3024 0.1131 -2.5004 0.9473
13.2579 1.3010 -2.5039 0.9472
13.1069 2.4818 -2.5074 0.9472
11.5283 5.6411 -2.4124 0.9491
9.5866 10.1173 -2.6198 0.9449
8.1612 10.3191 -2.4729 0.9479
6.8771 10.5002 -2.3592 0.9502
4.2310 7.9222 -1.6881 0.9641
3.2409 14.3182 -2.7593 0.9420
2.0181 15.0524 -2.8546 0.9401
0.7302 16.5990 -3.1230 0.9346
-0.8423 18.5632 -3.4927 0.9272
-2.6185 8.0828 -1.5970 0.9660
-3.4504 8.1021 -1.6552 0.9648
-10.9121 6.5857 -2.3956 0.9494
-11.4394 5.5780 -2.3922 0.9495
-13.1794 0.0938 -2.4773 0.9478
-12.6825 -3.3850 -2.4673 0.9480
-11.8040 -4.3106 -2.3620 0.9501
-11.3595 -5.3401 -2.3593 0.9502
-10.2092 -7.2588 -2.3545 0.9503
-8.8285 -9.0303 -2.3737 0.9499
-7.9828 -9.7756 -2.3722 0.9499
-5.1040 -11.5268 -2.3695 0.9500
-4.0550 -11.9346 -2.3692 0.9500
-2.9743 -12.2487 -2.3692 0.9500
-1.8702 -12.4668 -2.3695 0.9500
-0.7510 -12.5872 -2.3701 0.9500
0.3749 -12.6089 -2.3710 0.9500
1.4988 -12.5316 -2.3722 0.9499
2.6122 -12.3557 -2.3737 0.9499
3.7067 -12.0825 -2.3755 0.9499
5.8050 -11.2521 -2.3798 0.9498
6.7927 -10.7008 -2.3823 0.9497
7.7289 -10.0638 -2.3851 0.9497
9.4177 -8.5519 -2.3911 0.9495
10.0584 -7.6138 -2.3711 0.9500
10.7125 -6.6957 -2.3745 0.9499
11.7658 -4.6994 -2.3814 0.9497
12.9894 -2.6517 -2.4918 0.9475
13.2928 -0.3024 -2.4992 0.9473
13.2856 0.8857 -2.5027 0.9472
13.1719 2.0700 -2.5062 0.9472
12.9519 3.2409 -2.5095 0.9471
11.1894 6.3049 -2.4141 0.9491
10.5931 7.2852 -2.4165 0.9490
9.4237 7.8056 -2.3000 0.9514
10.1219 10.0347 -2.6790 0.9436
8.6432 10.2530 -2.5206 0.9469
7.3176 10.4454 -2.3972 0.9494
3.6622 14.1156 -2.7410 0.9424
1.2347 16.3841 -3.0883 0.9353
-0.2417 17.1494 -3.2237 0.9326
-4.9890 8.1377 -1.7941 0.9619
-8.8803 8.3208 -2.2874 0.9517
-10.7064 6.9269 -2.3968 0.9494
-11.2652 5.9358 -2.3934 0.9495
-11.7325 4.9001 -2.3899 0.9496
-12.6280 3.9938 -2.4895 0.9475
-12.9147 2.8474 -2.4858 0.9476
-13.0979 1.6816 -2.4821 0.9477
-13.1766 0.5059 -2.4785 0.9477
-13.0205 -1.8382 -2.4716 0.9479
-12.7878 -2.9883 -2.4684 0.9480
-11.0227 -5.9861 -2.3577 0.9502
-10.4345 -6.9385 -2.3553 0.9503
-8.4564 -8.1254 -2.2043 0.9534
-5.4621 -11.3626 -2.3697 0.9500
-1.1438 -12.5562 -2.3699 0.9500
-0.0193 -12.6126 -2.3707 0.9500
1.1063 -12.5699 -2.3718 0.9499
2.2243 -12.4284 -2.3732 0.9499
5.4487 -11.4240 -2.3790 0.9498
6.4525 -10.9037 -2.3814 0.9497
7.4076 -10.2962 -2.3841 0.9497
10.4928 -7.0237 -2.3733 0.9499
11.0933 -6.0684 -2.3767 0.9498
12.5510 -4.1863 -2.4869 0.9476
12.8935 -3.0547 -2.4906 0.9475
13.1340 -1.8953 -2.4942 0.9474
13.2701 -0.7173 -2.4979 0.9473
13.3003 0.4698 -2.5015 0.9473
13.2238 1.6566 -2.5050 0.9472
13.0409 2.8333 -2.5084 0.9471
12.2326 3.8276 -2.4092 0.9492
10.8119 6.9482 -2.4157 0.9490
12.2246 9.4975 -2.9097 0.9389
10.6801 9.9459 -2.7431 0.9423
9.1429 10.1823 -2.5722 0.9458
7.7672 10.3811 -2.4369 0.9486
6.5088 10.5441 -2.3291 0.9508
3.1233 7.9484 -1.6052 0.9658
3.9236 13.3872 -2.6221 0.9448
2.8583 14.4123 -2.7617 0.9420
0.2882 16.7917 -3.1567 0.9339
-8.3281 8.3071 -2.2110 0.9533
-9.8141 8.1798 -2.4014 0.9493
-10.4899 7.2617 -2.3980 0.9494
-13.0457 2.0911 -2.4834 0.9476
-13.1610 0.9178 -2.4798 0.9477
-13.1716 -0.2593 -2.4762 0.9478
-12.3731 -3.6603 -2.4253 0.9488
-11.2086 -5.6409 -2.3585 0.9502
-8.6154 -7.7754 -2.1813 0.9539
-8.5815 -9.2618 -2.3733 0.9499
-6.7921 -10.6278 -2.3707 0.9500
-4.7929 -11.6589 -2.3694 0.9500
1.8345 -12.4891 -2.3727 0.9499
2.9431 -12.2839 -2.3742 0.9499
5.0873 -11.5849 -2.3782 0.9498
7.9987 -9.8565 -2.3859 0.9496
9.6474 -8.2997 -2.3920 0.9495
10.8927 -6.4089 -2.3755 0.9499
11.8928 -4.3843 -2.3824 0.9497
13.0616 -2.3036 -2.4930 0.9474
11.9912 4.5315 -2.4094 0.9492
11.0198 6.6047 -2.4148 0.9491
8.9391 7.8176 -2.2321 0.9528
9.6615 10.1059 -2.6279 0.9447
8.2286 10.3097 -2.4794 0.9477
5.1905 12.0853 -2.4722 0.9479
2.6059 7.9606 -1.5744 0.9665
3.3042 14.3023 -2.7591 0.9420
2.0687 14.9253 -2.8322 0.9405
0.8028 16.5691 -3.1180 0.9347
-0.7247 17.7079 -3.3312 0.9304
-2.5786 8.0819 -1.5945 0.9661
-9.3858 8.3333 -2.3592 0.9502
-10.8835 6.6346 -2.3958 0.9494
-11.8544 4.5818 -2.3888 0.9496
-12.9806 2.4990 -2.4847 0.9476
-13.1325 1.3294 -2.4810 0.9477
-13.1798 0.1525 -2.4774 0.9478
-10.8550 -6.2775 -2.3569 0.9502
-10.2419 -7.2137 -2.3546 0.9503
-7.1220 -10.4120 -2.3711 0.9500
-6.1624 -11.0014 -2.3701 0.9500
-4.1080 -11.9165 -2.3692 0.9500
-3.0287 -12.2353 -2.3692 0.9500
-1.9256 -12.4582 -2.3695 0.9500
0.3188 -12.6101 -2.3710 0.9500
4.7213 -11.7344 -2.3774 0.9498
7.6837 -10.0975 -2.3849 0.9497
8.5641 -9.3833 -2.3878 0.9496
9.3790 -8.5931 -2.3909 0.9495
10.0238 -7.6579 -2.3710 0.9500
10.6818 -6.7428 -2.3743 0.9499
11.2568 -5.7714 -2.3777 0.9498
11.7439 -4.7513 -2.3812 0.9497
12.6643 -3.8501 -2.4880 0.9476
13.1859 -1.5432 -2.4953 0.9474
13.2903 -0.3615 -2.4990 0.9473
12.9654 3.1831 -2.5093 0.9471
9.5070 7.8036 -2.3118 0.9512
7.3813 10.4373 -2.4028 0.9493
6.2480 10.7565 -2.3381 0.9506
2.8819 7.9541 -1.5902 0.9662
2.4743 14.5030 -2.7654 0.9419
-0.1650 17.0989 -3.2141 0.9328
-2.3011 8.0754 -1.5783 0.9664
-4.9423 8.1425 -1.7903 0.9620
-8.7995 8.3188 -2.2761 0.9519
-10.6763 6.9749 -2.3970 0.9494
-11.2396 5.9862 -2.3936 0.9495
-12.9029 2.9050 -2.4859 0.9476
-13.0913 1.7399 -2.4823 0.9477
-13.1751 0.5645 -2.4787 0.9477
-13.0294 -1.7804 -2.4718 0.9479
-11.0498 -5.9374 -2.3578 0.9502
-5.5126 -11.3383 -2.3697 0.9500
-1.1996 -12.5509 -2.3698 0.9500
-0.0754 -12.6121 -2.3706 0.9500
1.0504 -12.5743 -2.3717 0.9499
2.1690 -12.4378 -2.3731 0.9499
5.3976 -11.4476 -2.3789 0.9498
6.4037 -10.9317 -2.3813 0.9497
7.3613 -10.3284 -2.3840 0.9497
9.1017 -8.8779 -2.3898 0.9496
9.7749 -7.9636 -2.3698 0.9500
10.4607 -7.0698 -2.3731 0.9499
12.5224 -4.2387 -2.4849 0.9476
12.8788 -3.1117 -2.4904 0.9475
13.1245 -1.9535 -2.4941 0.9474
13.2302 1.5977 -2.5048 0.9472
12.3926 3.8173 -2.4373 0.9486
11.8697 4.8530 -2.4103 0.9491
11.4024 5.8991 -2.4130 0.9491
10.1931 7.8467 -2.4178 0.9490
10.7614 9.9327 -2.7526 0.9421
9.2155 10.1718 -2.5799 0.9457
6.5693 10.5371 -2.3339 0.9507
2.3820 7.9955 -1.5681 0.9666
1.7508 15.7198 -2.9730 0.9377
-2.0289 8.0692 -1.5639 0.9667
-3.6721 8.1145 -1.6741 0.9644
-5.6254 8.1596 -1.8629 0.9605
-9.7783 8.2239 -2.4015 0.9493
-10.4583 7.3088 -2.3982 0.9494
-11.5570 5.3188 -2.3913 0.9495
-13.0849 -1.3731 -2.4730 0.9479
-12.8930 -2.5313 -2.4696 0.9479
-12.5635 -3.6560 -2.4594 0.9481
-11.7012 -4.5721 -2.3613 0.9502
-10.6796 -6.5642 -2.3562 0.9503
-7.7612 -9.9502 -2.3719 0.9499
-5.8648 -11.1616 -2.3699 0.9500
-4.8448 -11.6376 -2.3694 0.9500
-3.7871 -12.0221 -2.3692 0.9500
1.7789 -12.4968 -2.3726 0.9499
3.9767 -11.9991 -2.3760 0.9499
5.0355 -11.6068 -2.3781 0.9498
7.9544 -9.8914 -2.3858 0.9497
8.8159 -9.1539 -2.3888 0.9496
11.4125 -5.4700 -2.3788 0.9498
11.8727 -4.4369 -2.3823 0.9497
12.7687 -3.5109 -2.4891 0.9475
13.0503 -2.3614 -2.4928 0.9475
13.2283 -1.1898 -2.4964 0.9474
13.3010 -0.0052 -2.5001 0.9473
13.2672 1.1829 -2.5036 0.9472
11.0485 6.5553 -2.4147 0.9491
11.3487 9.8361 -2.8228 0.9407
8.2965 10.3006 -2.4860 0.9476
5.2814 7.9095 -1.7876 0.9620
6.0644 11.1160 -2.3801 0.9498
3.3674 14.2863 -2.7588 0.9420
0.8750 16.5390 -3.1130 0.9348
-2.5387 8.0810 -1.5921 0.9661
-7.6600 8.2065 -2.1100 0.9553
-9.2997 8.3312 -2.3468 0.9505
-10.2298 7.6357 -2.3994 0.9494
-9.3957 4.6853 -1.9734 0.9582
-12.7094 3.7091 -2.4885 0.9475
-12.9704 2.5569 -2.4848 0.9476
-12.9718 -2.1282 -2.4708 0.9479
-12.7137 -3.2725 -2.4676 0.9480
-11.8432 -4.2060 -2.3623 0.9501
-11.4077 -5.2395 -2.3596 0.9502
-10.2743 -7.1684 -2.3548 0.9503
-9.2411 -7.7599 -2.2681 0.9521
-8.0698 -9.7048 -2.3724 0.9499
-7.1683 -10.3805 -2.3711 0.9500
-5.2064 -11.4812 -2.3695 0.9500
-4.1610 -11.8981 -2.3692 0.9500
-3.0831 -12.2217 -2.3692 0.9500
-0.8628 -12.5796 -2.3700 0.9500
1.3872 -12.5437 -2.3721 0.9499
2.5021 -12.3776 -2.3736 0.9499
3.5988 -12.1140 -2.3753 0.9499
5.7041 -11.3022 -2.3796 0.9498
6.6965 -10.7596 -2.3821 0.9497
9.9889 -7.7019 -2.3708 0.9500
12.6462 -3.9061 -2.4878 0.9476
12.9634 -2.7667 -2.4915 0.9475
13.2877 -0.4206 -2.4988 0.9473
13.2912 0.7673 -2.5024 0.9473
13.1879 1.9526 -2.5058 0.9472
12.9785 3.1252 -2.5092 0.9471
10.6564 7.1899 -2.4163 0.9490
11.9158 9.6925 -2.8871 0.9394
8.7836 10.2334 -2.5348 0.9466
6.2778 10.6978 -2.3314 0.9508
5.6379 11.9335 -2.4807 0.9477
3.7587 13.9750 -2.7201 0.9428
2.5381 14.4881 -2.7647 0.9419
1.3761 16.3210 -3.0786 0.9355
-2.2621 8.0745 -1.5761 0.9664
-9.9911 7.9556 -2.4006 0.9493
-10.6459 7.0228 -2.3972 0.9494
-11.2137 6.0366 -2.3937 0.9495
-11.6902 5.0049 -2.3902 0.9496
-12.5939 4.1066 -2.4898 0.9475
-13.1734 0.6231 -2.4789 0.9477
-13.1578 -0.5536 -2.4753 0.9478
-13.0381 -1.7226 -2.4719 0.9479
-12.8155 -2.8748 -2.4687 0.9479
-11.9740 -3.8354 -2.3633 0.9501
-10.4968 -6.8461 -2.3555 0.9503
-9.8319 -7.7453 -2.3526 0.9503
-8.4526 -7.9785 -2.1848 0.9538
-7.4904 -10.1531 -2.3715 0.9499
-6.5521 -10.7760 -2.3705 0.9500
-5.5631 -11.3138 -2.3697 0.9500
-2.3688 -12.3808 -2.3693 0.9500
-1.2553 -12.5453 -2.3698 0.9500
-0.1314 -12.6114 -2.3706 0.9500
0.9944 -12.5786 -2.3717 0.9499
3.2176 -12.2172 -2.3747 0.9499
4.2980 -11.8912 -2.3766 0.9498
5.3464 -11.4709 -2.3788 0.9498
6.3547 -10.9595 -2.3812 0.9497
7.3149 -10.3604 -2.3838 0.9497
9.0616 -8.9177 -2.3897 0.9496
10.4285 -7.1157 -2.3730 0.9499
12.3281 -4.2341 -2.4500 0.9483
13.1147 -2.0117 -2.4939 0.9474
13.2613 -0.8352 -2.4975 0.9474
13.0638 2.7169 -2.5080 0.9471
11.8905 4.7999 -2.4102 0.9491
11.4279 5.8480 -2.4129 0.9491
10.2274 7.8010 -2.4177 0.9490
9.2885 10.1613 -2.5876 0.9455
6.6301 10.5299 -2.3388 0.9506
4.0562 7.9336 -1.6748 0.9644
2.4175 7.9849 -1.5681 0.9666
1.8058 15.5831 -2.9486 0.9381
0.4356 16.7171 -3.1432 0.9342
-3.6283 8.1135 -1.6706 0.9645
-4.5572 8.1504 -1.7552 0.9627
-3.2171 4.7111 -1.0723 0.9770
-9.7423 8.2679 -2.4017 0.9493
-10.4264 7.3557 -2.3984 0.9494
-11.5341 5.3705 -2.3915 0.9495
-13.0285 2.2074 -2.4837 0.9476
-13.0917 -1.3150 -2.4731 0.9479
-11.7221 -4.5202 -2.3614 0.9502
-10.7092 -6.5170 -2.3563 0.9503
-10.0758 -7.4392 -2.3541 0.9503
-8.6641 -9.1857 -2.3734 0.9499
-7.8055 -9.9159 -2.3720 0.9499
-6.8865 -10.5675 -2.3708 0.9500
-3.8405 -12.0052 -2.3692 0.9500
-0.5254 -12.5995 -2.3703 0.9500
0.6008 -12.6013 -2.3712 0.9499
1.7233 -12.5042 -2.3725 0.9499
4.9837 -11.6285 -2.3780 0.9498
6.0069 -11.1486 -2.3803 0.9498
7.9098 -9.9261 -2.3856 0.9497
8.7745 -9.1924 -2.3886 0.9496
10.1960 -7.4344 -2.3718 0.9499
11.3872 -5.5203 -2.3786 0.9498
11.8516 -4.4892 -2.3821 0.9497
12.7520 -3.5674 -2.4889 0.9475
13.2220 -1.2484 -2.4963 0.9474
13.2999 -0.0643 -2.4999 0.9473
13.2714 1.1238 -2.5034 0.9472
12.8951 3.4733 -2.5101 0.9471
12.0296 4.4242 -2.4092 0.9492
11.6006 5.4859 -2.4120 0.9491
11.0770 6.5057 -2.4146 0.9491
11.4345 9.8217 -2.8332 0.9405
9.8124 10.0828 -2.6445 0.9443
5.3283 7.9034 -1.7916 0.9619
6.0954 11.0556 -2.3729 0.9499
5.2992 12.0419 -2.4729 0.9479
2.6838 7.9588 -1.5787 0.9664
3.4306 14.2702 -2.7586 0.9420
0.9471 16.5087 -3.1081 0.9349
-3.3253 8.1064 -1.6469 0.9650
11.8172 0.5227 -2.5004 0.9528
11.7380 1.5766 -2.5034 0.9527
11.5643 2.6204 -2.5064 0.9527
10.4856 4.4513 -2.4079 0.9545
8.2956 7.8642 -2.4162 0.9543
8.7578 9.9297 -2.7987 0.9473
7.4427 10.1340 -2.6578 0.9499
4.5714 11.9446 -2.7034 0.9491
2.6190 13.8499 -2.9795 0.9440
-6.9860 8.1898 -2.2754 0.9569
-9.3781 6.3694 -2.3963 0.9547
-11.1499 3.8026 -2.4902 0.9530
-11.4296 2.7893 -2.4869 0.9530
-11.6175 1.7564 -2.4836 0.9531
-11.7127 0.7123 -2.4804 0.9532
-11.7147 -0.3349 -2.4773 0.9532
-11.6238 -1.3767 -2.4742 0.9533
-11.1684 -3.4122 -2.4685 0.9534
-9.9331 -5.1102 -2.3612 0.9554
-8.8518 -6.7820 -2.3572 0.9554
-8.2057 -7.5391 -2.3554 0.9555
-0.2684 -11.2306 -2.3746 0.9551
1.7329 -11.1094 -2.3767 0.9551
4.6220 -10.2759 -2.3817 0.9550
5.5250 -9.8314 -2.3838 0.9549
7.1985 -8.7109 -2.3887 0.9549
7.8786 -7.9653 -2.3682 0.9552
9.1905 -6.4541 -2.3739 0.9551
11.3966 -2.9707 -2.4895 0.9530
11.6315 -1.9449 -2.4928 0.9529
11.7739 -0.9008 -2.4960 0.9529
11.8225 0.1531 -2.4992 0.9528
11.7765 1.2085 -2.5024 0.9528
11.6358 2.2568 -2.5054 0.9527
11.4012 3.2895 -2.5083 0.9526
9.1720 6.8025 -2.4138 0.9544
8.5352 7.5993 -2.4156 0.9544
4.1861 7.9227 -1.8941 0.9640
4.9436 11.7986 -2.7040 0.9490
3.8866 12.2402 -2.7146 0.9488
3.0209 13.6277 -2.9505 0.9445
-0.4002 8.0306 -1.6996 0.9677
-1.8779 8.0779 -1.7530 0.9667
-6.5416 8.1728 -2.2128 0.9581
-7.8677 8.2068 -2.4032 0.9546
-8.5582 7.4636 -2.4003 0.9546
-11.0308 4.1511 -2.4913 0.9530
-11.5623 2.1195 -2.4848 0.9531
-11.7246 0.0313 -2.4784 0.9532
-11.5154 -2.0473 -2.4723 0.9533
-11.2739 -3.0628 -2.4695 0.9534
-10.4898 -3.8836 -2.3644 0.9553
-8.4393 -7.2807 -2.3560 0.9555
-7.0713 -8.7384 -2.3761 0.9551
-6.2608 -9.3301 -2.3751 0.9551
-5.4019 -9.8480 -2.3743 0.9551
-3.5649 -10.6475 -2.3735 0.9551
-2.6011 -10.9231 -2.3735 0.9551
-1.6166 -11.1129 -2.3738 0.9551
-0.6191 -11.2155 -2.3743 0.9551
0.3839 -11.2299 -2.3752 0.9551
4.2973 -10.4123 -2.3810 0.9550
5.2134 -9.9961 -2.3831 0.9550
6.9202 -8.9283 -2.3878 0.9549
7.6973 -8.2845 -2.3904 0.9548
8.3338 -7.5004 -2.3700 0.9552
8.9805 -6.7352 -2.3728 0.9551
9.5573 -5.9148 -2.3758 0.9551
10.0597 -5.0452 -2.3789 0.9550
10.6481 -4.1982 -2.4194 0.9543
11.2930 -3.3238 -2.4884 0.9530
11.5597 -2.3063 -2.4916 0.9530
11.8163 -0.2163 -2.4981 0.9528
11.6957 1.8913 -2.5044 0.9527
10.9175 3.8490 -2.4469 0.9538
8.7662 7.3270 -2.4150 0.9544
9.7647 9.7670 -2.9194 0.9451
8.3478 9.9924 -2.7523 0.9482
7.0687 10.1861 -2.6208 0.9506
5.9813 10.5114 -2.5564 0.9518
2.2501 13.9350 -2.9837 0.9439
-0.1490 8.0319 -1.6981 0.9677
-2.3814 8.0839 -1.7814 0.9661
-8.3243 7.7306 -2.4013 0.9546
-11.2434 3.5010 -2.4892 0.9530
-11.6559 1.4438 -2.4827 0.9531
-11.6971 -0.6485 -2.4763 0.9532
-11.5785 -1.6872 -2.4733 0.9533
-11.3686 -2.7100 -2.4704 0.9533
-10.2399 -4.4828 -2.3628 0.9553
-9.2634 -6.2194 -2.3585 0.9554
-8.6649 -7.0153 -2.3566 0.9554
-7.3423 -8.5147 -2.3766 0.9551
-5.7076 -9.6754 -2.3745 0.9551
-2.9411 -10.8363 -2.3735 0.9551
-1.9629 -11.0563 -2.3736 0.9551
-0.9692 -11.1896 -2.3741 0.9551
0.0328 -11.2349 -2.3748 0.9551
2.0304 -11.0609 -2.3771 0.9551
4.8970 -10.1510 -2.3823 0.9550
5.7882 -9.6826 -2.3845 0.9549
8.0921 -7.7539 -2.3690 0.9552
9.8927 -5.3546 -2.3778 0.9551
10.3443 -4.4567 -2.3809 0.9550
11.1785 -3.6734 -2.4872 0.9530
11.7984 -0.5851 -2.4970 0.9529
11.8187 0.4701 -2.5002 0.9528
11.3128 3.5951 -2.5091 0.9526
10.5048 4.4044 -2.4078 0.9545
8.3302 7.8270 -2.4161 0.9543
6.2882 10.2887 -2.5488 0.9519
2.2987 7.9745 -1.7543 0.9666
2.6786 13.8277 -2.9772 0.9440
1.4818 14.4734 -3.0754 0.9423
0.1899 14.9419 -3.1587 0.9407
-2.9054 8.0961 -1.8182 0.9654
-9.8722 5.5448 -2.3934 0.9548
-11.6104 1.8081 -2.4838 0.9531
-11.7168 -0.2828 -2.4774 0.9532
-11.6305 -1.3251 -2.4744 0.9533
-11.4523 -2.3544 -2.4714 0.9533
-10.3787 -4.1621 -2.3637 0.9553
-9.9562 -5.0662 -2.3613 0.9554
-9.4560 -5.9286 -2.3592 0.9554
-8.2394 -7.5028 -2.3555 0.9555
-6.8335 -8.9235 -2.3758 0.9551
-6.0079 -9.4935 -2.3748 0.9551
-5.1355 -9.9885 -2.3741 0.9551
-3.2783 -10.7391 -2.3734 0.9551
-1.3182 -11.1529 -2.3739 0.9551
0.6848 -11.2170 -2.3755 0.9551
1.6834 -11.1167 -2.3766 0.9551
5.4810 -9.8555 -2.3837 0.9549
6.3443 -9.3363 -2.3860 0.9549
9.1612 -6.4945 -2.3737 0.9551
9.7162 -5.6586 -2.3767 0.9551
10.1953 -4.7756 -2.3798 0.9550
11.0531 -4.0190 -2.4861 0.9531
11.8223 0.1005 -2.4991 0.9528
10.6334 4.0725 -2.4069 0.9545
10.2382 5.0098 -2.4094 0.9545
7.4507 7.8632 -2.2898 0.9567
7.9495 10.0514 -2.7088 0.9490
6.7035 10.2352 -2.5862 0.9512
4.2307 7.9216 -1.8983 0.9639
3.9299 12.1885 -2.7070 0.9490
0.6504 14.7843 -3.1281 0.9413
-0.3644 8.0297 -1.6991 0.9677
-7.8315 8.2422 -2.4033 0.9546
-9.6986 5.8532 -2.3945 0.9547
-11.5535 2.1711 -2.4849 0.9531
-11.6858 1.1304 -2.4817 0.9531
-11.6712 -0.9614 -2.4754 0.9532
-10.5075 -3.8371 -2.3646 0.9553
-9.0911 -6.4638 -2.3579 0.9554
-8.4719 -7.2434 -2.3561 0.9555
-7.1102 -8.7071 -2.3762 0.9551
-4.5467 -10.2682 -2.3738 0.9551
-3.6123 -10.6316 -2.3735 0.9551
-2.6496 -10.9114 -2.3735 0.9551
0.3339 -11.2313 -2.3751 0.9551
1.3350 -11.1618 -2.3762 0.9551
2.3266 -11.0045 -2.3775 0.9551
3.3010 -10.7602 -2.3791 0.9550
4.2509 -10.4309 -2.3809 0.9550
8.2999 -7.5369 -2.3698 0.9552
9.5303 -5.9568 -2.3757 0.9551
10.5192 -4.2015 -2.3943 0.9547
11.7282 -1.3198 -2.4947 0.9529
11.8144 -0.2688 -2.4980 0.9528
11.8062 0.7871 -2.5011 0.9528
11.7033 1.8392 -2.5042 0.9527
11.5062 2.8791 -2.5072 0.9527
10.3862 4.6858 -2.4085 0.9545
9.4058 6.4687 -2.4130 0.9544
8.7984 7.2877 -2.4149 0.9544
9.8391 9.7543 -2.9286 0.9449
7.1300 10.1777 -2.6267 0.9505
3.6662 7.9422 -1.8491 0.9649
1.1019 14.6215 -3.0994 0.9418
-0.1132 8.0311 -1.6978 0.9677
-10.0134 5.2762 -2.3925 0.9548
-11.2285 3.5512 -2.4893 0.9530
-11.4853 2.5322 -2.4861 0.9531
-11.7220 0.4500 -2.4796 0.9532
-11.7006 -0.5965 -2.4765 0.9532
-11.5866 -1.6358 -2.4735 0.9533
-11.3812 -2.6596 -2.4706 0.9533
-8.6963 -6.9769 -2.3567 0.9554
-8.0337 -7.7193 -2.3551 0.9555
-7.3802 -8.4822 -2.3766 0.9551
-6.5910 -9.1022 -2.3755 0.9551
-5.7506 -9.6501 -2.3746 0.9551
-4.8656 -10.1218 -2.3739 0.9551
-2.9892 -10.8231 -2.3734 0.9551
-2.0121 -11.0475 -2.3736 0.9551
-1.0189 -11.1850 -2.3741 0.9551
-0.0172 -11.2348 -2.3748 0.9551
1.9811 -11.0695 -2.3770 0.9551
2.9625 -10.8555 -2.3785 0.9550
3.9217 -10.5557 -2.3803 0.9550
4.8516 -10.1722 -2.3822 0.9550
5.7448 -9.7078 -2.3844 0.9549
6.5943 -9.1657 -2.3868 0.9549
8.0571 -7.7894 -2.3689 0.9552
8.7301 -7.0480 -2.3717 0.9552
9.3355 -6.2490 -2.3746 0.9551
9.8681 -5.3983 -2.3776 0.9551
11.1613 -3.7228 -2.4870 0.9530
11.4640 -2.7160 -2.4903 0.9530
11.6759 -1.6848 -2.4936 0.9529
11.3280 3.5446 -2.5090 0.9526
9.6005 6.1697 -2.4123 0.9544
9.0194 7.0073 -2.4143 0.9544
8.3646 7.7896 -2.4161 0.9543
8.8966 9.9081 -2.8148 0.9470
7.5677 10.1145 -2.6702 0.9497
4.8876 7.9177 -1.9668 0.9627
5.6062 11.2103 -2.6494 0.9500
2.3369 7.9736 -1.7564 0.9666
2.7359 13.7949 -2.9727 0.9441
0.2560 14.9194 -3.1541 0.9408
-1.1467 15.8653 -3.3623 0.9370
-8.0468 8.0265 -2.4025 0.9546
-8.7203 7.2681 -2.3996 0.9546
-9.8481 5.5890 -2.3936 0.9548
-11.1171 3.9021 -2.4905 0.9530
-11.4058 2.8912 -2.4872 0.9530
-11.7074 0.8164 -2.4807 0.9532
-11.7186 -0.2307 -2.4776 0.9532
-11.6370 -1.2734 -2.4745 0.9533
-9.9791 -5.0221 -2.3615 0.9554
-9.4827 -5.8868 -2.3593 0.9554
-8.2729 -7.4663 -2.3556 0.9555
-6.0501 -9.4668 -2.3749 0.9551
-4.2696 -10.3859 -2.3736 0.9551
-3.3260 -10.7245 -2.3735 0.9551
-2.3562 -10.9788 -2.3735 0.9551
-1.3678 -11.1468 -2.3739 0.9551
-0.3682 -11.2274 -2.3745 0.9551
0.6349 -11.2197 -2.3754 0.9551
1.6340 -11.1238 -2.3766 0.9551
3.5890 -10.6702 -2.3796 0.9550
7.1200 -8.7737 -2.3884 0.9549
7.8066 -8.0341 -2.3679 0.9552
8.5020 -7.3143 -2.3707 0.9552
9.1316 -6.5348 -2.3736 0.9551
11.3682 -3.0715 -2.4892 0.9530
11.6122 -2.0479 -2.4925 0.9529
11.7639 -1.0054 -2.4957 0.9529
11.7853 1.1036 -2.5021 0.9528
11.6540 2.1530 -2.5051 0.9527
11.4288 3.1876 -2.5080 0.9526
10.2599 4.9640 -2.4092 0.9545
9.7855 5.8649 -2.4115 0.9544
9.2314 6.7202 -2.4136 0.9544
6.7635 10.2272 -2.5918 0.9511
5.0493 11.7565 -2.7046 0.9490
1.9409 14.0033 -2.9883 0.9438
-3.4103 8.1076 -1.8592 0.9647
-7.7952 8.2774 -2.4034 0.9546
-8.4925 7.5402 -2.4006 0.9546
-10.9948 4.2496 -2.4916 0.9530
-11.5445 2.2225 -2.4851 0.9531
-11.6761 -0.9096 -2.4756 0.9532
-9.6650 -5.5894 -2.3600 0.9554
-7.8989 -8.0079 -2.3776 0.9551
-6.3438 -9.2744 -2.3752 0.9551
-3.6595 -10.6155 -2.3735 0.9551
-0.7188 -11.2092 -2.3743 0.9551
1.2853 -11.1674 -2.3761 0.9551
2.2776 -11.0143 -2.3775 0.9551
3.2530 -10.7744 -2.3790 0.9550
6.0047 -9.5530 -2.3851 0.9549
7.6225 -8.3517 -2.3901 0.9548
8.2659 -7.5733 -2.3697 0.9552
10.4447 -4.2257 -2.3817 0.9550
11.2615 -3.4237 -2.4880 0.9530
11.7214 -1.3718 -2.4946 0.9529
11.8089 0.7346 -2.5010 0.9528
11.7107 1.7871 -2.5041 0.9527
11.2083 3.8399 -2.5044 0.9527
10.4063 4.6394 -2.4084 0.9545
9.4341 6.4265 -2.4129 0.9544
9.9140 9.7415 -2.9380 0.9448
8.4824 9.9720 -2.7673 0.9479
7.1917 10.1692 -2.6328 0.9504
6.0405 10.3993 -2.5421 0.9520
4.3576 12.0269 -2.7040 0.9490
2.3726 13.9072 -2.9822 0.9440
-0.1452 15.0512 -3.1817 0.9403
-1.6395 16.5123 -3.5075 0.9344
-8.9087 7.0292 -2.3987 0.9547
-9.4883 6.1988 -2.3957 0.9547
-9.9905 5.3210 -2.3926 0.9548
-10.4117 4.4029 -2.3895 0.9548
-11.3936 -2.6092 -2.4707 0.9533
-9.5379 -4.0748 -2.1924 0.9585
-9.8381 -5.2863 -2.3608 0.9554
-9.3191 -6.1372 -2.3587 0.9554
-8.7276 -6.9385 -2.3568 0.9554
-6.6315 -9.0730 -2.3755 0.9551
-3.9896 -10.4962 -2.3736 0.9551
-2.0612 -11.0383 -2.3736 0.9551
-0.0672 -11.2344 -2.3748 0.9551
4.8061 -10.1932 -2.3821 0.9550
5.7013 -9.7327 -2.3843 0.9549
6.5532 -9.1945 -2.3867 0.9549
7.3550 -8.5825 -2.3892 0.9548
8.0219 -7.8247 -2.3687 0.9552
8.6981 -7.0863 -2.3715 0.9552
9.3070 -6.2900 -2.3745 0.9551
9.8434 -5.4417 -2.3775 0.9551
10.3029 -4.5479 -2.3806 0.9550
11.1439 -3.7721 -2.4869 0.9530
11.4510 -2.7668 -2.4902 0.9530
11.6675 -1.7366 -2.4934 0.9529
11.7912 -0.6899 -2.4967 0.9529
11.7558 1.4196 -2.5030 0.9527
10.5424 4.3103 -2.4075 0.9545
9.6274 6.1268 -2.4122 0.9544
9.0502 6.9669 -2.4142 0.9544
7.6302 10.1041 -2.6764 0.9496
4.9328 7.9121 -1.9709 0.9626
5.6386 11.1507 -2.6412 0.9502
3.7635 12.6328 -2.7863 0.9475
2.7930 13.7619 -2.9683 0.9442
0.3219 14.8967 -3.1496 0.9409
-8.0115 8.0627 -2.4026 0.9546
-11.3936 2.9420 -2.4874 0.9530
-11.5953 1.9116 -2.4841 0.9531
-11.7044 0.8686 -2.4809 0.9531
-11.4742 -2.2528 -2.4717 0.9533
-11.2147 -3.2635 -2.4689 0.9534
-10.4164 -4.0700 -2.3639 0.9553
-9.5092 -5.8448 -2.3594 0.9554
-8.9425 -6.6641 -2.3574 0.9554
-7.6800 -8.2153 -2.3772 0.9551
-6.9129 -8.8628 -2.3759 0.9551
0.5850 -11.2222 -2.3754 0.9551
2.5724 -10.9514 -2.3779 0.9550
3.5414 -10.6857 -2.3796 0.9550
5.3926 -9.9029 -2.3835 0.9549
7.7704 -8.0683 -2.3678 0.9552
8.4689 -7.3516 -2.3705 0.9552
9.6643 -5.7441 -2.3764 0.9551
10.1511 -4.8654 -2.3795 0.9550
11.7894 1.0512 -2.5019 0.9528
11.6628 2.1011 -2.5050 0.9527
10.6680 3.9774 -2.4066 0.9545
10.2813 4.9181 -2.4091 0.9545
9.8111 5.8211 -2.4114 0.9544
9.2608 6.6788 -2.4135 0.9544
6.8237 10.2192 -2.5974 0.9510
5.8595 10.7404 -2.5862 0.9512
2.6480 7.9694 -1.7751 0.9662
1.1443 7.9944 -1.7071 0.9675
0.7798 14.7391 -3.1199 0.9414
-8.0322 8.6054 -2.4883 0.9530
-11.3013 3.2982 -2.4885 0.9530
-11.5352 2.2740 -2.4852 0.9531
-11.7253 0.1878 -2.4788 0.9532
-11.5437 -1.8939 -2.4727 0.9533
-11.3157 -2.9126 -2.4699 0.9534
-10.1560 -4.6646 -2.3624 0.9553
-9.1490 -6.3833 -2.3581 0.9554
-8.5366 -7.1683 -2.3563 0.9554
-7.9346 -7.9729 -2.3777 0.9551
-7.1877 -8.6440 -2.3763 0.9551
-3.7067 -10.5991 -2.3735 0.9551
-2.7465 -10.8873 -2.3735 0.9551
-1.7646 -11.0901 -2.3737 0.9551
1.2356 -11.1727 -2.3761 0.9551
2.2284 -11.0240 -2.3774 0.9551
5.0789 -10.0634 -2.3828 0.9550
5.9619 -9.5792 -2.3850 0.9549
7.5849 -8.3850 -2.3900 0.9548
8.8882 -6.8532 -2.3724 0.9552
9.9896 -5.1780 -2.3784 0.9550
11.2455 -3.4734 -2.4879 0.9530
11.7145 -1.4239 -2.4944 0.9529
11.8113 0.6819 -2.5008 0.9528
11.7178 1.7349 -2.5039 0.9527
11.5300 2.7764 -2.5069 0.9527
9.9850 5.5099 -2.4106 0.9544
8.8622 7.2086 -2.4148 0.9544
5.4032 11.4367 -2.6737 0.9496
3.5656 13.2572 -2.9019 0.9454
2.4339 13.8931 -2.9814 0.9440
1.2287 14.5732 -3.0914 0.9420
-1.5549 16.4015 -3.4825 0.9349
-10.3927 4.4495 -2.3897 0.9548
-11.1979 3.6514 -2.4897 0.9530
-11.4638 2.6346 -2.4864 0.9530
-11.6378 1.5994 -2.4831 0.9531
-11.7069 -0.4925 -2.4768 0.9532
-11.6021 -1.5329 -2.4738 0.9533
-8.1026 -7.6481 -2.3552 0.9555
-5.8364 -9.5989 -2.3746 0.9551
-4.9556 -10.0784 -2.3740 0.9551
-3.0854 -10.7961 -2.3734 0.9551
1.8825 -11.0860 -2.3769 0.9551
2.8656 -10.8806 -2.3784 0.9550
5.6577 -9.7575 -2.3842 0.9549
6.5119 -9.2231 -2.3865 0.9549
7.3163 -8.6146 -2.3891 0.9548
9.2784 -6.3310 -2.3743 0.9551
11.7873 -0.7423 -2.4965 0.9529
11.7613 1.3672 -2.5028 0.9527
11.3579 3.4433 -2.5087 0.9526
10.5609 4.2632 -2.4074 0.9545
10.1488 5.1934 -2.4098 0.9545
9.0806 6.9263 -2.4141 0.9544
-0.9925 15.6671 -3.3183 0.9378
-8.6563 7.3463 -2.3999 0.9546
-10.2533 4.7742 -2.3908 0.9548
-11.0835 4.0014 -2.4908 0.9530
-11.3812 2.9929 -2.4875 0.9530
-11.7012 0.9207 -2.4810 0.9531
-11.7217 -0.1266 -2.4779 0.9532
-11.6492 -1.1701 -2.4748 0.9533
-10.4349 -4.0239 -2.3641 0.9553
-10.0243 -4.9337 -2.3617 0.9553
-9.5355 -5.8028 -2.3595 0.9554
-8.9724 -6.6246 -2.3575 0.9554
-6.9525 -8.8322 -2.3760 0.9551
-5.2685 -9.9195 -2.3742 0.9551
-4.3618 -10.3477 -2.3737 0.9551
-3.4212 -10.6945 -2.3735 0.9551
-0.4680 -11.2233 -2.3744 0.9551
1.5349 -11.1373 -2.3764 0.9551
3.4937 -10.7009 -2.3795 0.9550
7.0409 -8.8357 -2.3882 0.9549
9.0721 -6.6149 -2.3733 0.9551
9.6380 -5.7866 -2.3763 0.9551
11.5920 -2.1508 -2.4921 0.9529
11.7530 -1.1098 -2.4954 0.9529
11.6713 2.0491 -2.5048 0.9527
9.8364 5.7772 -2.4113 0.9544
8.6678 7.4452 -2.4153 0.9544
5.8901 10.6832 -2.5787 0.9513
5.1239 11.6437 -2.6890 0.9493
3.2471 13.5067 -2.9364 0.9448
1.1804 7.9936 -1.7080 0.9675
0.8442 14.7162 -3.1158 0.9415
-0.4852 15.1545 -3.2050 0.9399
10.6233 0.4699 -2.4992 0.9572
10.5508 1.4171 -2.5019 0.9572
9.4218 3.9997 -2.4056 0.9588
9.0356 4.8284 -2.4078 0.9588
8.5760 5.6197 -2.4097 0.9587
7.4513 7.0639 -2.4131 0.9587
6.7954 7.7046 -2.4144 0.9587
5.7950 7.8905 -2.3009 0.9606
6.0776 10.0443 -2.7591 0.9529
3.4926 12.3217 -3.0100 0.9487
2.3885 12.6309 -3.0212 0.9486
-1.1510 14.1702 -3.3413 0.9433
-3.8042 8.1163 -2.1066 0.9638
-6.6353 7.7787 -2.4030 0.9589
-7.2952 7.1485 -2.4005 0.9589
-8.4308 5.7260 -2.3952 0.9590
-9.6940 4.3057 -2.4930 0.9574
-10.0276 3.4199 -2.4900 0.9574
-10.2804 2.5088 -2.4870 0.9574
-10.5379 0.6408 -2.4812 0.9575
-10.5410 -0.3013 -2.4784 0.9576
-10.4605 -1.2390 -2.4756 0.9576
-10.2973 -2.1647 -2.4730 0.9577
-7.9707 -6.1070 -2.3599 0.9596
-7.3895 -6.7892 -2.3584 0.9596
-6.7506 -7.4171 -2.3571 0.9596
-6.1186 -8.0639 -2.3790 0.9593
-3.7623 -9.3884 -2.3771 0.9593
-1.1427 -10.0508 -2.3774 0.9593
-0.2417 -10.1151 -2.3780 0.9593
1.5606 -10.0051 -2.3799 0.9592
4.1617 -9.2525 -2.3844 0.9592
4.9743 -8.8515 -2.3863 0.9591
7.7105 -6.5149 -2.3724 0.9594
9.1913 -4.2556 -2.3805 0.9592
9.9587 -3.5710 -2.4864 0.9575
10.2497 -2.6717 -2.4894 0.9574
10.4595 -1.7489 -2.4924 0.9574
10.6286 0.1377 -2.4982 0.9573
9.1793 4.5423 -2.4070 0.9588
8.7449 5.3475 -2.4091 0.9588
8.2394 6.1109 -2.4109 0.9587
7.6668 6.8261 -2.4126 0.9587
7.6840 9.8049 -2.9277 0.9501
6.4790 9.9890 -2.7982 0.9523
4.6060 10.9929 -2.8012 0.9522
3.7728 11.8816 -2.9298 0.9501
2.7796 12.5391 -3.0185 0.9486
-1.8782 8.0788 -1.9493 0.9665
-7.0709 7.3757 -2.4014 0.9589
-7.6924 6.7085 -2.3988 0.9589
-8.7423 5.2233 -2.3934 0.9590
-9.9199 3.7331 -2.4910 0.9574
-10.5169 0.9702 -2.4822 0.9575
-10.5494 0.0282 -2.4794 0.9576
-10.3637 -1.8426 -2.4739 0.9577
-9.0851 -4.3204 -2.3643 0.9595
-8.1597 -5.8564 -2.3605 0.9596
-7.5996 -6.5564 -2.3589 0.9596
-6.3069 -7.7938 -2.3563 0.9596
-4.8654 -8.8700 -2.3777 0.9593
-4.0540 -9.2667 -2.3772 0.9593
-3.2110 -9.5904 -2.3770 0.9593
-2.3429 -9.8386 -2.3770 0.9593
-1.4561 -10.0095 -2.3772 0.9593
2.1393 -9.9011 -2.3807 0.9592
3.0157 -9.6767 -2.3821 0.9592
4.6939 -9.0001 -2.3856 0.9591
6.1691 -7.9593 -2.3667 0.9595
8.5993 -5.3219 -2.3768 0.9593
10.3955 -2.0740 -2.4913 0.9574
10.5514 -1.1399 -2.4943 0.9573
10.6105 0.7547 -2.5000 0.9572
10.5124 1.7000 -2.5027 0.9572
9.3138 4.2520 -2.4063 0.9588
7.8745 6.5817 -2.4120 0.9587
7.2606 7.2623 -2.4135 0.9587
6.5874 7.8852 -2.4148 0.9587
4.9534 10.8571 -2.8047 0.9521
2.0619 12.7697 -3.0400 0.9482
0.9437 13.3121 -3.1365 0.9466
-5.0433 8.1448 -2.2515 0.9614
-6.1407 8.1836 -2.4046 0.9588
-6.8394 7.5958 -2.4022 0.9589
-9.0239 4.7036 -2.3916 0.9590
-10.1120 3.1487 -2.4891 0.9574
-10.3403 2.2316 -2.4862 0.9575
-10.4858 1.2989 -2.4832 0.9575
-10.4201 -1.5184 -2.4748 0.9577
-10.2324 -2.4392 -2.4722 0.9577
-9.2185 -4.0356 -2.3651 0.9595
-8.8142 -4.8376 -2.3630 0.9595
-7.8026 -6.3172 -2.3595 0.9596
-5.8995 -8.2240 -2.3787 0.9593
-5.1407 -8.7145 -2.3779 0.9593
-1.7680 -9.9586 -2.3771 0.9593
-0.8729 -10.0784 -2.3775 0.9593
0.0295 -10.1189 -2.3782 0.9593
0.9323 -10.0798 -2.3791 0.9593
1.8285 -9.9612 -2.3802 0.9592
2.7112 -9.7640 -2.3816 0.9592
3.5737 -9.4896 -2.3832 0.9592
4.4092 -9.1398 -2.3850 0.9592
5.9732 -8.2251 -2.3891 0.9591
7.2830 -6.9787 -2.3706 0.9594
8.9003 -4.8175 -2.3785 0.9593
10.0544 -3.3040 -2.4873 0.9574
10.3213 -2.3969 -2.4903 0.9574
10.6079 -0.5261 -2.4962 0.9573
10.6247 0.4226 -2.4990 0.9572
10.5564 1.3702 -2.5018 0.9572
10.4032 2.3087 -2.5045 0.9572
10.1662 3.2307 -2.5070 0.9571
9.4391 3.9576 -2.4055 0.9588
9.0566 4.7880 -2.4077 0.9588
8.0744 6.3309 -2.4114 0.9587
6.8294 7.6742 -2.4144 0.9587
5.8483 7.8893 -2.3081 0.9605
6.1341 10.0367 -2.7645 0.9528
5.3232 10.7637 -2.8222 0.9519
4.3867 11.3111 -2.8513 0.9514
3.5247 12.2276 -2.9908 0.9491
2.4443 12.6184 -3.0207 0.9486
1.3429 13.1165 -3.0988 0.9473
-1.0830 14.1112 -3.3262 0.9435
-2.6267 15.6860 -3.7379 0.9367
-6.6010 7.8086 -2.4031 0.9589
-7.8669 6.4978 -2.3980 0.9589
-8.4057 5.7638 -2.3954 0.9590
-8.8761 4.9853 -2.3926 0.9590
-9.6189 4.3237 -2.4786 0.9576
-10.5428 -0.2545 -2.4785 0.9576
-10.4664 -1.1925 -2.4758 0.9576
-10.3074 -2.1190 -2.4731 0.9577
-9.3431 -3.7468 -2.3658 0.9595
-7.9981 -6.0717 -2.3600 0.9596
-6.7837 -7.3871 -2.3571 0.9596
-6.1545 -8.0368 -2.3791 0.9593
-4.6256 -8.9965 -2.3775 0.9593
-3.8041 -9.3717 -2.3771 0.9593
-2.9528 -9.6729 -2.3769 0.9593
-0.2867 -10.1138 -2.3779 0.9593
2.4043 -9.8419 -2.3811 0.9592
3.2746 -9.5943 -2.3826 0.9592
4.1203 -9.2706 -2.3843 0.9592
4.9347 -8.8732 -2.3862 0.9591
5.7115 -8.4050 -2.3883 0.9591
7.0588 -7.2002 -2.3698 0.9594
7.6810 -6.5488 -2.3723 0.9594
8.2436 -5.8440 -2.3749 0.9593
10.2371 -2.7171 -2.4893 0.9574
10.4510 -1.7953 -2.4922 0.9574
10.5900 1.0392 -2.5008 0.9572
10.2586 2.9104 -2.5062 0.9571
9.9680 3.8176 -2.5086 0.9571
9.1990 4.5013 -2.4069 0.9588
7.6968 6.7917 -2.4125 0.9587
7.0646 7.4556 -2.4139 0.9587
7.7468 9.7950 -2.9350 0.9500
6.5370 9.9809 -2.8041 0.9522
4.2304 7.9210 -2.1105 0.9638
2.8350 12.5253 -3.0182 0.9486
-3.1362 4.7741 -1.3425 0.9768
-7.0384 7.4075 -2.4015 0.9589
-7.6629 6.7430 -2.3989 0.9589
-8.7195 5.2624 -2.3936 0.9590
-9.1435 4.4585 -2.3908 0.9591
-9.9038 3.7774 -2.4912 0.9574
-10.1892 2.8755 -2.4882 0.9574
-10.5131 1.0170 -2.4824 0.9575
-10.5498 0.0751 -2.4795 0.9576
-10.5026 -0.8652 -2.4767 0.9576
-9.8682 -3.6037 -2.4691 0.9578
-8.6792 -5.0708 -2.3624 0.9595
-8.1860 -5.8203 -2.3606 0.9596
-7.0126 -7.1729 -2.3576 0.9596
-4.9049 -8.8484 -2.3777 0.9593
-3.2536 -9.5761 -2.3770 0.9593
-2.3865 -9.8281 -2.3770 0.9593
-1.5006 -10.0029 -2.3772 0.9593
-0.6025 -10.0989 -2.3777 0.9593
2.0952 -9.9102 -2.3806 0.9592
4.6537 -9.0205 -2.3855 0.9592
5.4444 -8.5767 -2.3875 0.9591
7.4698 -6.7831 -2.3714 0.9594
8.5751 -5.3597 -2.3766 0.9593
9.0294 -4.5788 -2.3794 0.9593
9.8203 -3.9223 -2.4853 0.9575
10.1430 -3.0344 -2.4882 0.9574
10.3855 -2.1201 -2.4912 0.9574
10.6131 0.7075 -2.4999 0.9572
10.0790 3.5031 -2.5078 0.9571
9.3322 4.2103 -2.4062 0.9588
8.9273 5.0303 -2.4083 0.9588
8.4498 5.8112 -2.4102 0.9587
7.9035 6.5464 -2.4119 0.9587
7.2926 7.2298 -2.4134 0.9587
6.6223 7.8556 -2.4147 0.9587
3.2231 12.4231 -3.0164 0.9486
2.1157 12.7426 -3.0358 0.9483
1.0012 13.2847 -3.1311 0.9467
-1.5017 14.4703 -3.4191 0.9420
-4.9882 8.1363 -2.2430 0.9615
-6.1045 8.2112 -2.4047 0.9588
-8.0355 6.2825 -2.3972 0.9590
-8.5543 5.5345 -2.3945 0.9590
-9.0034 4.7440 -2.3918 0.9590
-10.0985 3.1939 -2.4893 0.9574
-10.3309 2.2777 -2.4863 0.9575
-8.8360 -4.7985 -2.3631 0.9595
-8.3661 -5.5631 -2.3612 0.9596
-7.8309 -6.2826 -2.3595 0.9596
-7.2347 -6.9516 -2.3581 0.9596
-6.5823 -7.5652 -2.3568 0.9596
-5.9361 -8.1978 -2.3788 0.9593
-5.1795 -8.6916 -2.3779 0.9593
-2.6924 -9.7486 -2.3769 0.9593
-1.8123 -9.9506 -2.3771 0.9593
2.6678 -9.7757 -2.3815 0.9592
3.5314 -9.5050 -2.3831 0.9592
5.1721 -8.7400 -2.3868 0.9591
6.5906 -7.6217 -2.3681 0.9594
7.2516 -7.0106 -2.3705 0.9594
10.3099 -2.4426 -2.4901 0.9574
10.6259 0.3754 -2.4989 0.9573
9.4562 3.9154 -2.4054 0.9588
8.6249 5.5428 -2.4095 0.9587
8.1022 6.2947 -2.4113 0.9587
7.5134 6.9969 -2.4129 0.9587
6.8633 7.6435 -2.4143 0.9587
7.3748 9.8566 -2.8932 0.9507
5.3760 10.7499 -2.8248 0.9518
3.5565 12.1346 -2.9719 0.9494
1.3988 13.0881 -3.0935 0.9474
-7.2321 7.2139 -2.4007 0.9589
-8.8544 5.0250 -2.3928 0.9590
-10.2589 2.6005 -2.4873 0.9574
-10.4377 1.6731 -2.4844 0.9575
-10.5444 -0.2076 -2.4787 0.9576
-8.9843 -4.5214 -2.3638 0.9595
-7.4500 -6.7236 -2.3586 0.9596
-6.8167 -7.3571 -2.3572 0.9596
-6.1903 -8.0095 -2.3791 0.9593
-5.4491 -8.5265 -2.3782 0.9593
-1.2320 -10.0400 -2.3773 0.9593
0.5719 -10.1050 -2.3787 0.9593
3.2319 -9.6084 -2.3825 0.9592
4.0789 -9.2885 -2.3842 0.9592
6.3471 -7.8212 -2.3673 0.9595
8.2171 -5.8803 -2.3747 0.9593
8.7186 -5.1297 -2.3774 0.9593
9.1521 -4.3366 -2.3802 0.9592
10.2243 -2.7624 -2.4891 0.9574
10.6282 0.0432 -2.4979 0.9573
10.4746 1.9351 -2.5034 0.9572
10.2709 2.8647 -2.5060 0.9571
9.2185 4.4602 -2.4068 0.9588
8.7914 5.2691 -2.4089 0.9588
7.7267 6.7572 -2.4124 0.9587
7.8099 9.7851 -2.9424 0.9499
5.6359 10.4408 -2.7885 0.9524
1.8446 7.9846 -1.9260 0.9669
0.6493 13.4007 -3.1532 0.9464
-0.5603 13.6918 -3.2206 0.9452
-1.9487 14.8808 -3.5272 0.9402
-3.4105 8.1082 -2.0673 0.9645
-6.3206 8.0423 -2.4040 0.9588
-7.0058 7.4391 -2.4016 0.9589
-7.6333 6.7774 -2.3991 0.9589
-8.6965 5.3014 -2.3937 0.9590
-9.1356 4.5050 -2.3939 0.9590
-9.8875 3.8216 -2.4913 0.9574
-10.3846 1.9992 -2.4854 0.9575
-10.5091 1.0638 -2.4825 0.9575
-10.5499 0.1221 -2.4796 0.9576
-10.1727 -2.6667 -2.4716 0.9577
-9.8846 -3.5599 -2.4692 0.9577
-7.6581 -6.4889 -2.3591 0.9596
-6.3762 -7.7378 -2.3564 0.9596
-5.7136 -8.3531 -2.3785 0.9593
-0.6474 -10.0960 -2.3777 0.9593
0.2558 -10.1166 -2.3784 0.9593
1.1576 -10.0575 -2.3794 0.9593
2.9294 -9.7025 -2.3820 0.9592
4.6134 -9.0407 -2.3854 0.9592
5.4059 -8.6004 -2.3874 0.9591
6.7946 -7.4445 -2.3688 0.9594
8.5507 -5.3975 -2.3765 0.9593
9.8021 -3.9657 -2.4851 0.9575
10.3754 -2.1662 -2.4910 0.9574
10.6201 -0.2889 -2.4969 0.9573
10.3517 2.5414 -2.5051 0.9571
10.0939 3.4581 -2.5077 0.9571
9.3504 4.1686 -2.4061 0.9588
8.9492 4.9904 -2.4082 0.9588
8.4752 5.7734 -2.4101 0.9587
6.6570 7.8259 -2.4147 0.9587
7.0099 9.9121 -2.8532 0.9513
3.7084 7.9405 -2.0597 0.9646
3.2780 12.4079 -3.0162 0.9486
-6.0682 8.2387 -2.4048 0.9588
-6.7723 7.6571 -2.4025 0.9589
-7.4205 7.0152 -2.4000 0.9589
-8.0080 6.3185 -2.3974 0.9590
-9.7673 4.1304 -2.4924 0.9574
-10.0848 3.2389 -2.4894 0.9574
-10.3212 2.3237 -2.4865 0.9575
-10.4343 -1.4259 -2.4751 0.9576
-10.2547 -2.3484 -2.4725 0.9577
-7.8590 -6.2479 -2.3596 0.9596
-5.9726 -8.1715 -2.3788 0.9593
-1.8565 -9.9424 -2.3771 0.9593
-0.0605 -10.1185 -2.3781 0.9593
0.8426 -10.0872 -2.3790 0.9593
2.6242 -9.7871 -2.3815 0.9592
3.4890 -9.5203 -2.3830 0.9592
4.3274 -9.1779 -2.3848 0.9592
5.1330 -8.7625 -2.3867 0.9591
6.5563 -7.6505 -2.3680 0.9594
7.2199 -7.0424 -2.3704 0.9594
7.8277 -6.3772 -2.3729 0.9594
8.3745 -5.6598 -2.3755 0.9593
9.4428 -4.1683 -2.4259 0.9585
10.4917 -1.5616 -2.4929 0.9574
10.6015 -0.6203 -2.4959 0.9573
10.6268 0.3281 -2.4987 0.9573
9.5116 3.8889 -2.4151 0.9587
9.0980 4.7069 -2.4074 0.9588
8.6491 5.5042 -2.4095 0.9587
6.8970 7.6127 -2.4143 0.9587
5.4288 10.7359 -2.8274 0.9518
3.5877 12.0427 -2.9532 0.9497
1.4545 13.0596 -3.0883 0.9474
-0.9490 13.9940 -3.2964 0.9440
-2.4372 15.3936 -3.6629 0.9380
-6.5320 7.8677 -2.4033 0.9589
-7.2004 7.2463 -2.4009 0.9589
-8.3551 5.8389 -2.3956 0.9590
-8.8324 5.0646 -2.3929 0.9590
-10.4307 1.7196 -2.4845 0.9575
-10.5302 0.7814 -2.4816 0.9575
-10.3269 -2.0275 -2.4734 0.9577
-8.5619 -5.2626 -2.3620 0.9595
-8.0524 -6.0008 -2.3602 0.9596
-7.4800 -6.6907 -2.3586 0.9596
-6.8495 -7.3269 -2.3573 0.9596
-4.7055 -8.9553 -2.3776 0.9593
-3.8873 -9.3376 -2.3771 0.9593
-2.1662 -9.8792 -2.3770 0.9593
-1.2766 -10.0343 -2.3773 0.9593
-0.3766 -10.1106 -2.3779 0.9593
2.3166 -9.8623 -2.3810 0.9592
4.8552 -8.9160 -2.3860 0.9591
7.6216 -6.6162 -2.3720 0.9594
8.1904 -5.9164 -2.3746 0.9593
8.6952 -5.1682 -2.3773 0.9593
9.1321 -4.3770 -2.3801 0.9592
10.5727 -0.9509 -2.4948 0.9573
10.5976 0.9449 -2.5006 0.9572
10.4825 1.8885 -2.5033 0.9572
10.0006 3.7285 -2.5084 0.9571
8.8144 5.2298 -2.4088 0.9588
7.1301 7.3921 -2.4138 0.9587
6.6534 9.9642 -2.8159 0.9520
4.7422 10.9075 -2.7953 0.9523
2.6478 7.9687 -1.9735 0.9661
2.9457 12.4972 -3.0176 0.9486
0.4242 8.0179 -1.8870 0.9675
-0.4987 13.6748 -3.2160 0.9453
-5.2503 8.1491 -2.2783 0.9610
-6.2851 8.0708 -2.4041 0.9588
-9.1046 4.5401 -2.3911 0.9591
-9.8710 3.8657 -2.4915 0.9574
-10.1644 2.9664 -2.4885 0.9574
-10.3762 2.0455 -2.4856 0.9575
-10.5049 1.1105 -2.4827 0.9575
-10.5111 -0.7718 -2.4770 0.9576
-10.3890 -1.7045 -2.4743 0.9577
-10.1850 -2.6216 -2.4717 0.9577
-9.9008 -3.5161 -2.4693 0.9577
-9.1431 -4.1994 -2.3647 0.9595
-8.7246 -4.9939 -2.3626 0.9595
-6.4107 -7.7096 -2.3565 0.9596
-5.7508 -8.3277 -2.3785 0.9593
-4.9835 -8.8046 -2.3778 0.9593
-4.1774 -9.2121 -2.3772 0.9593
-3.3387 -9.5468 -2.3770 0.9593
-1.5894 -9.9890 -2.3772 0.9593
-0.6923 -10.0929 -2.3776 0.9593
0.2108 -10.1175 -2.3784 0.9593
2.0069 -9.9279 -2.3805 0.9592
2.8861 -9.7151 -2.3819 0.9592
3.7437 -9.4254 -2.3835 0.9592
6.7611 -7.4743 -2.3687 0.9594
8.5261 -5.4352 -2.3763 0.9593
9.7838 -4.0091 -2.4850 0.9575
10.3651 -2.2121 -2.4909 0.9574
10.6180 -0.3361 -2.4967 0.9573
10.6178 0.6130 -2.4996 0.9572
10.5324 1.5594 -2.5023 0.9572
10.3624 2.4953 -2.5050 0.9571
10.1087 3.4130 -2.5075 0.9571
9.3685 4.1268 -2.4059 0.9588
7.9608 6.4754 -2.4118 0.9587
7.3562 7.1642 -2.4133 0.9587
5.9076 10.0669 -2.7432 0.9532
2.2228 12.6880 -3.0274 0.9484
1.1154 13.2295 -3.1203 0.9469
-0.0706 13.5821 -3.1921 0.9457
-6.7385 7.6875 -2.4026 0.9589
-7.3896 7.0485 -2.4001 0.9589
-8.5057 5.6110 -2.3948 0.9590
-8.9619 4.8244 -2.3921 0.9590
-9.7494 4.1740 -2.4925 0.9574
-10.0709 3.2839 -2.4896 0.9574
-10.5437 0.4987 -2.4808 0.9576
-10.2656 -2.3028 -2.4726 0.9577
-10.0092 -3.2061 -2.4701 0.9577
-9.2728 -3.9129 -2.3654 0.9595
-8.8790 -4.7202 -2.3633 0.9595
-8.4158 -5.4889 -2.3614 0.9596
-7.2967 -6.8874 -2.3582 0.9596
-6.6496 -7.5067 -2.3569 0.9596
-6.0090 -8.1451 -2.3789 0.9593
-3.6355 -9.4381 -2.3770 0.9593
-2.7790 -9.7243 -2.3769 0.9593
-1.9007 -9.9340 -2.3771 0.9593
-1.0072 -10.0655 -2.3774 0.9593
-0.1054 -10.1179 -2.3781 0.9593
1.6953 -9.9839 -2.3801 0.9592
2.5806 -9.7984 -2.3814 0.9592
3.4465 -9.5354 -2.3829 0.9592
5.0938 -8.7849 -2.3866 0.9591
5.8622 -8.3029 -2.3887 0.9591
7.7988 -6.4115 -2.3728 0.9594
9.3374 -4.1715 -2.4035 0.9588
10.0077 -3.4371 -2.4869 0.9575
10.4840 -1.6081 -2.4928 0.9574
10.5980 -0.6674 -2.4957 0.9573
9.6150 3.8814 -2.4369 0.9583
8.6732 5.4654 -2.4094 0.9588
7.5748 6.9294 -2.4128 0.9587
5.4804 10.7192 -2.8294 0.9517
4.4971 11.1522 -2.8261 0.9518
2.6114 12.5798 -3.0196 0.9486
0.3513 13.4798 -3.1691 0.9461
-0.8829 13.9357 -3.2818 0.9442
-7.1685 7.2787 -2.4010 0.9589
-7.7808 6.6032 -2.3984 0.9589
-8.8104 5.1041 -2.3930 0.9590
-10.5272 0.8283 -2.4818 0.9575
-10.3363 -1.9817 -2.4735 0.9577
-10.1080 -2.8928 -2.4710 0.9577
-8.5855 -5.2247 -2.3621 0.9595
-6.2616 -7.9545 -2.3792 0.9593
-4.7453 -8.9344 -2.3776 0.9593
-2.2101 -9.8694 -2.3770 0.9593
-0.4215 -10.1087 -2.3778 0.9593
1.3823 -10.0303 -2.3796 0.9592
3.1461 -9.6362 -2.3824 0.9592
3.9959 -9.3237 -2.3840 0.9592
5.5981 -8.4793 -2.3880 0.9591
6.9611 -7.2926 -2.3694 0.9594
8.1635 -5.9524 -2.3745 0.9593
9.1121 -4.4173 -2.3799 0.9592
9.8913 -3.7467 -2.4859 0.9575
10.4243 -1.9342 -2.4918 0.9574
10.4903 1.8417 -2.5032 0.9572
10.2950 2.7730 -2.5058 0.9571
10.0165 3.6838 -2.5083 0.9571
9.2570 4.3776 -2.4066 0.9588
8.8372 5.1903 -2.4087 0.9588
8.3456 5.9625 -2.4106 0.9587
7.7860 6.6878 -2.4123 0.9587
6.7119 9.9558 -2.8219 0.9519
5.6963 10.3318 -2.7728 0.9527
2.6834 7.9576 -1.9737 0.9661
3.0009 12.4828 -3.0173 0.9486
0.4599 8.0171 -1.8873 0.9675
-0.4374 13.6622 -3.2126 0.9454
9.6391 0.4264 -2.4982 0.9609
9.4286 2.1364 -2.5031 0.9608
9.2089 2.9717 -2.5054 0.9608
8.9150 3.7845 -2.5076 0.9608
8.1946 4.3790 -2.4057 0.9623
7.7772 5.0963 -2.4075 0.9623
6.1613 6.9858 -2.4117 0.9622
5.5160 7.5106 -2.4127 0.9622
3.8806 7.9354 -2.2871 0.9642
4.0384 10.5520 -2.9253 0.9544
3.2265 11.3829 -3.0633 0.9523
1.5112 7.9918 -2.1059 0.9670
0.0663 8.0257 -2.0781 0.9674
-1.0490 12.9146 -3.3548 0.9479
-4.6773 8.0268 -2.4054 0.9623
-5.3703 7.5714 -2.4034 0.9624
-6.0189 7.0561 -2.4013 0.9624
-6.6181 6.4851 -2.3991 0.9624
-7.6498 5.1956 -2.3943 0.9625
-9.1016 3.1041 -2.4899 0.9610
-9.4879 1.4344 -2.4845 0.9611
-9.5679 0.5818 -2.4819 0.9612
-9.5718 -0.2736 -2.4793 0.9612
-9.4996 -1.1251 -2.4768 0.9612
-9.1313 -2.7898 -2.4721 0.9613
-8.8384 -3.5901 -2.4700 0.9613
-7.7135 -4.8840 -2.3638 0.9630
-4.8355 -7.7167 -2.3579 0.9631
-4.1673 -8.1945 -2.3803 0.9627
-1.8488 -9.0039 -2.3799 0.9627
-1.0385 -9.1341 -2.3802 0.9627
-0.2197 -9.1924 -2.3808 0.9627
0.6013 -9.1783 -2.3815 0.9627
2.2245 -8.9335 -2.3837 0.9627
3.0142 -8.7045 -2.3850 0.9627
3.7811 -8.4064 -2.3866 0.9626
5.1720 -7.5388 -2.3671 0.9629
6.4405 -6.5114 -2.3713 0.9629
7.5097 -5.2737 -2.3759 0.9628
8.7059 -4.0308 -2.4840 0.9611
9.0403 -3.2417 -2.4866 0.9611
9.6442 0.1249 -2.4973 0.9609
9.6044 0.9856 -2.4998 0.9609
9.0262 3.5030 -2.5069 0.9608
7.9306 4.8496 -2.4069 0.9623
7.4717 5.5414 -2.4085 0.9623
6.3756 6.7887 -2.4113 0.9623
5.7472 7.3336 -2.4124 0.9622
5.0720 7.8198 -2.4133 0.9622
4.1854 7.9214 -2.3197 0.9637
3.5494 11.1783 -3.0366 0.9527
2.5726 11.6052 -3.0777 0.9521
-1.8784 8.0797 -2.1478 0.9663
-3.4956 8.1081 -2.2861 0.9642
-6.9789 6.0862 -2.3976 0.9625
-7.4864 5.4341 -2.3952 0.9625
-8.6748 4.1823 -2.4935 0.9610
-9.4420 1.7309 -2.4854 0.9611
-9.5486 0.8809 -2.4828 0.9612
-9.4123 -1.6734 -2.4753 0.9613
-8.9489 -3.3131 -2.4707 0.9613
-8.2533 -3.9248 -2.3663 0.9629
-6.9053 -5.9574 -2.3613 0.9630
-6.3430 -6.5460 -2.3601 0.9630
-5.7312 -7.0825 -2.3590 0.9631
-2.1292 -8.9415 -2.3798 0.9627
-1.3233 -9.0967 -2.3801 0.9627
-0.5068 -9.1802 -2.3805 0.9627
0.3142 -9.1915 -2.3812 0.9627
1.1332 -9.1303 -2.3821 0.9627
1.9439 -8.9970 -2.3832 0.9627
2.7402 -8.7925 -2.3845 0.9627
3.5157 -8.5184 -2.3860 0.9626
6.2319 -6.7073 -2.3705 0.9629
7.3386 -5.5039 -2.3751 0.9628
7.8083 -4.8323 -2.3775 0.9628
9.2196 -2.7136 -2.4884 0.9611
9.4351 -1.8824 -2.4911 0.9610
9.6399 -0.1765 -2.4964 0.9609
9.6271 0.6848 -2.4989 0.9609
9.1284 3.2183 -2.5061 0.9608
7.6394 5.3040 -2.4080 0.9623
5.3133 7.6566 -2.4130 0.9622
5.6039 9.8480 -2.9337 0.9543
3.8185 10.8389 -2.9754 0.9536
1.9036 11.7891 -3.0919 0.9519
-0.2327 12.5490 -3.2497 0.9495
-1.4234 13.1462 -3.4237 0.9468
-7.3155 5.6673 -2.3960 0.9625
-8.2488 4.2996 -2.4085 0.9623
-8.8966 3.6693 -2.4917 0.9610
-9.1786 2.8581 -2.4891 0.9611
-9.3868 2.0258 -2.4864 0.9611
-9.5770 0.3251 -2.4811 0.9612
-9.2937 -2.2154 -2.4737 0.9613
-8.5633 -3.7488 -2.4204 0.9621
-7.0896 -5.7399 -2.3618 0.9630
-5.9507 -6.9009 -2.3593 0.9630
-5.3093 -7.4012 -2.3584 0.9631
-3.9459 -8.3028 -2.3802 0.9627
-3.1892 -8.6206 -2.3799 0.9627
-1.6068 -9.0505 -2.3800 0.9627
-0.7933 -9.1592 -2.3804 0.9627
0.0268 -9.1958 -2.3810 0.9627
1.6616 -9.0517 -2.3828 0.9627
4.0059 -8.3038 -2.3871 0.9626
4.6883 -7.8427 -2.3658 0.9629
6.6146 -6.3382 -2.3720 0.9629
9.1269 -2.9992 -2.4874 0.9611
9.5351 -1.3327 -2.4928 0.9610
9.6262 -0.4774 -2.4954 0.9610
9.6404 0.3835 -2.4980 0.9609
9.2217 2.9305 -2.5053 0.9608
8.9313 3.7447 -2.5075 0.9608
6.7847 6.3748 -2.4104 0.9623
6.1922 6.9581 -2.4117 0.9622
5.5493 7.4859 -2.4127 0.9622
4.8610 7.9537 -2.4135 0.9622
3.9239 7.9344 -2.2919 0.9641
3.2757 11.3637 -3.0621 0.9523
1.5479 7.9910 -2.1075 0.9669
0.1582 12.4479 -3.2232 0.9499
-2.2948 13.7040 -3.5976 0.9442
-4.6418 8.0479 -2.4055 0.9623
-7.6271 5.2298 -2.3944 0.9625
-9.0882 3.1447 -2.4900 0.9610
-9.4820 1.4767 -2.4846 0.9611
-9.5734 -0.2311 -2.4794 0.9612
-9.5050 -1.0829 -2.4769 0.9612
-9.3614 -1.9246 -2.4745 0.9613
-9.1440 -2.7494 -2.4723 0.9613
-8.8546 -3.5509 -2.4701 0.9613
-7.7354 -4.8498 -2.3639 0.9630
-7.2671 -5.5167 -2.3623 0.9630
-6.1644 -6.7127 -2.3597 0.9630
-4.2037 -8.1760 -2.3803 0.9627
-3.4572 -8.5170 -2.3800 0.9627
-2.6835 -8.7909 -2.3798 0.9627
-1.8888 -8.9955 -2.3799 0.9627
-1.0790 -9.1293 -2.3802 0.9627
-0.2605 -9.1912 -2.3807 0.9627
0.5605 -9.1807 -2.3815 0.9627
1.3777 -9.0978 -2.3824 0.9627
2.1847 -8.9430 -2.3836 0.9627
2.9754 -8.7175 -2.3850 0.9627
4.4398 -7.9832 -2.3651 0.9630
5.7971 -7.0790 -2.3690 0.9629
6.4112 -6.5396 -2.3712 0.9629
6.9756 -5.9474 -2.3735 0.9628
7.4858 -5.3068 -2.3758 0.9628
7.9374 -4.6227 -2.3783 0.9628
8.6874 -4.0693 -2.4838 0.9611
9.0254 -3.2817 -2.4865 0.9611
9.2921 -2.4663 -2.4892 0.9611
9.6082 0.9429 -2.4997 0.9609
9.4952 1.7979 -2.5022 0.9609
9.3058 2.6401 -2.5045 0.9608
9.0413 3.4627 -2.5068 0.9608
8.3728 4.0970 -2.4135 0.9622
7.9518 4.8141 -2.4068 0.9623
7.4960 5.5080 -2.4085 0.9623
6.9792 6.1585 -2.4100 0.9623
6.4055 6.7601 -2.4113 0.9623
5.1067 7.7970 -2.4132 0.9622
4.2300 7.9203 -2.3249 0.9636
3.5886 11.1297 -3.0277 0.9528
0.5409 12.2961 -3.1867 0.9504
-1.8158 13.4025 -3.5018 0.9456
-3.4496 8.1002 -2.2796 0.9643
-6.3848 6.7197 -2.4000 0.9624
-6.9521 6.1175 -2.3977 0.9625
-7.4626 5.4676 -2.3953 0.9625
-7.9123 4.7752 -2.3928 0.9625
-8.6566 4.2210 -2.4936 0.9610
-8.9889 3.4284 -2.4909 0.9610
-9.5451 0.9233 -2.4829 0.9612
-9.5375 -0.7857 -2.4778 0.9612
-8.9639 -3.2734 -2.4708 0.9613
-8.2710 -3.8882 -2.3663 0.9629
-7.8851 -4.6069 -2.3645 0.9630
-7.4376 -5.2882 -2.3629 0.9630
-6.9320 -5.9268 -2.3614 0.9630
-5.7628 -7.0571 -2.3590 0.9631
-3.7218 -8.4052 -2.3801 0.9627
-2.9570 -8.7029 -2.3798 0.9627
-1.3637 -9.0906 -2.3801 0.9627
0.2733 -9.1926 -2.3812 0.9627
1.0926 -9.1350 -2.3821 0.9627
2.7010 -8.8044 -2.3845 0.9627
4.2279 -8.1952 -2.3876 0.9626
4.8980 -7.7160 -2.3663 0.9629
6.2018 -6.7346 -2.3704 0.9629
7.3137 -5.5362 -2.3750 0.9628
8.1979 -4.1572 -2.3799 0.9627
8.9150 -3.5608 -2.4856 0.9611
9.4262 -1.9242 -2.4909 0.9610
9.6385 -0.2193 -2.4962 0.9609
9.6296 0.6420 -2.4988 0.9609
9.5435 1.4998 -2.5013 0.9609
9.3807 2.3473 -2.5037 0.9608
8.6435 3.8996 -2.4552 0.9616
7.6626 5.2698 -2.4079 0.9623
7.1667 5.9362 -2.4095 0.9623
5.3472 7.6328 -2.4130 0.9622
3.8556 10.7910 -2.9670 0.9538
2.9769 11.4742 -3.0692 0.9522
0.9146 12.1363 -3.1512 0.9510
-5.5370 7.4479 -2.4029 0.9624
-6.7598 6.3339 -2.3985 0.9624
-7.2906 5.7001 -2.3961 0.9625
-8.8807 3.7090 -2.4919 0.9610
-9.1663 2.8990 -2.4892 0.9611
-9.3782 2.0677 -2.4865 0.9611
-9.5151 1.2216 -2.4839 0.9611
-9.5760 0.3677 -2.4812 0.9612
-9.4697 -1.3369 -2.4762 0.9613
-8.6629 -3.7466 -2.4438 0.9618
-7.1153 -5.7085 -2.3619 0.9630
-6.5740 -6.3167 -2.3605 0.9630
-5.9814 -6.8746 -2.3594 0.9630
-5.3422 -7.3777 -2.3584 0.9631
-4.6614 -7.8223 -2.3577 0.9631
-3.9828 -8.2853 -2.3802 0.9627
-3.2275 -8.6064 -2.3799 0.9627
-0.0140 -9.1957 -2.3809 0.9627
0.8065 -9.1634 -2.3817 0.9627
1.6213 -9.0588 -2.3828 0.9627
2.4241 -8.8827 -2.3840 0.9627
