ply
format ascii 1.0
element vertex 1594
property float32 x
property float32 y
property float32 z
property float32 I
end_header
-5.1804 -1.4062 -2.4847 0.9766
-5.0337 -1.8624 -2.4844 0.9766
-4.6218 -2.7266 -2.4839 0.9766
-4.3598 -3.1277 -2.4837 0.9766
-3.3756 -4.1697 -2.4833 0.9766
-2.9902 -4.4541 -2.4833 0.9766
-2.5810 -4.7031 -2.4833 0.9766
-2.1513 -4.9146 -2.4833 0.9766
0.1822 -5.3636 -2.4842 0.9766
0.6599 -5.3266 -2.4845 0.9766
1.1326 -5.2472 -2.4848 0.9766
1.5963 -5.1260 -2.4851 0.9766
2.0474 -4.9639 -2.4855 0.9766
3.6566 -3.9372 -2.4872 0.9766
3.9939 -3.5961 -2.4877 0.9766
4.2996 -3.2261 -2.4881 0.9766
4.8062 -2.4117 -2.4891 0.9766
5.0031 -1.9738 -2.4896 0.9766
5.1602 -1.5200 -2.4900 0.9766
5.3813 -0.0997 -2.4914 0.9766
5.1472 0.3650 -2.3886 0.9775
5.0949 0.8228 -2.3889 0.9775
4.6971 2.1431 -2.3898 0.9775
4.4877 2.5538 -2.3901 0.9775
3.9631 3.3110 -2.3904 0.9775
3.6522 3.6515 -2.3906 0.9775
2.9455 4.2425 -2.3907 0.9775
2.5553 4.4884 -2.3907 0.9775
1.2757 5.0042 -2.3905 0.9775
0.8242 5.0977 -2.3903 0.9775
0.3662 5.1504 -2.3901 0.9775
-0.5546 5.1325 -2.3896 0.9775
-1.8929 4.8005 -2.3886 0.9775
-4.2504 3.2942 -2.4892 0.9766
-5.2513 1.1344 -2.4868 0.9766
-5.3674 0.1833 -2.4860 0.9766
-5.3615 -0.2962 -2.4856 0.9766
-5.3129 -0.7731 -2.4852 0.9766
-5.2221 -1.2437 -2.4848 0.9766
-4.9168 -2.1512 -2.4842 0.9766
-4.7048 -2.5809 -2.4840 0.9766
-4.4555 -2.9900 -2.4837 0.9766
-3.8528 -3.7337 -2.4834 0.9766
-3.1280 -4.3585 -2.4833 0.9766
-2.7267 -4.6201 -2.4833 0.9766
-0.9390 -5.2828 -2.4836 0.9766
0.0145 -5.3665 -2.4841 0.9766
1.8913 -5.0252 -2.4854 0.9766
2.3323 -4.8372 -2.4857 0.9766
3.1557 -4.3473 -2.4866 0.9766
3.5316 -4.0493 -2.4870 0.9766
4.1964 -3.3586 -2.4880 0.9766
4.4801 -2.9715 -2.4885 0.9766
4.9387 -2.1290 -2.4894 0.9766
5.1099 -1.6804 -2.4899 0.9766
5.1179 0.6632 -2.3888 0.9775
5.0391 1.1172 -2.3891 0.9775
4.9200 1.5624 -2.3895 0.9775
4.7616 1.9952 -2.3897 0.9775
4.5651 2.4122 -2.3900 0.9775
4.3321 2.8101 -2.3902 0.9775
4.0645 3.1855 -2.3904 0.9775
3.7644 3.5355 -2.3905 0.9775
3.4342 3.8574 -2.3906 0.9775
1.4315 4.9620 -2.3905 0.9775
-0.3940 5.1476 -2.3897 0.9775
-0.8515 5.0913 -2.3894 0.9775
-1.7421 4.8576 -2.3887 0.9775
-2.5766 4.4694 -2.3880 0.9775
-2.9752 4.2363 -2.3962 0.9774
-3.4724 4.1093 -2.4903 0.9766
-3.8244 3.7825 -2.4898 0.9766
-4.1457 3.4256 -2.4894 0.9766
-4.4338 3.0416 -2.4889 0.9766
-4.6866 2.6335 -2.4884 0.9766
-4.9019 2.2046 -2.4879 0.9766
-5.3077 0.8277 -2.4865 0.9766
-5.3685 -0.1285 -2.4857 0.9766
-5.3347 -0.6067 -2.4853 0.9766
-5.2586 -1.0800 -2.4849 0.9766
-4.5469 -2.8495 -2.4838 0.9766
-3.6296 -3.9508 -2.4834 0.9766
-3.2626 -4.2587 -2.4833 0.9766
-2.0188 -4.9706 -2.4833 0.9766
-1.1036 -5.2507 -2.4836 0.9766
0.8025 -5.3072 -2.4845 0.9766
2.6093 -4.6942 -2.4860 0.9766
3.7611 -3.8380 -2.4873 0.9766
4.0891 -3.4879 -2.4878 0.9766
4.3848 -3.1098 -2.4883 0.9766
4.8694 -2.2821 -2.4892 0.9766
5.0546 -1.8391 -2.4897 0.9766
5.3028 -0.9121 -2.4906 0.9766
5.3824 0.0447 -2.4915 0.9766
5.0712 0.9591 -2.3890 0.9775
4.9662 1.4078 -2.3893 0.9775
4.8214 1.8454 -2.3896 0.9775
4.1620 3.0568 -2.3903 0.9775
3.8730 3.4161 -2.3905 0.9775
3.2046 4.0502 -2.3907 0.9775
2.0180 4.7541 -2.3906 0.9775
0.6872 5.1179 -2.3902 0.9775
-0.2330 5.1576 -2.3898 0.9775
-1.1454 5.0329 -2.3892 0.9775
-1.5895 4.9099 -2.3889 0.9775
-2.8312 4.3118 -2.3877 0.9775
-3.3425 4.2161 -2.4904 0.9766
-3.7045 3.9004 -2.4900 0.9766
-5.3461 0.5182 -2.4863 0.9766
-5.3702 0.0394 -2.4858 0.9766
-5.3514 -0.4397 -2.4854 0.9766
-5.1866 -1.3832 -2.4847 0.9766
-4.8572 -2.2822 -2.4841 0.9766
-4.6339 -2.7060 -2.4839 0.9766
-4.0787 -3.4858 -2.4835 0.9766
-3.7513 -3.8355 -2.4834 0.9766
-3.3942 -4.1547 -2.4833 0.9766
-3.0100 -4.4408 -2.4833 0.9766
-2.6019 -4.6916 -2.4833 0.9766
-0.3207 -5.3566 -2.4839 0.9766
0.1584 -5.3643 -2.4842 0.9766
2.0254 -4.9729 -2.4855 0.9766
2.8777 -4.5354 -2.4863 0.9766
3.6390 -3.9534 -2.4872 0.9766
3.9779 -3.6137 -2.4876 0.9766
4.5584 -2.8505 -2.4886 0.9766
4.9943 -1.9960 -2.4896 0.9766
5.1534 -1.5429 -2.4900 0.9766
5.2714 -1.0772 -2.4905 0.9766
5.1488 0.3422 -2.3885 0.9775
5.0985 0.8002 -2.3889 0.9775
4.4989 2.5338 -2.3901 0.9775
3.6683 3.6353 -2.3906 0.9775
3.3296 3.9481 -2.3906 0.9775
2.1656 4.6887 -2.3907 0.9775
1.2979 4.9985 -2.3905 0.9775
-0.0717 5.1625 -2.3899 0.9775
-0.5319 5.1349 -2.3896 0.9775
-0.9876 5.0664 -2.3893 0.9775
-1.8716 4.8089 -2.3886 0.9775
-2.6953 4.3985 -2.3879 0.9775
-3.2094 4.3187 -2.4906 0.9766
-3.5811 4.0145 -2.4901 0.9766
-3.9242 3.6784 -2.4897 0.9766
-4.7552 2.5068 -2.4883 0.9766
-4.9589 2.0722 -2.4878 0.9766
-5.2462 1.1578 -2.4868 0.9766
-5.3666 0.2071 -2.4860 0.9766
-5.3163 -0.7495 -2.4852 0.9766
-5.2276 -1.2205 -2.4848 0.9766
-5.0972 -1.6817 -2.4845 0.9766
-4.4688 -2.9703 -2.4838 0.9766
-4.1857 -3.3567 -2.4836 0.9766
-3.8694 -3.7165 -2.4834 0.9766
-3.5224 -4.0466 -2.4833 0.9766
-2.7472 -4.6080 -2.4833 0.9766
-2.3253 -4.8347 -2.4833 0.9766
-1.4294 -5.1713 -2.4835 0.9766
-0.9624 -5.2786 -2.4836 0.9766
0.9446 -5.2840 -2.4846 0.9766
1.8689 -5.0335 -2.4853 0.9766
3.1364 -4.3612 -2.4866 0.9766
3.5135 -4.0649 -2.4870 0.9766
3.8628 -3.7359 -2.4875 0.9766
4.1814 -3.3772 -2.4880 0.9766
5.1023 -1.7030 -2.4899 0.9766
5.3740 -0.2916 -2.4912 0.9766
5.2897 0.1858 -2.4500 0.9769
5.1207 0.6404 -2.3888 0.9775
5.0439 1.0948 -2.3891 0.9775
4.3446 2.7908 -2.3902 0.9775
4.0786 3.1674 -2.3904 0.9775
3.7801 3.5188 -2.3905 0.9775
3.4513 3.8421 -2.3906 0.9775
3.0949 4.1347 -2.3907 0.9775
1.0056 5.0652 -2.3904 0.9775
0.0896 5.1624 -2.3900 0.9775
-0.3712 5.1493 -2.3897 0.9775
-1.7205 4.8653 -2.3888 0.9775
-2.1472 4.6918 -2.3884 0.9775
-2.5568 4.4808 -2.3880 0.9775
-2.9457 4.2341 -2.3876 0.9775
-3.4541 4.1247 -2.4903 0.9766
-4.4203 3.0613 -2.4889 0.9766
-4.6749 2.6543 -2.4884 0.9766
-4.8921 2.2263 -2.4879 0.9766
-5.0702 1.7808 -2.4875 0.9766
-5.2079 1.3212 -2.4870 0.9766
-5.3040 0.8513 -2.4866 0.9766
-5.3579 0.3747 -2.4861 0.9766
-5.3690 -0.1047 -2.4857 0.9766
-5.1475 -1.5217 -2.4846 0.9766
-4.9906 -1.9745 -2.4843 0.9766
-4.7941 -2.4115 -2.4841 0.9766
-4.2887 -3.2244 -2.4836 0.9766
-3.2815 -4.2442 -2.4833 0.9766
-2.4752 -4.7597 -2.4833 0.9766
-1.5902 -5.1240 -2.4834 0.9766
-1.1269 -5.2458 -2.4836 0.9766
-4.3073 2.6807 -2.4886 0.9776
-4.5285 2.2854 -2.4882 0.9777
-4.7134 1.8721 -2.4877 0.9777
-5.0555 -0.3468 -2.4857 0.9777
-5.0037 -0.7962 -2.4853 0.9777
-4.9121 -1.2392 -2.4850 0.9777
-4.7814 -1.6722 -2.4847 0.9777
-4.6127 -2.0918 -2.4844 0.9777
-4.4073 -2.4946 -2.4842 0.9777
-3.5890 -3.5717 -2.4837 0.9777
-2.8971 -4.1524 -2.4836 0.9777
-2.5152 -4.3942 -2.4836 0.9777
-1.6945 -4.7714 -2.4837 0.9777
-1.2622 -4.9037 -2.4838 0.9777
-0.8198 -4.9971 -2.4840 0.9777
-0.3709 -5.0507 -2.4841 0.9777
0.9798 -4.9702 -2.4849 0.9777
1.8478 -4.7183 -2.4856 0.9777
2.2616 -4.5354 -2.4860 0.9777
2.6576 -4.3162 -2.4864 0.9777
3.0325 -4.0627 -2.4868 0.9777
4.2648 -2.7477 -2.4885 0.9777
4.4937 -2.3567 -2.4890 0.9776
4.6868 -1.9469 -2.4894 0.9776
4.9599 -1.0835 -2.4903 0.9776
5.0751 -0.1851 -2.4911 0.9776
4.6224 1.5359 -2.3893 0.9785
4.2768 2.3332 -2.3898 0.9785
4.0520 2.7056 -2.3900 0.9785
3.5072 3.3829 -2.3903 0.9785
0.4327 4.8529 -2.3899 0.9785
-0.4364 4.8516 -2.3894 0.9785
-2.9731 4.1158 -2.4906 0.9776
-3.6558 3.5208 -2.4897 0.9776
-4.2218 2.8142 -2.4888 0.9776
-4.6529 2.0186 -2.4879 0.9777
-4.8136 1.5953 -2.4874 0.9777
-5.0187 0.7144 -2.4866 0.9777
-5.0616 0.2638 -2.4862 0.9777
-5.0264 -0.6395 -2.4854 0.9777
-4.9486 -1.0852 -2.4851 0.9777
-4.8315 -1.5220 -2.4848 0.9777
-3.9928 -3.1144 -2.4839 0.9777
-3.6989 -3.4579 -2.4837 0.9777
-3.3755 -3.7739 -2.4836 0.9777
-3.0254 -4.0599 -2.4836 0.9777
-0.9755 -4.9689 -2.4839 0.9777
-0.0771 -5.0640 -2.4843 0.9777
0.3749 -5.0512 -2.4845 0.9777
2.1187 -4.6036 -2.4858 0.9777
2.9039 -4.1552 -2.4866 0.9777
3.2635 -3.8803 -2.4870 0.9777
4.1766 -2.8794 -2.4884 0.9777
4.4175 -2.4958 -2.4888 0.9776
4.6234 -2.0922 -2.4893 0.9776
5.0666 -0.3436 -2.4910 0.9776
5.0779 0.1097 -2.4914 0.9776
4.8395 0.5390 -2.3885 0.9785
4.7727 0.9687 -2.3889 0.9785
4.6679 1.3906 -2.3892 0.9785
4.5258 1.8017 -2.3894 0.9785
4.3475 2.1984 -2.3897 0.9785
4.1345 2.5776 -2.3899 0.9785
3.3051 3.5808 -2.3903 0.9785
2.6163 4.1113 -2.3904 0.9785
1.4344 4.6569 -2.3902 0.9785
1.0133 4.7660 -2.3901 0.9785
0.1503 4.8695 -2.3897 0.9785
-0.2846 4.8630 -2.3895 0.9785
-0.7171 4.8177 -2.3892 0.9785
-1.5613 4.6125 -2.3886 0.9785
-1.9662 4.4542 -2.3883 0.9785
-2.7970 4.1385 -2.4502 0.9780
-3.5443 3.6336 -2.4898 0.9776
-4.1320 2.9449 -2.4890 0.9776
-4.3774 2.5642 -2.4885 0.9777
-4.7616 1.7450 -2.4876 0.9777
-4.8975 1.3131 -2.4872 0.9777
-4.9942 0.8709 -2.4867 0.9777
-5.0511 0.4219 -2.4863 0.9777
-4.7347 -1.7997 -2.4846 0.9777
-4.5548 -2.2146 -2.4843 0.9777
-4.3387 -2.6118 -2.4841 0.9777
-3.8052 -3.3407 -2.4838 0.9777
-3.1508 -3.9633 -2.4836 0.9777
-2.7847 -4.2285 -2.4836 0.9777
-1.5659 -4.8152 -2.4837 0.9777
-1.1303 -4.9359 -2.4838 0.9777
0.2169 -5.0603 -2.4844 0.9777
1.5494 -4.8240 -2.4853 0.9777
3.1405 -3.9801 -2.4869 0.9777
3.4836 -3.6848 -2.4873 0.9777
3.7990 -3.3600 -2.4878 0.9777
4.0843 -3.0083 -2.4882 0.9777
4.5555 -2.2355 -2.4891 0.9776
4.8819 -1.3911 -2.4900 0.9776
5.0531 -0.5017 -2.4909 0.9776
5.0785 -0.0490 -2.4913 0.9776
4.7089 1.2441 -2.3891 0.9785
4.5797 1.6593 -2.3894 0.9785
3.7115 3.1571 -2.3902 0.9785
3.4153 3.4758 -2.3903 0.9785
3.0918 3.7667 -2.3904 0.9785
2.3733 4.2562 -2.3904 0.9785
1.9842 4.4508 -2.3904 0.9785
1.1617 4.7321 -2.3902 0.9785
-0.1325 4.8697 -2.3896 0.9785
-0.5663 4.8380 -2.3893 0.9785
-0.9954 4.7676 -2.3891 0.9785
-1.4165 4.6592 -2.3887 0.9785
-2.2212 4.3321 -2.3880 0.9785
-2.5983 4.1161 -2.3877 0.9785
-3.4292 3.7427 -2.4900 0.9776
-4.0382 3.0728 -2.4891 0.9776
-4.2954 2.6999 -2.4887 0.9776
-4.5183 2.3056 -2.4882 0.9777
-5.0072 -0.7740 -2.4853 0.9777
-4.7888 -1.6510 -2.4847 0.9777
-4.6220 -2.0713 -2.4844 0.9777
-4.4184 -2.4750 -2.4842 0.9777
-4.1797 -2.8591 -2.4840 0.9777
-3.9078 -3.2203 -2.4838 0.9777
-2.5346 -4.3830 -2.4836 0.9777
-2.1336 -4.5917 -2.4836 0.9777
-1.2839 -4.8981 -2.4838 0.9777
-0.8420 -4.9934 -2.4839 0.9777
-0.3932 -5.0490 -2.4841 0.9777
0.5102 -5.0395 -2.4846 0.9777
2.2415 -4.5453 -2.4859 0.9777
3.0144 -4.0760 -2.4868 0.9777
4.4831 -2.3766 -2.4890 0.9776
4.6780 -1.9676 -2.4894 0.9776
4.8358 -1.5428 -2.4899 0.9776
4.9550 -1.1055 -2.4903 0.9776
5.0347 -0.6593 -2.4907 0.9776
5.0743 -0.2076 -2.4911 0.9776
5.0733 0.2459 -2.4915 0.9776
4.8235 0.6686 -2.3886 0.9785
4.0639 2.6876 -2.3900 0.9785
3.8083 3.0396 -2.3901 0.9785
2.8680 3.9398 -2.3904 0.9785
1.7226 4.5583 -2.3903 0.9785
0.8851 4.7914 -2.3901 0.9785
-0.4149 4.8535 -2.3894 0.9785
-1.6843 4.5687 -2.3885 0.9785
-2.0848 4.3996 -2.3882 0.9785
-2.9549 4.1290 -2.4906 0.9776
-3.3108 3.8483 -2.4902 0.9776
-4.2093 2.8329 -2.4888 0.9776
-5.0155 0.7366 -2.4866 0.9777
-5.0604 0.2863 -2.4862 0.9777
-5.0650 -0.1662 -2.4858 0.9777
-5.0292 -0.6172 -2.4855 0.9777
-4.9534 -1.0632 -2.4851 0.9777
-4.8383 -1.5006 -2.4848 0.9777
-4.6846 -1.9259 -2.4845 0.9777
-4.4937 -2.3359 -2.4843 0.9777
-4.0065 -3.0966 -2.4839 0.9777
-3.7142 -3.4415 -2.4837 0.9777
-2.6704 -4.3017 -2.4836 0.9777
-1.8636 -4.7079 -2.4836 0.9777
-1.4363 -4.8555 -2.4837 0.9777
0.3524 -5.0528 -2.4845 0.9777
0.8018 -5.0018 -2.4848 0.9777
1.6782 -4.7809 -2.4854 0.9777
2.5017 -4.4080 -2.4862 0.9777
2.8854 -4.1680 -2.4866 0.9777
3.2462 -3.8947 -2.4870 0.9777
3.5813 -3.5902 -2.4875 0.9777
3.8879 -3.2571 -2.4879 0.9777
4.1637 -2.8979 -2.4884 0.9777
4.6140 -2.1127 -2.4893 0.9776
4.7850 -1.6930 -2.4897 0.9776
5.0113 -0.8162 -2.4906 0.9776
5.0783 0.0872 -2.4914 0.9776
4.7770 0.9474 -2.3889 0.9785
3.9013 2.9190 -2.3901 0.9785
2.9897 3.8482 -2.3904 0.9785
2.6345 4.0996 -2.3904 0.9785
1.8642 4.5024 -2.3903 0.9785
1.0345 4.7615 -2.3901 0.9785
0.6056 4.8345 -2.3900 0.9785
0.1719 4.8688 -2.3898 0.9785
-1.1228 4.7390 -2.3890 0.9785
-1.9464 4.4629 -2.3883 0.9785
-2.3364 4.2708 -2.3879 0.9785
-3.1892 3.9501 -2.4903 0.9776
-3.5281 3.6493 -2.4899 0.9776
-3.8389 3.3195 -2.4894 0.9776
-4.1189 2.9633 -2.4890 0.9776
-4.3661 2.5836 -2.4885 0.9777
-4.7539 1.7661 -2.4876 0.9777
-4.8916 1.3348 -2.4872 0.9777
-5.0493 0.4443 -2.4863 0.9777
-4.8830 -1.3487 -2.4849 0.9777
-4.7427 -1.7787 -2.4846 0.9777
-4.5646 -2.1944 -2.4844 0.9777
-4.3503 -2.5925 -2.4841 0.9777
-4.1014 -2.9700 -2.4839 0.9777
-3.8200 -3.3238 -2.4838 0.9777
-2.8034 -4.2162 -2.4836 0.9777
-1.1522 -4.9308 -2.4838 0.9777
-0.2578 -5.0578 -2.4842 0.9777
0.6451 -5.0242 -2.4847 0.9777
1.5279 -4.8308 -2.4853 0.9777
3.1227 -3.9939 -2.4869 0.9777
3.7840 -3.3768 -2.4877 0.9777
4.0709 -3.0263 -2.4882 0.9777
4.5454 -2.2557 -2.4891 0.9776
4.7294 -1.8416 -2.4895 0.9776
4.9206 0.3709 -2.4205 0.9783
4.7143 1.2231 -2.3891 0.9785
4.4230 2.0418 -2.3896 0.9785
4.2237 2.4284 -2.3898 0.9785
3.9905 2.7957 -2.3900 0.9785
3.7255 3.1406 -2.3902 0.9785
3.1084 3.7529 -2.3904 0.9785
2.3922 4.2456 -2.3904 0.9785
1.1827 4.7270 -2.3902 0.9785
0.7563 4.8133 -2.3900 0.9785
0.3240 4.8612 -2.3898 0.9785
-0.9743 4.7720 -2.3891 0.9785
-1.8061 4.5217 -2.3884 0.9785
-2.5801 4.1276 -2.3877 0.9785
-3.0644 4.0481 -2.4904 0.9776
-3.4126 3.7579 -2.4900 0.9776
-3.7336 3.4380 -2.4896 0.9776
-4.2835 2.7189 -2.4887 0.9776
-4.6967 1.9139 -2.4878 0.9777
-4.9603 1.0486 -2.4869 0.9777
-5.0332 0.6018 -2.4865 0.9777
-5.0585 -0.3019 -2.4857 0.9777
-5.0106 -0.7518 -2.4854 0.9777
-4.7962 -1.6297 -2.4847 0.9777
-4.1923 -2.8405 -2.4840 0.9777
-3.9220 -3.2029 -2.4838 0.9777
-3.2903 -3.8484 -2.4836 0.9777
-2.9338 -4.1265 -2.4836 0.9777
-2.5541 -4.3717 -2.4836 0.9777
-0.8641 -4.9896 -2.4839 0.9777
0.0362 -5.0646 -2.4843 0.9777
0.4878 -5.0417 -2.4846 0.9777
0.9357 -4.9787 -2.4849 0.9777
1.3762 -4.8760 -2.4852 0.9777
1.8059 -4.7345 -2.4856 0.9777
2.2213 -4.5552 -2.4859 0.9777
2.6191 -4.3396 -2.4863 0.9777
2.9962 -4.0894 -2.4867 0.9777
3.6764 -3.4931 -2.4876 0.9777
4.6693 -1.9884 -2.4894 0.9776
5.0317 -0.6816 -2.4907 0.9776
5.0732 -0.2301 -2.4911 0.9776
5.0743 0.2233 -2.4915 0.9776
4.7500 1.0752 -2.3889 0.9785
4.4845 1.9026 -2.3895 0.9785
4.2973 2.2952 -2.3897 0.9785
4.0758 2.6695 -2.3899 0.9785
3.8217 3.0227 -2.3901 0.9785
3.5371 3.3516 -2.3902 0.9785
3.2242 3.6539 -2.3903 0.9785
2.5237 4.1688 -2.3904 0.9785
0.0414 4.8715 -2.3897 0.9785
-0.3933 4.8553 -2.3895 0.9785
-0.8247 4.8003 -2.3892 0.9785
-1.2495 4.7070 -2.3889 0.9785
-1.6641 4.5762 -2.3885 0.9785
-2.4499 4.2064 -2.3878 0.9785
-2.9365 4.1421 -2.4906 0.9776
-3.2937 3.8630 -2.4902 0.9776
-3.6245 3.5532 -2.4897 0.9776
-3.9263 3.2152 -2.4893 0.9776
-4.1967 2.8516 -2.4888 0.9776
-4.4335 2.4655 -2.4884 0.9777
-5.0122 0.7589 -2.4866 0.9777
-5.0591 0.3088 -2.4862 0.9777
-4.9581 -1.0412 -2.4851 0.9777
-4.8449 -1.4791 -2.4848 0.9777
-4.2792 -2.7082 -2.4841 0.9777
-4.0202 -3.0789 -2.4839 0.9777
-3.7294 -3.4250 -2.4838 0.9777
-2.6894 -4.2898 -2.4836 0.9777
-2.2961 -4.5126 -2.4836 0.9777
-1.4578 -4.8490 -2.4837 0.9777
-1.0196 -4.9600 -2.4839 0.9777
-0.5731 -5.0315 -2.4841 0.9777
-0.1221 -5.0631 -2.4843 0.9777
0.7796 -5.0053 -2.4848 0.9777
2.4821 -4.4190 -2.4862 0.9777
3.2288 -3.9090 -2.4870 0.9777
3.8734 -3.2743 -2.4879 0.9777
4.3951 -2.5349 -2.4888 0.9776
4.6046 -2.1331 -2.4892 0.9776
4.7773 -1.7143 -2.4897 0.9776
5.0786 0.0647 -2.4914 0.9776
4.8440 0.4960 -2.3885 0.9785
4.7811 0.9262 -2.3888 0.9785
4.3668 2.1597 -2.3897 0.9785
4.1571 2.5408 -2.3899 0.9785
3.9142 2.9017 -2.3901 0.9785
3.0067 3.8349 -2.3904 0.9785
2.6527 4.0879 -2.3904 0.9785
1.8841 4.4941 -2.3903 0.9785
1.4757 4.6440 -2.3903 0.9785
-0.6744 4.8239 -2.3893 0.9785
-1.1018 4.7440 -2.3890 0.9785
-1.5204 4.6262 -2.3887 0.9785
-1.9266 4.4715 -2.3883 0.9785
-3.1716 3.9642 -2.4903 0.9776
-3.5120 3.6649 -2.4899 0.9776
-3.8242 3.3365 -2.4894 0.9776
-4.3546 2.6029 -2.4885 0.9777
-4.5686 2.2038 -2.4881 0.9777
-4.7461 1.7872 -2.4876 0.9777
-5.0679 0.0146 -2.4860 0.9777
-5.0483 -0.4374 -2.4856 0.9777
-4.8889 -1.3271 -2.4849 0.9777
-4.7505 -1.7577 -2.4846 0.9777
-4.5744 -2.1741 -2.4844 0.9777
-4.3618 -2.5732 -2.4841 0.9777
-3.8346 -3.3068 -2.4838 0.9777
-3.1859 -3.9353 -2.4836 0.9777
-2.4359 -4.4386 -2.4836 0.9777
-2.0304 -4.6383 -2.4836 0.9777
-1.1740 -4.9257 -2.4838 0.9777
-0.7301 -5.0111 -2.4840 0.9777
-0.2802 -5.0566 -2.4842 0.9777
0.1719 -5.0619 -2.4844 0.9777
0.6228 -5.0269 -2.4847 0.9777
1.0688 -4.9520 -2.4850 0.9777
1.9322 -4.6845 -2.4857 0.9777
2.3427 -4.4942 -2.4860 0.9777
3.4507 -3.7155 -2.4873 0.9777
3.7690 -3.3935 -2.4877 0.9777
4.0574 -3.0443 -2.4882 0.9777
4.3135 -2.6708 -2.4886 0.9776
4.7212 -1.8626 -2.4895 0.9776
4.8693 -1.4343 -2.4900 0.9776
4.9787 -0.9944 -2.4904 0.9776
5.0778 -0.0940 -2.4912 0.9776
4.8075 0.7764 -2.3887 0.9785
4.7197 1.2022 -2.3890 0.9785
4.5942 1.6186 -2.3893 0.9785
4.2344 2.4096 -2.3898 0.9785
4.0029 2.7779 -2.3900 0.9785
3.7394 3.1241 -2.3902 0.9785
3.4460 3.4453 -2.3903 0.9785
2.7791 4.0030 -2.3904 0.9785
2.4110 4.2349 -2.3904 0.9785
2.0236 4.4330 -2.3904 0.9785
1.6201 4.5957 -2.3903 0.9785
-0.5233 4.8429 -2.3894 0.9785
-0.9531 4.7763 -2.3891 0.9785
-1.7861 4.5297 -2.3884 0.9785
-2.1827 4.3517 -2.3881 0.9785
-3.3959 3.7731 -2.4900 0.9776
-4.0109 3.1086 -2.4892 0.9776
-4.9556 1.0706 -2.4869 0.9777
-5.0653 0.1730 -2.4861 0.9777
-5.0598 -0.2795 -2.4857 0.9777
-4.8033 -1.6084 -2.4847 0.9777
-4.2049 -2.8219 -2.4840 0.9777
-3.9362 -3.1854 -2.4839 0.9777
-3.3073 -3.8338 -2.4836 0.9777
-2.9521 -4.1134 -2.4836 0.9777
-1.7578 -4.7484 -2.4837 0.9777
-0.8862 -4.9857 -2.4839 0.9777
-0.4380 -5.0453 -2.4841 0.9777
0.0137 -5.0647 -2.4843 0.9777
0.9136 -4.9827 -2.4849 0.9777
2.2010 -4.5649 -2.4859 0.9777
2.5998 -4.3511 -2.4863 0.9777
3.3327 -3.8212 -2.4871 0.9777
3.6609 -3.5094 -2.4876 0.9777
3.9600 -3.1694 -2.4880 0.9777
4.6603 -2.0090 -2.4894 0.9776
4.9449 -1.1494 -2.4903 0.9776
5.0721 -0.2526 -2.4911 0.9776
4.8292 0.6257 -2.3886 0.9785
4.7547 1.0541 -2.3889 0.9785
4.4929 1.8826 -2.3895 0.9785
4.3074 2.2761 -2.3897 0.9785
4.0876 2.6514 -2.3899 0.9785
3.8351 3.0057 -2.3901 0.9785
3.5519 3.3360 -2.3902 0.9785
3.2404 3.6396 -2.3903 0.9785
2.5422 4.1575 -2.3904 0.9785
0.4972 4.8467 -2.3899 0.9785
-0.3718 4.8570 -2.3895 0.9785
-0.8034 4.8040 -2.3892 0.9785
-1.2286 4.7126 -2.3889 0.9785
-2.4312 4.2173 -2.3878 0.9785
-2.9182 4.1551 -2.4906 0.9776
-3.2766 3.8776 -2.4902 0.9776
-3.6088 3.5693 -2.4898 0.9776
-4.1840 2.8703 -2.4889 0.9776
-4.6257 2.0804 -2.4880 0.9777
-4.7920 1.6592 -2.4875 0.9777
-4.9200 1.2249 -2.4871 0.9777
-5.0577 0.3312 -2.4862 0.9777
-5.0663 -0.1212 -2.4859 0.9777
-4.9627 -1.0192 -2.4851 0.9777
-4.8514 -1.4576 -2.4848 0.9777
-4.7015 -1.8843 -2.4846 0.9777
-4.5143 -2.2959 -2.4843 0.9777
-4.2912 -2.6892 -2.4841 0.9777
-4.0339 -3.0610 -2.4839 0.9777
-3.0792 -4.0192 -2.4836 0.9777
-2.7084 -4.2778 -2.4836 0.9777
-1.4793 -4.8425 -2.4837 0.9777
-0.1445 -5.0625 -2.4843 0.9777
1.2013 -4.9217 -2.4851 0.9777
1.6357 -4.7956 -2.4854 0.9777
2.4625 -4.4300 -2.4862 0.9777
2.8483 -4.1934 -2.4866 0.9777
3.2114 -3.9233 -2.4870 0.9777
3.5492 -3.6218 -2.4874 0.9777
4.1377 -2.9346 -2.4883 0.9777
4.3838 -2.5543 -2.4888 0.9776
4.7696 -1.7354 -2.4897 0.9776
5.0038 -0.8607 -2.4905 0.9776
4.6859 1.3284 -2.3891 0.9785
4.3763 2.1403 -2.3897 0.9785
3.6543 3.2232 -2.3902 0.9785
3.3525 3.5365 -2.3903 0.9785
2.2966 4.2980 -2.3904 0.9785
1.9040 4.4857 -2.3903 0.9785
1.0766 4.7522 -2.3901 0.9785
0.6485 4.8289 -2.3900 0.9785
-1.0807 4.7488 -2.3890 0.9785
-1.4998 4.6329 -2.3887 0.9785
-1.9068 4.4800 -2.3883 0.9785
-2.6886 4.0946 -2.4028 0.9784
-3.1540 3.9783 -2.4903 0.9776
-3.8094 3.3534 -2.4895 0.9776
-4.5587 2.2241 -2.4881 0.9777
-4.8797 1.3782 -2.4872 0.9777
-4.9823 0.9373 -2.4868 0.9777
-5.0452 0.4891 -2.4864 0.9777
-5.0679 0.0371 -2.4860 0.9777
-5.0502 -0.4150 -2.4856 0.9777
-4.9924 -0.8637 -2.4853 0.9777
-4.8948 -1.3054 -2.4849 0.9777
-4.7583 -1.7365 -2.4846 0.9777
-4.1277 -2.9335 -2.4840 0.9777
-3.5404 -3.6198 -2.4837 0.9777
-3.2033 -3.9211 -2.4836 0.9777
-2.8408 -4.1911 -2.4836 0.9777
-2.4556 -4.4278 -2.4836 0.9777
-2.0509 -4.6292 -2.4836 0.9777
-1.6299 -4.7939 -2.4837 0.9777
-1.1959 -4.9204 -2.4838 0.9777
0.6005 -5.0296 -2.4847 0.9777
1.0468 -4.9566 -2.4850 0.9777
3.0871 -4.0215 -2.4868 0.9777
3.7539 -3.4101 -2.4877 0.9777
4.3016 -2.6899 -2.4886 0.9777
4.5252 -2.2959 -2.4891 0.9776
4.7128 -1.8835 -2.4895 0.9776
4.8628 -1.4559 -2.4899 0.9776
4.9742 -1.0165 -2.4904 0.9776
5.0459 -0.5689 -2.4908 0.9776
5.0773 -0.1166 -2.4912 0.9776
4.9912 0.3317 -2.4537 0.9780
4.2450 2.3908 -2.3898 0.9785
3.1416 3.7252 -2.3904 0.9785
2.7969 3.9906 -2.3904 0.9785
0.7990 4.8064 -2.3900 0.9785
-0.9319 4.7805 -2.3891 0.9785
-1.3544 4.6777 -2.3888 0.9785
-1.7660 4.5376 -2.3885 0.9785
-3.0284 4.0752 -2.4905 0.9776
-3.7030 3.4711 -2.4896 0.9776
-3.9971 3.1264 -2.4892 0.9776
-4.6796 1.9555 -2.4878 0.9777
-4.8345 1.5301 -2.4874 0.9777
-4.9509 1.0926 -2.4869 0.9777
-5.0277 0.6465 -2.4865 0.9777
-5.0645 0.1954 -2.4861 0.9777
-4.9334 -1.1518 -2.4851 0.9777
-4.6492 -2.0096 -2.4845 0.9777
-4.2174 -2.8032 -2.4840 0.9777
-3.9503 -3.1680 -2.4839 0.9777
-3.6518 -3.5075 -2.4837 0.9777
-2.9703 -4.1003 -2.4836 0.9777
-2.5928 -4.3489 -2.4836 0.9777
-0.9083 -4.9817 -2.4839 0.9777
-0.4604 -5.0432 -2.4841 0.9777
-0.0088 -5.0646 -2.4843 0.9777
0.4430 -5.0457 -2.4846 0.9777
1.3328 -4.8879 -2.4852 0.9777
1.7638 -4.7502 -2.4855 0.9777
2.5804 -4.3626 -2.4863 0.9777
2.9598 -4.1157 -2.4867 0.9777
3.3157 -3.8360 -2.4871 0.9777
3.6453 -3.5255 -2.4875 0.9777
4.8147 -1.6070 -2.4898 0.9776
4.9397 -1.1713 -2.4902 0.9776
5.0253 -0.7262 -2.4907 0.9776
5.0709 -0.2751 -2.4911 0.9776
5.0760 0.1783 -2.4914 0.9776
4.6488 1.4536 -2.3892 0.9785
4.0993 2.6332 -2.3899 0.9785
3.8484 2.9886 -2.3901 0.9785
3.2564 3.6252 -2.3903 0.9785
2.9202 3.9013 -2.3904 0.9785
1.7831 4.5351 -2.3903 0.9785
0.9488 4.7793 -2.3901 0.9785
-0.7821 4.8075 -2.3892 0.9785
-1.2076 4.7180 -2.3889 0.9785
-2.4126 4.2281 -2.3879 0.9785
-3.5929 3.5853 -2.4898 0.9776
-3.8977 3.2499 -2.4893 0.9776
-4.4115 2.5048 -2.4884 0.9777
-4.6165 2.1009 -2.4880 0.9777
-4.9146 1.2468 -2.4871 0.9777
-5.0054 0.8033 -2.4867 0.9777
-5.0562 0.3536 -2.4863 0.9777
-4.8579 -1.4361 -2.4849 0.9777
-4.7099 -1.8635 -2.4846 0.9777
-3.7597 -3.3918 -2.4838 0.9777
-3.4420 -3.7134 -2.4837 0.9777
-3.0970 -4.0055 -2.4836 0.9777
-1.9261 -4.6826 -2.4836 0.9777
-1.5008 -4.8359 -2.4837 0.9777
-0.6177 -5.0262 -2.4840 0.9777
-4.0727 2.5347 -2.4886 0.9786
-4.4568 1.7702 -2.4878 0.9786
-4.5961 1.3654 -2.4874 0.9786
-4.7804 -0.3279 -2.4858 0.9786
-4.7315 -0.7529 -2.4855 0.9786
-4.5213 -1.5812 -2.4849 0.9786
-4.1677 -2.3590 -2.4844 0.9787
-3.9404 -2.7211 -2.4842 0.9787
-3.6817 -3.0615 -2.4841 0.9787
-3.3938 -3.3776 -2.4840 0.9787
-3.0789 -3.6667 -2.4839 0.9787
-2.7396 -3.9266 -2.4839 0.9787
-2.3784 -4.1553 -2.4838 0.9787
-1.6023 -4.5120 -2.4840 0.9787
0.5036 -4.7633 -2.4848 0.9786
0.9265 -4.6999 -2.4851 0.9786
1.3422 -4.5991 -2.4854 0.9786
2.1386 -4.2886 -2.4861 0.9786
3.1992 -3.5711 -2.4873 0.9786
3.5055 -3.2720 -2.4877 0.9786
3.7840 -2.9468 -2.4881 0.9786
4.2488 -2.2283 -2.4890 0.9786
4.5787 -1.4384 -2.4898 0.9786
4.7985 -0.1750 -2.4910 0.9786
4.7957 0.2537 -2.4914 0.9786
4.5576 0.6523 -2.3885 0.9795
4.4818 1.0564 -2.3888 0.9795
4.3702 1.4521 -2.3891 0.9795
4.0435 2.2059 -2.3895 0.9795
3.8309 2.5580 -2.3897 0.9795
3.3158 3.1983 -2.3900 0.9795
3.0174 3.4815 -2.3901 0.9795
1.9881 4.1561 -2.3901 0.9795
0.8167 4.5336 -2.3898 0.9795
0.4090 4.5881 -2.3896 0.9795
-0.0018 4.6059 -2.3894 0.9795
-0.4126 4.5869 -2.3892 0.9795
-1.2207 4.4396 -2.3887 0.9795
-1.6116 4.3125 -2.3883 0.9795
-2.3516 3.9563 -2.3877 0.9795
-2.8111 3.8914 -2.4905 0.9786
-3.4566 3.3290 -2.4896 0.9786
-3.7392 3.0069 -2.4892 0.9786
-3.9918 2.6609 -2.4888 0.9786
-4.3996 1.9087 -2.4879 0.9786
-4.5515 1.5084 -2.4875 0.9786
-4.6671 1.0962 -2.4871 0.9786
-4.7886 -0.1784 -2.4860 0.9786
-4.6795 -1.0261 -2.4853 0.9786
-4.5687 -1.4393 -2.4850 0.9786
-4.0236 -2.5967 -2.4843 0.9787
-3.7757 -2.9451 -2.4841 0.9787
-3.4978 -3.2699 -2.4840 0.9787
-2.8609 -3.8392 -2.4839 0.9787
-0.4997 -4.7626 -2.4843 0.9787
0.3545 -4.7765 -2.4848 0.9786
0.7792 -4.7263 -2.4850 0.9786
1.6070 -4.5138 -2.4856 0.9786
2.0035 -4.3531 -2.4860 0.9786
3.0858 -3.6691 -2.4871 0.9786
3.4013 -3.3797 -2.4875 0.9786
4.1769 -2.3599 -2.4888 0.9786
4.3715 -1.9782 -2.4892 0.9786
4.5313 -1.5807 -2.4897 0.9786
4.6550 -1.1705 -2.4901 0.9786
4.7904 -0.3248 -2.4909 0.9786
4.8010 0.1038 -2.4912 0.9786
4.6275 0.5154 -2.4155 0.9792
4.4133 1.3148 -2.3890 0.9795
4.2789 1.7034 -2.3892 0.9795
3.9089 2.4370 -2.3897 0.9795
3.4141 3.0931 -2.3900 0.9795
3.1247 3.3854 -2.3901 0.9795
2.1170 4.0920 -2.3901 0.9795
1.7435 4.2645 -2.3901 0.9795
1.3562 4.4028 -2.3900 0.9795
0.9580 4.5060 -2.3899 0.9795
0.5522 4.5732 -2.3897 0.9795
-1.0815 4.4758 -2.3888 0.9795
-1.4762 4.3609 -2.3885 0.9795
-1.8590 4.2113 -2.3881 0.9795
-2.6882 3.9776 -2.4906 0.9786
-3.0319 3.7214 -2.4902 0.9786
-3.6436 3.1224 -2.4894 0.9786
-3.9069 2.7845 -2.4889 0.9786
-4.1390 2.4245 -2.4885 0.9786
-4.5024 1.6500 -2.4877 0.9786
-4.6308 1.2416 -2.4872 0.9786
-4.7224 0.8235 -2.4868 0.9786
-4.7763 0.3989 -2.4865 0.9786
-4.7921 -0.0287 -2.4861 0.9786
-4.6117 -1.2959 -2.4851 0.9786
-4.3072 -2.0942 -2.4846 0.9786
-4.1029 -2.4698 -2.4844 0.9787
-3.3020 -3.4673 -2.4839 0.9787
-2.2662 -4.2176 -2.4839 0.9787
-1.8810 -4.4030 -2.4839 0.9787
-1.4808 -4.5534 -2.4840 0.9787
-1.0688 -4.6675 -2.4841 0.9787
-0.2225 -4.7838 -2.4844 0.9787
0.6311 -4.7482 -2.4849 0.9786
2.2529 -4.2299 -2.4862 0.9786
2.9695 -3.7635 -2.4870 0.9786
3.2939 -3.4842 -2.4874 0.9786
4.4794 -1.7214 -2.4895 0.9786
4.7156 -0.8984 -2.4903 0.9786
4.8017 -0.0463 -2.4911 0.9786
4.4521 1.1762 -2.3889 0.9795
4.1731 1.9490 -2.3894 0.9795
3.9830 2.3136 -2.3896 0.9795
3.7610 2.6598 -2.3898 0.9795
2.5938 3.8077 -2.3901 0.9795
1.8759 4.2079 -2.3901 0.9795
1.0984 4.4739 -2.3899 0.9795
0.2859 4.5973 -2.3896 0.9795
-0.5354 4.5741 -2.3891 0.9795
-1.3392 4.4051 -2.3886 0.9795
-2.5301 4.0080 -2.4589 0.9789
-2.9143 3.8145 -2.4903 0.9786
-3.2424 3.5388 -2.4899 0.9786
-3.5445 3.2349 -2.4895 0.9786
-4.4489 1.7899 -2.4878 0.9786
-4.7617 0.5480 -2.4866 0.9786
-4.7909 0.1211 -2.4862 0.9786
-4.7819 -0.3067 -2.4858 0.9786
-4.5284 -1.5612 -2.4849 0.9786
-3.4088 -3.3625 -2.4840 0.9787
-2.3968 -4.1447 -2.4838 0.9787
-1.6223 -4.5049 -2.4839 0.9787
-1.2141 -4.6318 -2.4841 0.9787
-0.3719 -4.7745 -2.4844 0.9787
0.4824 -4.7654 -2.4848 0.9786
1.3218 -4.6049 -2.4854 0.9786
1.7275 -4.4693 -2.4857 0.9786
2.1195 -4.2980 -2.4861 0.9786
2.4948 -4.0924 -2.4865 0.9786
2.8503 -3.8542 -2.4869 0.9786
3.1833 -3.5852 -2.4873 0.9786
3.4909 -3.2875 -2.4877 0.9786
4.2389 -2.2471 -2.4889 0.9786
4.5723 -1.4587 -2.4898 0.9786
4.7976 -0.1963 -2.4910 0.9786
4.5604 0.6321 -2.3885 0.9795
4.4864 1.0365 -2.3888 0.9795
4.3766 1.4327 -2.3891 0.9795
4.2318 1.8176 -2.3893 0.9795
3.6005 2.8737 -2.3899 0.9795
3.3300 3.1836 -2.3900 0.9795
2.7115 3.7248 -2.3901 0.9795
2.3685 3.9518 -2.3901 0.9795
0.4294 4.5862 -2.3897 0.9795
-0.3922 4.5887 -2.3892 0.9795
-0.7998 4.5350 -2.3890 0.9795
-1.2010 4.4450 -2.3887 0.9795
-1.9712 4.1598 -2.3880 0.9795
-2.3340 3.9668 -2.3877 0.9795
-2.7938 3.9039 -2.4905 0.9786
-3.4419 3.3443 -2.4897 0.9786
-3.7258 3.0235 -2.4892 0.9786
-4.2023 2.3126 -2.4884 0.9786
-4.3911 1.9282 -2.4880 0.9786
-4.7425 0.6965 -2.4867 0.9786
-4.7850 0.2707 -2.4863 0.9786
-4.7556 -0.5836 -2.4856 0.9786
-4.6840 -1.0054 -2.4853 0.9786
-4.4298 -1.8212 -2.4847 0.9786
-4.2493 -2.2089 -2.4845 0.9787
-4.0351 -2.5788 -2.4843 0.9787
-3.5122 -3.2544 -2.4840 0.9787
-3.2079 -3.5545 -2.4839 0.9787
-2.8780 -3.8264 -2.4839 0.9787
-2.5252 -4.0678 -2.4838 0.9787
-1.7623 -4.4519 -2.4839 0.9787
-1.3582 -4.5915 -2.4840 0.9787
-0.9433 -4.6946 -2.4841 0.9787
0.3333 -4.7780 -2.4847 0.9786
0.7582 -4.7297 -2.4850 0.9786
1.1772 -4.6438 -2.4853 0.9786
1.5869 -4.5209 -2.4856 0.9786
2.3656 -4.1681 -2.4863 0.9786
3.0695 -3.6827 -2.4871 0.9786
3.3863 -3.3948 -2.4875 0.9786
3.6762 -3.0797 -2.4879 0.9786
3.9369 -2.7400 -2.4884 0.9786
4.5242 -1.6008 -2.4896 0.9786
4.6497 -1.1911 -2.4901 0.9786
4.7382 -0.7717 -2.4905 0.9786
4.7889 -0.3461 -2.4909 0.9786
3.9196 2.4196 -2.3897 0.9795
3.1397 3.3715 -2.3900 0.9795
2.8265 3.6382 -2.3901 0.9795
2.4908 3.8759 -2.3901 0.9795
2.1351 4.0826 -2.3901 0.9795
1.7624 4.2567 -2.3901 0.9795
0.1626 4.6032 -2.3895 0.9795
-1.0616 4.4805 -2.3888 0.9795
-1.4568 4.3675 -2.3885 0.9795
-1.8403 4.2195 -2.3881 0.9795
-2.2090 4.0380 -2.3878 0.9795
-4.1282 2.4429 -2.4885 0.9786
-4.3289 2.0646 -2.4881 0.9786
-4.4951 1.6699 -2.4877 0.9786
-4.6253 1.2621 -2.4873 0.9786
-4.7187 0.8444 -2.4869 0.9786
-4.7922 -0.0074 -2.4861 0.9786
-4.7717 -0.4348 -2.4857 0.9786
-4.4847 -1.6820 -2.4848 0.9786
-4.1138 -2.4516 -2.4844 0.9787
-3.3174 -3.4526 -2.4839 0.9787
-2.9961 -3.7346 -2.4839 0.9787
-2.6510 -3.9870 -2.4838 0.9787
-2.2848 -4.2075 -2.4839 0.9787
-1.9005 -4.3946 -2.4839 0.9787
-1.5010 -4.5468 -2.4840 0.9787
-1.0895 -4.6627 -2.4841 0.9787
-0.6693 -4.7416 -2.4842 0.9787
-0.2437 -4.7828 -2.4844 0.9787
0.6100 -4.7509 -2.4849 0.9786
1.0315 -4.6781 -2.4852 0.9786
1.4448 -4.5680 -2.4855 0.9786
1.8467 -4.4215 -2.4858 0.9786
2.6037 -4.0243 -2.4866 0.9786
3.5780 -3.1929 -2.4878 0.9786
3.8492 -2.8615 -2.4882 0.9786
4.2978 -2.1328 -2.4891 0.9786
4.4717 -1.7412 -2.4895 0.9786
4.7755 -0.4955 -2.4907 0.9786
4.7890 0.3610 -2.4915 0.9786
3.9932 2.2959 -2.3896 0.9795
3.5222 2.9693 -2.3899 0.9795
2.9388 3.5481 -2.3901 0.9795
2.6107 3.7962 -2.3901 0.9795
2.2617 4.0139 -2.3901 0.9795
1.8946 4.1996 -2.3901 0.9795
1.1182 4.4690 -2.3899 0.9795
0.3063 4.5960 -2.3896 0.9795
-0.5151 4.5764 -2.3891 0.9795
-1.3197 4.4111 -2.3886 0.9795
-1.7077 4.2752 -2.3883 0.9795
-2.8973 3.8274 -2.4904 0.9786
-3.2267 3.5532 -2.4899 0.9786
-3.8054 2.9223 -2.4891 0.9786
-4.0501 2.5708 -2.4887 0.9786
-4.4410 1.8097 -2.4878 0.9786
-4.6903 0.9915 -2.4870 0.9786
-4.7593 0.5691 -2.4866 0.9786
-4.7903 0.1423 -2.4862 0.9786
-4.7833 -0.2855 -2.4859 0.9786
-4.7380 -0.7109 -2.4855 0.9786
-4.6552 -1.1305 -2.4852 0.9786
-4.3793 -1.9392 -2.4847 0.9786
-4.1885 -2.3219 -2.4845 0.9787
-3.9644 -2.6860 -2.4843 0.9787
-2.4152 -4.1341 -2.4838 0.9787
-0.3931 -4.7727 -2.4844 0.9787
0.0342 -4.7892 -2.4846 0.9786
1.3013 -4.6107 -2.4854 0.9786
3.1673 -3.5992 -2.4872 0.9786
4.0092 -2.6336 -2.4885 0.9786
4.2288 -2.2659 -2.4889 0.9786
4.4149 -1.8800 -2.4894 0.9786
4.7977 0.2112 -2.4913 0.9786
4.3829 1.4132 -2.3890 0.9795
4.2398 1.7988 -2.3893 0.9795
4.0629 2.1699 -2.3895 0.9795
3.8534 2.5239 -2.3897 0.9795
3.0482 3.4546 -2.3901 0.9795
2.3860 3.9413 -2.3901 0.9795
1.2573 4.4320 -2.3900 0.9795
0.8569 4.5262 -2.3898 0.9795
0.4498 4.5843 -2.3897 0.9795
0.0391 4.6057 -2.3895 0.9795
-0.7797 4.5385 -2.3890 0.9795
-1.1813 4.4503 -2.3887 0.9795
-2.7765 3.9163 -2.4905 0.9786
-3.7124 3.0400 -2.4893 0.9786
-3.9681 2.6963 -2.4888 0.9786
-4.3825 1.9477 -2.4880 0.9786
-4.5380 1.5487 -2.4876 0.9786
-4.6573 1.1376 -2.4871 0.9786
-4.7394 0.7176 -2.4867 0.9786
-4.7838 0.2919 -2.4864 0.9786
-4.6884 -0.9846 -2.4853 0.9786
-4.4379 -1.8015 -2.4848 0.9786
-3.8017 -2.9115 -2.4842 0.9787
-3.5267 -3.2387 -2.4840 0.9787
-2.8949 -3.8136 -2.4839 0.9787
-2.1712 -4.2673 -2.4839 0.9787
-1.7820 -4.4440 -2.4839 0.9787
-0.1154 -4.7878 -2.4845 0.9787
0.3121 -4.7794 -2.4847 0.9786
1.1566 -4.6489 -2.4853 0.9786
1.5668 -4.5278 -2.4856 0.9786
1.9647 -4.3706 -2.4859 0.9786
2.7108 -3.9532 -2.4867 0.9786
3.3712 -3.4097 -2.4875 0.9786
3.9247 -2.7574 -2.4883 0.9786
4.1557 -2.3968 -2.4888 0.9786
4.6444 -1.2117 -2.4900 0.9786
4.7347 -0.7928 -2.4904 0.9786
4.8017 0.0612 -2.4912 0.9786
3.7006 2.7434 -2.3898 0.9795
3.4414 3.0627 -2.3899 0.9795
3.1546 3.3576 -2.3900 0.9795
2.8427 3.6257 -2.3901 0.9795
2.5080 3.8648 -2.3901 0.9795
1.7813 4.2488 -2.3901 0.9795
1.3952 4.3906 -2.3900 0.9795
0.5928 4.5681 -2.3897 0.9795
-0.2283 4.6000 -2.3893 0.9795
-0.6376 4.5608 -2.3891 0.9795
-1.0417 4.4853 -2.3888 0.9795
-2.9988 3.7482 -2.4902 0.9786
-3.3206 3.4652 -2.4898 0.9786
-3.6158 3.1547 -2.4894 0.9786
-4.1174 2.4612 -2.4885 0.9786
-4.7171 -0.8376 -2.4854 0.9786
-4.4922 -1.6621 -2.4849 0.9786
-3.8909 -2.7913 -2.4842 0.9787
-3.3327 -3.4379 -2.4840 0.9787
-3.0127 -3.7213 -2.4839 0.9787
-2.6687 -3.9751 -2.4838 0.9787
-2.3035 -4.1974 -2.4838 0.9787
-1.9200 -4.3862 -2.4839 0.9787
-0.2650 -4.7817 -2.4844 0.9787
1.8271 -4.4297 -2.4858 0.9786
2.5858 -4.0358 -2.4866 0.9786
2.9360 -3.7896 -2.4870 0.9786
3.8364 -2.8786 -2.4882 0.9786
4.0786 -2.5253 -2.4886 0.9786
4.2883 -2.1519 -2.4891 0.9786
4.7732 -0.5167 -2.4907 0.9786
4.8010 -0.0889 -2.4911 0.9786
4.7904 0.3397 -2.4914 0.9786
4.5453 0.7340 -2.3885 0.9795
4.4623 1.1367 -2.3888 0.9795
4.3436 1.5303 -2.3891 0.9795
4.0033 2.2782 -2.3896 0.9795
3.7845 2.6263 -2.3898 0.9795
3.5353 2.9536 -2.3899 0.9795
3.2579 3.2573 -2.3900 0.9795
2.9545 3.5350 -2.3901 0.9795
2.6275 3.7846 -2.3901 0.9795
2.2795 4.0038 -2.3901 0.9795
1.1380 4.4640 -2.3899 0.9795
0.7353 4.5475 -2.3898 0.9795
0.3267 4.5946 -2.3896 0.9795
-0.9011 4.5158 -2.3889 0.9795
-2.0637 4.1145 -2.3879 0.9795
-2.4617 3.9775 -2.4267 0.9791
-2.8804 3.8403 -2.4904 0.9786
-3.2109 3.5675 -2.4900 0.9786
-3.5157 3.2663 -2.4895 0.9786
-4.2528 2.2179 -2.4883 0.9786
-4.5777 1.4265 -2.4874 0.9786
-4.6859 1.0123 -2.4870 0.9786
-4.7567 0.5902 -2.4866 0.9786
-4.7897 0.1636 -2.4862 0.9786
-4.7845 -0.2643 -2.4859 0.9786
-4.7412 -0.6899 -2.4855 0.9786
-4.6602 -1.1099 -2.4852 0.9786
-4.5421 -1.5209 -2.4849 0.9786
-4.1988 -2.3033 -2.4845 0.9787
-3.9763 -2.6684 -2.4843 0.9787
-3.4385 -3.3321 -2.4840 0.9787
-3.1275 -3.6254 -2.4839 0.9787
-1.2552 -4.6208 -2.4840 0.9787
-0.8380 -4.7146 -2.4842 0.9787
-0.4142 -4.7709 -2.4844 0.9787
0.8639 -4.7117 -2.4851 0.9786
1.2809 -4.6164 -2.4854 0.9786
2.8160 -3.8793 -2.4868 0.9786
3.1513 -3.6132 -2.4872 0.9786
3.7444 -2.9969 -2.4881 0.9786
3.9974 -2.6514 -2.4885 0.9786
4.2187 -2.2846 -2.4889 0.9786
4.7545 -0.6655 -2.4906 0.9786
4.7956 -0.2389 -2.4909 0.9786
4.5658 0.5916 -2.3884 0.9795
4.4954 0.9966 -2.3887 0.9795
4.3891 1.3938 -2.3890 0.9795
4.2478 1.7799 -2.3893 0.9795
4.0724 2.1519 -2.3895 0.9795
3.6258 2.8417 -2.3899 0.9795
3.3581 3.1539 -2.3900 0.9795
2.4035 3.9306 -2.3901 0.9795
1.6667 4.2950 -2.3901 0.9795
1.2770 4.4264 -2.3900 0.9795
0.0595 4.6056 -2.3895 0.9795
-0.7596 4.5420 -2.3890 0.9795
-1.1615 4.4555 -2.3887 0.9795
-1.5541 4.3336 -2.3884 0.9795
-1.9342 4.1771 -2.3881 0.9795
-3.0980 3.6663 -2.4901 0.9786
-3.4121 3.3748 -2.4897 0.9786
-3.6989 3.0564 -2.4893 0.9786
-3.9561 2.7139 -2.4888 0.9786
-4.3739 1.9671 -2.4880 0.9786
-4.7362 0.7386 -2.4868 0.9786
-4.7825 0.3132 -2.4864 0.9786
-4.7906 -0.1146 -2.4860 0.9786
-4.6928 -0.9638 -2.4853 0.9786
-4.4459 -1.7818 -2.4848 0.9786
-4.0578 -2.5429 -2.4843 0.9787
-3.5410 -3.2231 -2.4840 0.9787
-2.9118 -3.8007 -2.4839 0.9787
-2.5612 -4.0453 -2.4838 0.9787
-2.1902 -4.2576 -2.4839 0.9787
-0.9849 -4.6860 -2.4841 0.9787
0.2909 -4.7807 -2.4847 0.9786
0.7162 -4.7362 -2.4850 0.9786
1.5467 -4.5347 -2.4856 0.9786
1.9453 -4.3793 -2.4859 0.9786
2.6932 -3.9651 -2.4867 0.9786
3.0367 -3.7097 -2.4871 0.9786
3.3560 -3.4246 -2.4875 0.9786
3.6487 -3.1122 -2.4879 0.9786
4.3447 -2.0362 -2.4892 0.9786
4.7856 -0.3886 -2.4908 0.9786
4.8018 0.0398 -2.4912 0.9786
4.4304 1.2559 -2.3889 0.9795
4.3011 1.6462 -2.3892 0.9795
4.1376 2.0235 -2.3894 0.9795
3.9409 2.3847 -2.3896 0.9795
3.7128 2.7269 -2.3898 0.9795
3.4549 3.0474 -2.3899 0.9795
3.1695 3.3435 -2.3900 0.9795
2.5251 3.8537 -2.3901 0.9795
1.8002 4.2409 -2.3901 0.9795
1.4147 4.3844 -2.3900 0.9795
0.6131 4.5654 -2.3897 0.9795
-0.2078 4.6010 -2.3893 0.9795
-0.6173 4.5637 -2.3891 0.9795
-1.8028 4.2357 -2.3882 0.9795
-2.1731 4.0575 -2.3878 0.9795
-2.9821 3.7615 -2.4902 0.9786
-3.3052 3.4799 -2.4898 0.9786
-3.6018 3.1707 -2.4894 0.9786
-4.1064 2.4795 -2.4886 0.9786
-4.4802 1.7098 -2.4877 0.9786
-4.6140 1.3031 -2.4873 0.9786
-4.7111 0.8863 -2.4869 0.9786
-4.7921 0.0351 -2.4861 0.9786
-4.7208 -0.8167 -2.4854 0.9786
-4.1354 -2.4150 -2.4844 0.9787
-3.9033 -2.7740 -2.4842 0.9787
-3.6400 -3.1109 -2.4841 0.9787
-3.3479 -3.4231 -2.4840 0.9787
-3.0292 -3.7079 -2.4839 0.9787
-2.3221 -4.1871 -2.4838 0.9787
-1.5413 -4.5333 -2.4840 0.9787
-0.7114 -4.7355 -2.4842 0.9787
-0.2862 -4.7804 -2.4844 0.9787
0.5679 -4.7561 -2.4849 0.9786
0.9899 -4.6870 -2.4852 0.9786
1.4042 -4.5806 -2.4855 0.9786
2.1963 -4.2594 -2.4862 0.9786
2.5679 -4.0471 -2.4865 0.9786
3.8236 -2.8955 -2.4882 0.9786
4.2787 -2.1708 -2.4890 0.9786
4.4560 -1.7808 -2.4895 0.9786
4.7031 -0.9611 -2.4903 0.9786
4.7708 -0.5379 -2.4907 0.9786
4.8005 -0.1102 -2.4911 0.9786
4.7919 0.3185 -2.4914 0.9786
4.5485 0.7138 -2.3885 0.9795
4.4672 1.1169 -2.3888 0.9795
4.3503 1.5110 -2.3891 0.9795
4.0134 2.2604 -2.3896 0.9795
3.7961 2.6095 -2.3897 0.9795
3.5484 2.9379 -2.3899 0.9795
3.2723 3.2429 -2.3900 0.9795
2.9702 3.5219 -2.3901 0.9795
2.6443 3.7728 -2.3901 0.9795
2.2972 3.9937 -2.3901 0.9795
0.3471 4.5931 -2.3896 0.9795
-0.0640 4.6054 -2.3894 0.9795
-2.0454 4.1236 -2.3880 0.9795
-3.1951 3.5817 -2.4900 0.9786
-3.7793 2.9560 -2.4891 0.9786
-4.0272 2.6067 -2.4887 0.9786
-4.2430 2.2367 -2.4883 0.9786
-4.6814 1.0331 -2.4870 0.9786
-4.6651 -1.0892 -2.4852 0.9786
-4.5489 -1.5007 -2.4850 0.9786
-4.3964 -1.9003 -2.4847 0.9786
-4.2090 -2.2847 -2.4845 0.9787
-3.9881 -2.6508 -2.4843 0.9787
-3.7355 -2.9957 -2.4841 0.9787
-3.1435 -3.6115 -2.4839 0.9787
-2.8088 -3.8774 -2.4839 0.9787
-2.0752 -4.3148 -2.4839 0.9787
-1.6821 -4.4828 -2.4839 0.9787
-1.2757 -4.6152 -2.4840 0.9787
-0.4354 -4.7690 -2.4843 0.9787
1.2604 -4.6221 -2.4854 0.9786
1.6678 -4.4918 -2.4857 0.9786
2.0621 -4.3257 -2.4860 0.9786
3.4468 -3.3336 -2.4876 0.9786
4.3979 -1.9191 -2.4893 0.9786
4.5523 -1.5194 -2.4897 0.9786
4.7945 -0.2602 -2.4909 0.9786
4.7993 0.1686 -2.4913 0.9786
4.5683 0.5713 -2.3884 0.9795
4.4998 0.9767 -2.3887 0.9795
4.3952 1.3743 -2.3890 0.9795
4.2556 1.7610 -2.3893 0.9795
4.0819 2.1338 -2.3895 0.9795
3.6384 2.8255 -2.3898 0.9795
3.0787 3.4273 -2.3901 0.9795
1.6858 4.2876 -2.3901 0.9795
0.8971 4.5185 -2.3898 0.9795
0.4904 4.5801 -2.3897 0.9795
0.0800 4.6053 -2.3895 0.9795
-0.3311 4.5936 -2.3893 0.9795
-2.7417 3.9408 -2.4905 0.9786
-3.0818 3.6800 -2.4901 0.9786
-3.3971 3.3899 -2.4897 0.9786
-3.6853 3.0729 -2.4893 0.9786
-3.9441 2.7315 -2.4889 0.9786
-4.1713 2.3684 -2.4884 0.9786
-4.3651 1.9865 -2.4880 0.9786
-4.5242 1.5890 -2.4876 0.9786
-4.6471 1.1789 -2.4872 0.9786
-4.7811 0.3343 -2.4864 0.9786
-4.5937 -1.3579 -2.4851 0.9786
-4.2784 -2.1521 -2.4845 0.9786
-4.0691 -2.5249 -2.4843 0.9787
-3.5553 -3.2073 -2.4840 0.9787
-2.9286 -3.7878 -2.4839 0.9787
-2.5791 -4.0339 -2.4838 0.9787
-2.2090 -4.2479 -2.4839 0.9787
-1.4192 -4.5730 -2.4840 0.9787
-1.0057 -4.6816 -2.4841 0.9787
-0.5841 -4.7529 -2.4843 0.9787
-3.8577 2.4009 -2.4886 0.9795
-4.0557 2.0469 -2.4882 0.9795
-4.3535 1.2933 -2.4874 0.9795
-4.4509 0.8997 -2.4870 0.9795
-4.5127 0.4990 -2.4867 0.9795
-4.4820 -0.7132 -2.4857 0.9795
-4.1319 -1.8737 -2.4849 0.9795
-3.4877 -2.9001 -2.4843 0.9795
-3.2149 -3.1995 -2.4842 0.9795
-2.9166 -3.4734 -2.4841 0.9795
-1.8930 -4.1216 -2.4841 0.9795
-1.5179 -4.2741 -2.4842 0.9795
-0.7344 -4.4763 -2.4844 0.9795
0.8777 -4.4520 -2.4853 0.9795
1.6551 -4.2262 -2.4859 0.9795
2.0258 -4.0623 -2.4862 0.9795
2.7161 -3.6388 -2.4870 0.9795
3.3204 -3.0993 -2.4877 0.9795
3.5843 -2.7912 -2.4881 0.9795
4.1974 -1.7436 -2.4894 0.9795
4.5113 -0.5704 -2.4905 0.9795
4.3896 0.6283 -2.4287 0.9800
4.2448 1.0005 -2.3886 0.9803
4.1391 1.3753 -2.3889 0.9803
3.8296 2.0893 -2.3893 0.9803
3.6283 2.4227 -2.3895 0.9803
3.3979 2.7368 -2.3896 0.9803
3.1404 3.0291 -2.3898 0.9803
2.5524 3.5391 -2.3899 0.9803
2.2265 3.7527 -2.3899 0.9803
1.8829 3.9362 -2.3899 0.9803
1.5243 4.0884 -2.3898 0.9803
0.7736 4.2938 -2.3896 0.9803
-0.3908 4.3443 -2.3890 0.9803
-0.7766 4.2917 -2.3888 0.9803
-1.1562 4.2049 -2.3885 0.9803
-1.5264 4.0844 -2.3882 0.9803
-2.3217 3.9062 -2.4888 0.9795
-2.6625 3.6858 -2.4904 0.9795
-2.9802 3.4331 -2.4900 0.9795
-3.2740 3.1531 -2.4896 0.9795
-3.7810 2.5204 -2.4888 0.9795
-3.9900 2.1728 -2.4884 0.9795
-4.1673 1.8079 -2.4880 0.9795
-4.4951 0.6398 -2.4868 0.9795
-4.4327 -0.9720 -2.4855 0.9795
-4.3278 -1.3634 -2.4852 0.9795
-4.1885 -1.7437 -2.4849 0.9795
-3.8114 -2.4598 -2.4845 0.9795
-2.7101 -3.6368 -2.4841 0.9795
-0.4734 -4.5115 -2.4845 0.9795
0.3358 -4.5246 -2.4850 0.9795
0.7381 -4.4771 -2.4852 0.9795
1.1346 -4.3939 -2.4855 0.9795
1.8977 -4.1234 -2.4861 0.9795
2.9230 -3.4754 -2.4872 0.9795
3.4951 -2.9017 -2.4880 0.9795
3.9563 -2.2352 -2.4888 0.9795
4.1406 -1.8737 -2.4892 0.9795
4.2919 -1.4972 -2.4896 0.9795
4.4910 -0.7110 -2.4904 0.9795
4.1799 1.2453 -2.3888 0.9803
4.0526 1.6133 -2.3890 0.9803
3.4817 2.6293 -2.3896 0.9803
3.2335 2.9295 -2.3897 0.9803
2.0050 3.8755 -2.3899 0.9803
1.6513 4.0388 -2.3898 0.9803
1.2844 4.1699 -2.3898 0.9803
0.5230 4.3313 -2.3895 0.9803
0.1346 4.3603 -2.3893 0.9803
-0.2548 4.3546 -2.3891 0.9803
-1.0243 4.2391 -2.3886 0.9803
-2.1092 3.8153 -2.3877 0.9803
-2.8716 3.5247 -2.4901 0.9795
-3.1741 3.2540 -2.4897 0.9795
-3.7006 2.6375 -2.4889 0.9795
-4.1090 1.9373 -2.4881 0.9795
-4.4731 0.7800 -2.4869 0.9795
-4.5243 0.3779 -2.4866 0.9795
-4.5181 -0.4319 -2.4859 0.9795
-4.3685 -1.2275 -2.4853 0.9795
-4.0801 -1.9837 -2.4848 0.9795
-3.8866 -2.3396 -2.4846 0.9795
-3.6621 -2.6768 -2.4844 0.9795
-2.8224 -3.5504 -2.4841 0.9795
-2.4945 -3.7879 -2.4841 0.9795
-1.0125 -4.4215 -2.4843 0.9795
-0.2108 -4.5316 -2.4847 0.9795
0.1943 -4.5328 -2.4849 0.9795
1.3878 -4.3210 -2.4857 0.9795
2.1340 -4.0067 -2.4863 0.9795
2.4833 -3.8010 -2.4867 0.9795
2.8128 -3.5648 -2.4871 0.9795
4.2428 -1.6305 -2.4895 0.9795
4.3720 -1.2458 -2.4899 0.9795
4.5478 -0.0438 -2.4910 0.9795
4.2987 0.7334 -2.3884 0.9803
4.1009 1.4858 -2.3890 0.9803
3.9524 1.8459 -2.3892 0.9803
3.3234 2.8270 -2.3897 0.9803
2.7684 3.3727 -2.3899 0.9803
2.1251 3.8110 -2.3899 0.9803
1.4141 4.1278 -2.3898 0.9803
0.6581 4.3129 -2.3895 0.9803
0.2708 4.3541 -2.3894 0.9803
-0.1186 4.3605 -2.3892 0.9803
-0.5071 4.3322 -2.3889 0.9803
-0.8913 4.2692 -2.3887 0.9803
-1.6353 4.0419 -2.3881 0.9803
-1.9891 3.8794 -2.3878 0.9803
-2.4273 3.8453 -2.4906 0.9795
-2.7603 3.6129 -2.4902 0.9795
-3.0710 3.3518 -2.4899 0.9795
-3.6166 2.7519 -2.4891 0.9795
-3.8470 2.4180 -2.4887 0.9795
-4.0467 2.0649 -2.4882 0.9795
-4.3478 1.3126 -2.4875 0.9795
-4.5104 0.5191 -2.4867 0.9795
-4.5381 0.1147 -2.4863 0.9795
-4.5296 -0.2905 -2.4860 0.9795
-4.4851 -0.6933 -2.4857 0.9795
-4.2896 -1.4788 -2.4851 0.9795
-3.9579 -2.2171 -2.4847 0.9795
-3.5005 -2.8846 -2.4843 0.9795
-2.6117 -3.7081 -2.4841 0.9795
-2.2705 -3.9263 -2.4841 0.9795
-1.1501 -4.3876 -2.4843 0.9795
-0.7542 -4.4729 -2.4844 0.9795
-0.3523 -4.5227 -2.4846 0.9795
0.0525 -4.5364 -2.4848 0.9795
0.4570 -4.5141 -2.4850 0.9795
2.0077 -4.0712 -2.4862 0.9795
2.3632 -3.8765 -2.4866 0.9795
3.3066 -3.1140 -2.4877 0.9795
3.5718 -2.8071 -2.4881 0.9795
3.8086 -2.4777 -2.4885 0.9795
4.0150 -2.1285 -2.4889 0.9795
4.1896 -1.7621 -2.4893 0.9795
4.4374 -0.9900 -2.4901 0.9795
4.5087 -0.5904 -2.4905 0.9795
4.5440 -0.1859 -2.4909 0.9795
4.5431 0.2202 -2.4912 0.9795
4.0080 1.7214 -2.3891 0.9803
3.8388 2.0722 -2.3893 0.9803
3.4100 2.7217 -2.3896 0.9803
2.5681 3.5277 -2.3899 0.9803
2.2431 3.7428 -2.3899 0.9803
1.9004 3.9279 -2.3899 0.9803
-0.3715 4.3461 -2.3890 0.9803
-0.7576 4.2952 -2.3888 0.9803
-1.5083 4.0912 -2.3882 0.9803
-1.8670 3.9399 -2.3879 0.9803
-2.2889 3.8902 -2.4721 0.9796
-2.6462 3.6976 -2.4904 0.9795
-3.2600 3.1676 -2.4896 0.9795
-4.1592 1.8264 -2.4880 0.9795
-4.3049 1.4479 -2.4876 0.9795
-4.4162 1.0580 -2.4872 0.9795
-4.5325 0.2564 -2.4865 0.9795
-4.5367 -0.1489 -2.4861 0.9795
-4.5048 -0.5528 -2.4858 0.9795
-4.4370 -0.9523 -2.4855 0.9795
-4.0253 -2.0924 -2.4847 0.9795
-3.8223 -2.4429 -2.4845 0.9795
-3.5890 -2.7739 -2.4844 0.9795
-2.7262 -3.6247 -2.4841 0.9795
-2.3921 -3.8534 -2.4841 0.9795
-2.0388 -4.0514 -2.4841 0.9795
-1.2866 -4.3495 -2.4843 0.9795
-0.0892 -4.5358 -2.4847 0.9795
0.3157 -4.5260 -2.4849 0.9795
1.1151 -4.3989 -2.4855 0.9795
1.5032 -4.2824 -2.4858 0.9795
2.5844 -3.7332 -2.4868 0.9795
3.2075 -3.2156 -2.4876 0.9795
3.4821 -2.9171 -2.4880 0.9795
4.4878 -0.7309 -2.4904 0.9795
4.5358 -0.3278 -2.4907 0.9795
4.5231 0.4835 -2.4914 0.9795
3.9016 1.9512 -2.3892 0.9803
3.7123 2.2916 -2.3894 0.9803
3.4933 2.6138 -2.3896 0.9803
2.3590 3.6708 -2.3899 0.9803
1.6692 4.0315 -2.3898 0.9803
0.5422 4.3289 -2.3895 0.9803
0.1540 4.3597 -2.3893 0.9803
-0.6230 4.3169 -2.3889 0.9803
-1.7430 3.9965 -2.3880 0.9803
-2.5295 3.7787 -2.4905 0.9795
-2.8560 3.5375 -2.4901 0.9795
-3.1597 3.2681 -2.4897 0.9795
-3.4380 2.9728 -2.4893 0.9795
-3.6889 2.6539 -2.4889 0.9795
-3.9102 2.3139 -2.4885 0.9795
-4.2578 1.5818 -2.4877 0.9795
-4.4697 0.7998 -2.4870 0.9795
-4.5394 -0.0071 -2.4862 0.9795
-4.5200 -0.4119 -2.4859 0.9795
-4.3739 -1.2081 -2.4853 0.9795
-4.2482 -1.5933 -2.4850 0.9795
-3.6740 -2.6605 -2.4844 0.9795
-3.4219 -2.9774 -2.4843 0.9795
-3.1425 -3.2706 -2.4842 0.9795
-2.8382 -3.5378 -2.4841 0.9795
-2.1644 -3.9857 -2.4841 0.9795
-0.6340 -4.4916 -2.4845 0.9795
0.1742 -4.5336 -2.4849 0.9795
0.9771 -4.4314 -2.4854 0.9795
1.7494 -4.1883 -2.4860 0.9795
2.1162 -4.0161 -2.4863 0.9795
2.7970 -3.5773 -2.4871 0.9795
3.1054 -3.3140 -2.4874 0.9795
4.2355 -1.6493 -2.4895 0.9795
4.4625 -0.8707 -2.4902 0.9795
4.5476 -0.0640 -2.4910 0.9795
4.5358 0.3419 -2.4913 0.9795
3.9605 1.8283 -2.3892 0.9803
3.7820 2.1745 -2.3894 0.9803
3.5732 2.5033 -2.3895 0.9803
3.3359 2.8122 -2.3897 0.9803
3.0719 3.0987 -2.3898 0.9803
2.4725 3.5953 -2.3899 0.9803
2.1420 3.8015 -2.3899 0.9803
1.4324 4.1214 -2.3898 0.9803
0.2901 4.3529 -2.3894 0.9803
-0.8724 4.2731 -2.3887 0.9803
-1.2499 4.1778 -2.3884 0.9803
-4.0375 2.0828 -2.4883 0.9795
-4.2065 1.7142 -2.4879 0.9795
-4.3419 1.3319 -2.4875 0.9795
-4.4428 0.9392 -2.4871 0.9795
-4.5081 0.5391 -2.4867 0.9795
-4.5376 0.1348 -2.4864 0.9795
-4.4881 -0.6734 -2.4857 0.9795
-4.4097 -1.0709 -2.4854 0.9795
-4.2961 -1.4598 -2.4851 0.9795
-3.9677 -2.1995 -2.4847 0.9795
-3.7554 -2.5444 -2.4845 0.9795
-3.5133 -2.8691 -2.4843 0.9795
-3.2432 -3.1709 -2.4842 0.9795
-2.2879 -3.9162 -2.4841 0.9795
-1.9295 -4.1046 -2.4841 0.9795
-1.5557 -4.2605 -2.4842 0.9795
-1.1696 -4.3824 -2.4843 0.9795
-0.7740 -4.4696 -2.4844 0.9795
-0.3723 -4.5211 -2.4846 0.9795
0.0324 -4.5366 -2.4848 0.9795
1.2327 -4.3676 -2.4856 0.9795
2.3459 -3.8869 -2.4866 0.9795
3.5593 -2.8229 -2.4881 0.9795
3.7975 -2.4946 -2.4885 0.9795
4.0055 -2.1463 -2.4889 0.9795
4.3245 -1.4009 -2.4897 0.9795
4.4329 -1.0097 -2.4901 0.9795
4.5431 -0.2061 -2.4908 0.9795
4.5440 0.2000 -2.4912 0.9795
4.2535 0.9628 -2.3886 0.9803
4.1511 1.3385 -2.3889 0.9803
4.0156 1.7036 -2.3891 0.9803
3.6496 2.3904 -2.3895 0.9803
3.4221 2.7065 -2.3896 0.9803
3.1672 3.0011 -2.3897 0.9803
2.8870 3.2718 -2.3898 0.9803
2.2597 3.7328 -2.3899 0.9803
1.5605 4.0747 -2.3898 0.9803
0.8116 4.2868 -2.3896 0.9803
0.4260 4.3418 -2.3894 0.9803
-0.3522 4.3477 -2.3890 0.9803
-0.7385 4.2985 -2.3888 0.9803
-1.4902 4.0979 -2.3882 0.9803
-2.2565 3.8743 -2.4557 0.9798
-2.9496 3.4595 -2.4900 0.9795
-3.7585 2.5539 -2.4888 0.9795
-4.1512 1.8448 -2.4880 0.9795
-4.5373 -0.1287 -2.4861 0.9795
-4.5072 -0.5329 -2.4858 0.9795
-4.2039 -1.7065 -2.4850 0.9795
-4.0346 -2.0745 -2.4847 0.9795
-3.0537 -3.3537 -2.4842 0.9795
-2.7423 -3.6126 -2.4841 0.9795
-2.4091 -3.8428 -2.4841 0.9795
-2.0568 -4.0423 -2.4841 0.9795
-0.9133 -4.4431 -2.4844 0.9795
-0.1094 -4.5353 -2.4847 0.9795
0.2956 -4.5274 -2.4849 0.9795
1.0956 -4.4037 -2.4855 0.9795
1.4842 -4.2890 -2.4858 0.9795
1.8611 -4.1401 -2.4861 0.9795
2.2232 -3.9581 -2.4864 0.9795
2.5678 -3.7446 -2.4868 0.9795
2.8920 -3.5012 -2.4872 0.9795
3.1932 -3.2297 -2.4876 0.9795
3.4692 -2.9325 -2.4880 0.9795
4.1237 -1.9104 -2.4892 0.9795
4.3989 -1.1476 -2.4900 0.9795
4.5342 -0.3479 -2.4907 0.9795
4.5479 0.0579 -2.4911 0.9795
4.2813 0.8294 -2.3885 0.9803
3.7224 2.2751 -2.3894 0.9803
3.5049 2.5983 -2.3896 0.9803
2.9877 3.1799 -2.3898 0.9803
2.6922 3.4338 -2.3899 0.9803
2.0393 3.8576 -2.3899 0.9803
0.9452 4.2594 -2.3896 0.9803
0.5614 4.3265 -2.3895 0.9803
0.1733 4.3590 -2.3893 0.9803
-0.2162 4.3567 -2.3891 0.9803
-2.5127 3.7899 -2.4905 0.9795
-2.8403 3.5501 -2.4901 0.9795
-3.6771 2.6702 -2.4890 0.9795
-3.9000 2.3312 -2.4886 0.9795
-4.5208 0.4180 -2.4866 0.9795
-4.5394 0.0131 -2.4862 0.9795
-4.5218 -0.3918 -2.4859 0.9795
-4.4683 -0.7934 -2.4856 0.9795
-4.0975 -1.9475 -2.4848 0.9795
-3.6858 -2.6441 -2.4844 0.9795
-3.4350 -2.9622 -2.4843 0.9795
-3.1570 -3.2566 -2.4842 0.9795
-2.8538 -3.5252 -2.4841 0.9795
-2.5280 -3.7656 -2.4841 0.9795
-2.1821 -3.9761 -2.4841 0.9795
-0.2510 -4.5295 -2.4846 0.9795
0.1540 -4.5343 -2.4849 0.9795
2.0984 -4.0254 -2.4863 0.9795
2.4494 -3.8228 -2.4867 0.9795
2.7810 -3.5896 -2.4870 0.9795
3.0906 -3.3278 -2.4874 0.9795
3.3756 -3.0394 -2.4878 0.9795
3.6339 -2.7266 -2.4882 0.9795
3.8632 -2.3920 -2.4886 0.9795
4.0618 -2.0382 -2.4890 0.9795
4.2281 -1.6680 -2.4894 0.9795
4.5209 -0.4894 -2.4906 0.9795
4.3050 0.6952 -2.3884 0.9803
