ply
format ascii 1.0
element vertex 1596
property float32 x
property float32 y
property float32 z
property float32 I
end_header
-2.7265 -5.7544 -2.4402 0.9731
-2.2021 -5.9746 -2.4402 0.9731
-1.6603 -6.1482 -2.4405 0.9731
-1.1054 -6.2736 -2.4412 0.9731
-0.5413 -6.3500 -2.4423 0.9731
0.5970 -6.3534 -2.4455 0.9730
1.7201 -6.1575 -2.4500 0.9730
2.2653 -5.9861 -2.4528 0.9730
2.7939 -5.7671 -2.4558 0.9729
3.3018 -5.5022 -2.4590 0.9729
3.6988 -5.0746 -2.4064 0.9735
5.1732 -3.4153 -2.3755 0.9738
5.9237 -1.9330 -2.3879 0.9737
6.1943 -0.8521 -2.3961 0.9736
6.2561 -0.2964 -2.4002 0.9735
6.2678 0.2636 -2.4041 0.9735
6.2283 0.8230 -2.4075 0.9734
6.2606 2.0062 -2.5193 0.9722
5.5252 3.6056 -2.5283 0.9721
2.9180 5.9427 -2.5371 0.9720
1.8150 6.3663 -2.5369 0.9720
1.2393 6.5011 -2.5362 0.9720
0.6539 6.5829 -2.5351 0.9721
-0.5043 6.3127 -2.4269 0.9732
-1.6155 6.1111 -2.4223 0.9733
-2.6697 5.7130 -2.4166 0.9733
-3.6327 5.1330 -2.4098 0.9734
-5.1655 3.5148 -2.3943 0.9736
-5.4491 3.0345 -2.3902 0.9736
-5.6883 2.5317 -2.3860 0.9737
-6.0268 1.4751 -2.3777 0.9738
-6.1240 0.9297 -2.3737 0.9738
-6.0241 -1.2637 -2.3588 0.9740
-5.8792 -1.7938 -2.3556 0.9740
-4.3317 -2.2269 -1.8665 0.9794
-5.1759 -3.2755 -2.3473 0.9741
-4.8584 -3.7209 -2.3451 0.9741
-4.6980 -4.3151 -2.4446 0.9730
-4.2914 -4.7141 -2.4430 0.9731
-3.3820 -5.3971 -2.4408 0.9731
-2.8863 -5.6762 -2.4403 0.9731
-1.8312 -6.0991 -2.4404 0.9731
-0.7183 -6.3315 -2.4419 0.9731
2.6307 -5.8406 -2.4548 0.9729
3.1455 -5.5898 -2.4580 0.9729
3.6167 -5.2648 -2.4478 0.9730
4.3457 -4.3872 -2.3665 0.9739
4.7276 -3.9883 -2.3703 0.9739
5.0731 -3.5565 -2.3743 0.9738
5.6439 -2.6070 -2.3824 0.9737
6.1649 -1.0242 -2.3949 0.9736
6.2422 -0.4707 -2.3989 0.9735
6.1312 2.3889 -2.5216 0.9722
5.9007 2.9301 -2.5247 0.9722
5.6219 3.4488 -2.5275 0.9721
5.2969 3.9406 -2.5300 0.9721
4.9283 4.4013 -2.5321 0.9721
4.5190 4.8270 -2.5339 0.9721
4.0725 5.2139 -2.5353 0.9721
2.5478 6.1110 -2.5372 0.9720
1.9922 6.3135 -2.5370 0.9720
1.4205 6.4646 -2.5365 0.9720
0.2484 6.6081 -2.5341 0.9721
-0.3279 6.3259 -2.4274 0.9732
-1.4447 6.1558 -2.4231 0.9733
-1.9861 5.9957 -2.4205 0.9733
-3.0127 5.5332 -2.4144 0.9734
-4.3511 4.5172 -2.4035 0.9735
-5.9865 1.6437 -2.3790 0.9738
-6.0598 -1.0955 -2.3599 0.9740
-5.9295 -1.6296 -2.3566 0.9740
-5.7529 -2.1494 -2.3535 0.9740
-4.9618 -3.5848 -2.3458 0.9741
-4.6182 -4.0099 -2.3438 0.9741
-4.4222 -4.5933 -2.4434 0.9731
-3.5317 -5.3011 -2.4411 0.9731
-2.0008 -6.0453 -2.4402 0.9731
-1.4535 -6.2009 -2.4407 0.9731
-0.8947 -6.3081 -2.4416 0.9731
0.2412 -6.3739 -2.4443 0.9730
0.8097 -6.3318 -2.4462 0.9730
1.9262 -6.0989 -2.4510 0.9730
2.4656 -5.9095 -2.4538 0.9729
2.9870 -5.6731 -2.4570 0.9729
4.2194 -4.5046 -2.3653 0.9739
4.9692 -3.6948 -2.3730 0.9738
5.2881 -3.2421 -2.3770 0.9738
5.9891 -1.7346 -2.3895 0.9736
6.1306 -1.1953 -2.3936 0.9736
6.2664 -0.0867 -2.4016 0.9735
6.2592 0.4737 -2.4055 0.9735
6.3133 1.0505 -2.4526 0.9730
6.1930 2.2159 -2.5206 0.9722
5.9780 2.7632 -2.5238 0.9722
5.0480 4.2610 -2.5315 0.9721
4.6510 4.6980 -2.5334 0.9721
4.2158 5.0973 -2.5349 0.9721
3.7458 5.4557 -2.5361 0.9720
3.2449 5.7699 -2.5368 0.9720
2.7174 6.0373 -2.5372 0.9720
2.1677 6.2557 -2.5371 0.9720
1.6006 6.4230 -2.5367 0.9720
1.0206 6.5380 -2.5358 0.9721
0.4329 6.5998 -2.5346 0.9721
-0.1531 6.4135 -2.4585 0.9729
-0.7153 6.2904 -2.4261 0.9732
-3.8005 5.0056 -2.4085 0.9734
-4.2255 4.6392 -2.4047 0.9735
-4.9665 3.8017 -2.3968 0.9736
-5.5441 2.8484 -2.3886 0.9737
-5.7661 2.3382 -2.3845 0.9737
-6.0689 1.2715 -2.3762 0.9738
-6.1478 0.7236 -2.3722 0.9738
-5.9753 -1.4641 -2.3576 0.9740
-5.6053 -2.4965 -2.3515 0.9741
-4.7559 -3.9021 -2.3575 0.9740
-4.5497 -4.4689 -2.4439 0.9731
-3.6788 -5.2011 -2.4413 0.9731
-3.1990 -5.5069 -2.4406 0.9731
-2.6944 -5.7695 -2.4402 0.9731
-1.0703 -6.2799 -2.4413 0.9731
-0.5059 -6.3532 -2.4424 0.9731
0.6325 -6.3503 -2.4456 0.9730
1.1977 -6.2740 -2.4477 0.9730
1.7545 -6.1483 -2.4502 0.9730
2.2988 -5.9738 -2.4529 0.9730
2.8262 -5.7519 -2.4560 0.9729
3.3328 -5.4841 -2.4592 0.9729
3.7160 -5.0390 -2.3993 0.9735
4.4930 -4.2417 -2.3679 0.9739
5.4837 -2.9148 -2.3799 0.9737
5.7319 -2.4180 -2.3840 0.9737
5.9351 -1.9001 -2.3882 0.9737
6.1997 -0.8176 -2.3964 0.9736
6.2583 -0.2615 -2.4004 0.9735
6.2669 0.2986 -2.4043 0.9735
6.3981 1.4733 -2.5160 0.9723
6.2498 2.0413 -2.5196 0.9722
6.0505 2.5942 -2.5228 0.9722
5.8017 3.1275 -2.5258 0.9722
5.5053 3.6366 -2.5285 0.9721
5.1636 4.1173 -2.5308 0.9721
0.6171 6.5862 -2.5350 0.9721
0.0251 6.1829 -2.5305 0.9736
-0.5046 5.9012 -2.4240 0.9747
-1.5429 5.7074 -2.4197 0.9748
-2.5273 5.3303 -2.4143 0.9748
-2.0119 3.4172 -1.6229 0.9830
-3.8333 4.4523 -2.4046 0.9749
-4.2090 4.0863 -2.4010 0.9750
-5.1167 2.8121 -2.3896 0.9751
-5.3386 2.3404 -2.3857 0.9751
-5.6512 1.3497 -2.3779 0.9752
-5.7399 0.8387 -2.3742 0.9752
-5.7829 0.3226 -2.3705 0.9753
-5.7799 -0.1945 -2.3669 0.9753
-5.3183 -2.1929 -2.3544 0.9754
-4.8337 -3.0969 -2.3495 0.9755
-4.5341 -3.5129 -2.3475 0.9755
-3.9979 -4.4413 -2.4457 0.9745
-1.1672 -5.8561 -2.4439 0.9745
0.9577 -5.9080 -2.4496 0.9745
1.4825 -5.8042 -2.4518 0.9744
3.8683 -4.6219 -2.4667 0.9743
4.4495 -3.7114 -2.3714 0.9753
4.7704 -3.3047 -2.3751 0.9752
5.0544 -2.8704 -2.3789 0.9752
5.6618 -1.4360 -2.3906 0.9751
6.0954 0.6673 -2.5096 0.9738
6.0201 1.2103 -2.5132 0.9738
4.9339 3.7136 -2.5274 0.9737
4.2012 4.5380 -2.5310 0.9736
3.7814 4.8974 -2.5323 0.9736
3.3304 5.2172 -2.5332 0.9736
1.8299 5.9143 -2.5338 0.9736
1.2945 6.0527 -2.5332 0.9736
0.7490 6.1418 -2.5323 0.9736
-1.8890 5.5979 -2.4180 0.9748
-2.8473 5.1606 -2.4122 0.9748
-4.4473 3.8162 -2.3984 0.9750
-4.7626 3.3987 -2.3946 0.9750
-5.0388 2.9554 -2.3908 0.9751
-5.2738 2.4898 -2.3869 0.9751
-5.6141 1.5077 -2.3791 0.9752
-5.7171 0.9991 -2.3753 0.9752
-5.7744 0.4841 -2.3716 0.9753
-5.7513 -0.5485 -2.3645 0.9753
-5.6715 -1.0580 -2.3612 0.9754
-5.5471 -1.5579 -2.3581 0.9754
-5.3794 -2.0442 -2.3552 0.9754
-5.1696 -2.5133 -2.3526 0.9755
-4.6316 -3.3858 -2.3481 0.9755
-4.4938 -3.9462 -2.4477 0.9745
-2.3432 -5.4903 -2.4431 0.9745
-1.8440 -5.6777 -2.4432 0.9745
-1.3302 -5.8207 -2.4437 0.9745
-0.8057 -5.9182 -2.4445 0.9745
1.3194 -5.8417 -2.4511 0.9744
1.8373 -5.7062 -2.4535 0.9744
2.8289 -5.3008 -2.4591 0.9744
3.2949 -5.0337 -2.4623 0.9743
3.7361 -4.7260 -2.4656 0.9743
4.3420 -3.8324 -2.3703 0.9753
5.6166 -1.5928 -2.3894 0.9751
5.7456 -1.0869 -2.3932 0.9750
5.8486 -0.5727 -2.4052 0.9749
6.0489 1.0413 -2.5121 0.9738
5.9399 1.5791 -2.5155 0.9738
5.7826 2.1055 -2.5187 0.9738
5.5781 2.6163 -2.5216 0.9737
5.3281 3.1070 -2.5243 0.9737
5.0343 3.5734 -2.5267 0.9737
4.3254 4.4181 -2.5305 0.9736
3.9161 4.7892 -2.5319 0.9736
3.0043 5.4128 -2.5337 0.9736
1.4632 6.0147 -2.5335 0.9736
0.9203 6.1193 -2.5326 0.9736
-2.7032 5.2401 -2.4132 0.9748
-3.5820 4.6636 -2.4067 0.9749
-5.2049 2.6374 -2.3881 0.9751
-5.5727 1.6647 -2.3803 0.9752
-5.7871 0.1286 -2.3691 0.9753
-5.7670 -0.3879 -2.3656 0.9753
-5.7012 -0.8997 -2.3622 0.9754
-5.5907 -1.4030 -2.3591 0.9754
-5.0020 -2.8239 -2.3509 0.9755
-4.2411 -4.2127 -2.4466 0.9745
-3.4213 -4.8948 -2.4442 0.9745
-1.4921 -5.7809 -2.4435 0.9745
-0.9705 -5.8927 -2.4442 0.9745
-0.4409 -5.9583 -2.4453 0.9745
0.0926 -5.9773 -2.4467 0.9745
1.1555 -5.8746 -2.4504 0.9745
2.1858 -5.5867 -2.4553 0.9744
3.6011 -4.8264 -2.4646 0.9743
4.2313 -3.9502 -2.3691 0.9753
4.8814 -3.1449 -2.3766 0.9752
5.1509 -2.7011 -2.3804 0.9752
5.5671 -1.7481 -2.3882 0.9751
5.7101 -1.2463 -2.3920 0.9751
5.8079 -0.7329 -2.3959 0.9750
5.8592 -0.2120 -2.3996 0.9750
5.8369 1.9425 -2.5177 0.9738
4.0476 4.6772 -2.5315 0.9736
3.1541 5.3264 -2.5335 0.9736
2.1574 5.8033 -2.5340 0.9736
1.0909 6.0920 -2.5329 0.9736
-0.0094 6.1828 -2.5304 0.9736
-0.5375 5.8980 -2.4239 0.9747
-1.0609 5.8216 -2.4219 0.9747
-1.5746 5.6983 -2.4196 0.9748
-2.5568 5.3156 -2.4141 0.9748
-3.4519 4.7639 -2.4078 0.9749
-4.5700 3.6629 -2.3970 0.9750
-5.3510 2.3103 -2.3854 0.9751
-5.7440 0.8065 -2.3739 0.9752
-5.7840 0.2903 -2.3702 0.9753
-5.7266 -0.7405 -2.3633 0.9754
-5.6300 -1.2468 -2.3600 0.9754
-4.2726 -2.2572 -1.9777 0.9793
-4.8160 -3.1237 -2.3494 0.9755
-4.3580 -4.0935 -2.4471 0.9745
-3.9729 -4.4634 -2.4456 0.9745
-3.1137 -5.0945 -2.4437 0.9745
-2.6461 -5.3511 -2.4432 0.9745
-1.1345 -5.8627 -2.4440 0.9745
0.9907 -5.9029 -2.4497 0.9745
2.0282 -5.6437 -2.4544 0.9744
2.5267 -5.4463 -2.4572 0.9744
3.4634 -4.9229 -2.4635 0.9743
3.8944 -4.6005 -2.4670 0.9743
4.1333 -4.0806 -2.3772 0.9752
5.0709 -2.8424 -2.3792 0.9752
5.6703 -1.4045 -2.3908 0.9751
5.8482 -0.3754 -2.3985 0.9750
5.9335 0.1499 -2.4292 0.9747
6.0922 0.7014 -2.5098 0.9738
5.4896 2.8028 -2.5227 0.9737
5.2229 3.2849 -2.5252 0.9737
3.7540 4.9186 -2.5324 0.9736
3.3013 5.2358 -2.5333 0.9736
2.8215 5.5107 -2.5338 0.9736
2.3186 5.7409 -2.5340 0.9736
1.7969 5.9244 -2.5338 0.9736
1.2607 6.0597 -2.5332 0.9736
0.7146 6.1457 -2.5322 0.9736
0.1632 6.1818 -2.5309 0.9736
-0.3729 5.9153 -2.4258 0.9747
-0.8981 5.8506 -2.4225 0.9747
-1.4154 5.7418 -2.4203 0.9748
-2.4083 5.3870 -2.4151 0.9748
-2.8759 5.1442 -2.4120 0.9748
-3.3190 4.8605 -2.4088 0.9749
-4.1183 4.1809 -2.4019 0.9750
-4.4681 3.7909 -2.3982 0.9750
-5.0547 2.9269 -2.3905 0.9751
-5.4766 1.9752 -2.3828 0.9752
-5.7765 0.4518 -2.3714 0.9753
-5.7849 -0.0654 -2.3678 0.9753
-5.7476 -0.5805 -2.3643 0.9753
-5.3675 -2.0741 -2.3551 0.9754
-5.1552 -2.5420 -2.3524 0.9755
-4.6124 -3.4114 -2.3480 0.9755
-4.4715 -3.9711 -2.4476 0.9745
-3.6901 -4.6973 -2.4448 0.9745
-3.2550 -5.0060 -2.4439 0.9745
-2.7946 -5.2754 -2.4433 0.9745
-2.3125 -5.5032 -2.4431 0.9745
-1.2977 -5.8282 -2.4437 0.9745
-0.7726 -5.9228 -2.4446 0.9745
-0.2411 -5.9709 -2.4458 0.9745
0.2929 -5.9723 -2.4473 0.9745
1.3521 -5.8345 -2.4512 0.9744
1.8692 -5.6962 -2.4536 0.9744
2.3727 -5.5127 -2.4563 0.9744
2.8587 -5.2853 -2.4593 0.9744
3.3232 -5.0156 -2.4625 0.9743
3.7627 -4.7055 -2.4659 0.9743
4.0591 -4.2376 -2.4016 0.9750
4.6936 -3.4091 -2.3742 0.9752
5.4553 -2.0540 -2.3857 0.9751
5.8326 -0.5382 -2.3973 0.9750
5.8700 -0.0156 -2.4024 0.9749
6.0889 0.5292 -2.5014 0.9739
6.0435 1.0752 -2.5123 0.9738
5.9314 1.6124 -2.5157 0.9738
5.5638 2.6476 -2.5218 0.9737
5.3110 3.1368 -2.5245 0.9737
4.3008 4.4424 -2.5306 0.9736
3.8894 4.8111 -2.5320 0.9736
2.4780 5.6739 -2.5340 0.9736
0.3358 6.1759 -2.5314 0.9736
-0.2165 6.1775 -2.5298 0.9736
-0.7346 5.8749 -2.4232 0.9747
-1.2549 5.7808 -2.4210 0.9748
-1.7640 5.6401 -2.4186 0.9748
-3.1834 4.9534 -2.4099 0.9749
-3.6077 4.6431 -2.4065 0.9749
-4.3626 3.9161 -2.3993 0.9750
-4.6873 3.5056 -2.3956 0.9750
-5.2190 2.6081 -2.3879 0.9751
-5.4221 2.1285 -2.3840 0.9751
-5.7644 0.6133 -2.3725 0.9753
-5.4253 -1.9241 -2.3559 0.9754
-5.2259 -2.3978 -2.3532 0.9755
-4.9858 -2.8517 -2.3508 0.9755
-4.7071 -3.2822 -2.3486 0.9755
-3.8204 -4.5931 -2.4451 0.9745
-3.3938 -4.9137 -2.4441 0.9745
-2.9410 -5.1956 -2.4435 0.9745
-2.4653 -5.4366 -2.4431 0.9745
-0.9376 -5.8981 -2.4443 0.9745
-0.4077 -5.9609 -2.4453 0.9745
1.1883 -5.8683 -2.4505 0.9745
1.7089 -5.7444 -2.4528 0.9744
2.2171 -5.5748 -2.4555 0.9744
2.7089 -5.3610 -2.4583 0.9744
3.1806 -5.1043 -2.4614 0.9743
3.9855 -4.4004 -2.4299 0.9747
4.2537 -3.9269 -2.3694 0.9753
4.5943 -3.5371 -2.3730 0.9753
5.1664 -2.6726 -2.3806 0.9752
5.3931 -2.2044 -2.3845 0.9751
5.7176 -1.2145 -2.3923 0.9751
5.8124 -0.7005 -2.3961 0.9750
6.0141 0.3539 -2.4657 0.9743
6.0685 0.9056 -2.5112 0.9738
5.8264 1.9753 -2.5179 0.9738
3.5877 5.0423 -2.5328 0.9736
3.1243 5.3440 -2.5335 0.9736
1.0568 6.0978 -2.5329 0.9736
0.5082 6.1651 -2.5318 0.9736
-0.0440 6.1824 -2.5303 0.9736
-0.5718 5.9087 -2.4296 0.9747
-1.6063 5.6890 -2.4194 0.9748
-2.1054 5.5171 -2.4168 0.9748
-2.5863 5.3009 -2.4140 0.9748
-3.8821 4.4084 -2.4041 0.9749
-4.2536 4.0383 -2.4005 0.9750
-4.5899 3.6370 -2.3968 0.9750
-4.8883 3.2077 -2.3930 0.9750
-5.1468 2.7542 -2.3891 0.9751
-5.5363 1.7895 -2.3813 0.9752
-5.7478 0.7743 -2.3737 0.9752
-5.7219 -0.7723 -2.3631 0.9754
-5.6225 -1.2782 -2.3599 0.9754
-5.4790 -1.7725 -2.3568 0.9754
-5.2927 -2.2518 -2.3541 0.9754
-3.5301 -4.8176 -2.4444 0.9745
-2.6162 -5.3658 -2.4432 0.9745
-2.1268 -5.5776 -2.4431 0.9745
-1.1018 -5.8690 -2.4440 0.9745
-0.0410 -5.9770 -2.4463 0.9745
0.4929 -5.9607 -2.4479 0.9745
1.5474 -5.7880 -2.4521 0.9744
2.0599 -5.6326 -2.4546 0.9744
3.0356 -5.1890 -2.4604 0.9744
3.4912 -4.9039 -2.4637 0.9743
3.9129 -4.5705 -2.4625 0.9743
4.4915 -3.6622 -2.3719 0.9753
5.0872 -2.8143 -2.3794 0.9752
5.3267 -2.3529 -2.3833 0.9751
5.7877 -0.8621 -2.3949 0.9750
5.8508 -0.3427 -2.3987 0.9750
5.9464 0.1835 -2.4348 0.9746
6.0887 0.7355 -2.5101 0.9738
6.0072 1.2777 -2.5136 0.9738
5.8770 1.8111 -2.5169 0.9738
5.6989 2.3312 -2.5200 0.9737
4.8926 3.7689 -2.5277 0.9737
4.5403 4.1937 -2.5296 0.9736
2.7907 5.5264 -2.5338 0.9736
2.2865 5.7538 -2.5340 0.9736
1.7637 5.9343 -2.5338 0.9736
0.1287 6.1824 -2.5308 0.9736
-1.4473 5.7335 -2.4202 0.9748
-1.9512 5.5756 -2.4177 0.9748
-1.9791 3.4941 -1.6435 0.9828
-3.3458 4.8415 -2.4086 0.9749
-4.1412 4.1575 -2.4016 0.9750
-4.4887 3.7655 -2.3979 0.9750
-5.0704 2.8983 -2.3903 0.9751
-5.4870 1.9444 -2.3825 0.9752
-5.6295 1.4446 -2.3787 0.9752
-5.7268 0.9350 -2.3749 0.9752
-5.7783 0.4196 -2.3712 0.9753
-5.5285 -1.6195 -2.3578 0.9754
-5.1405 -2.5705 -2.3523 0.9755
-4.8857 -3.0160 -2.3499 0.9755
-4.5930 -3.4369 -2.3478 0.9755
-4.0722 -4.3741 -2.4459 0.9745
-3.2269 -5.0241 -2.4438 0.9745
-2.7651 -5.2908 -2.4433 0.9745
-2.2817 -5.5161 -2.4431 0.9745
-0.7396 -5.9271 -2.4446 0.9745
-0.2078 -5.9724 -2.4458 0.9745
0.3262 -5.9708 -2.4474 0.9745
0.8584 -5.9223 -2.4492 0.9745
1.3848 -5.8272 -2.4514 0.9744
1.9012 -5.6861 -2.4538 0.9744
2.4036 -5.4998 -2.4565 0.9744
2.8884 -5.2697 -2.4595 0.9744
3.7893 -4.6848 -2.4661 0.9743
4.3854 -3.7844 -2.3707 0.9753
4.7130 -3.3831 -2.3744 0.9752
5.0041 -2.9538 -2.3782 0.9752
5.6352 -1.5302 -2.3899 0.9751
6.1042 0.5649 -2.5090 0.9739
6.0379 1.1090 -2.5125 0.9738
5.9228 1.6456 -2.5159 0.9738
5.7596 2.1703 -2.5191 0.9737
5.5493 2.6788 -2.5220 0.9737
4.6545 4.0644 -2.5290 0.9736
4.2761 4.4665 -2.5307 0.9736
3.8626 4.8329 -2.5321 0.9736
3.4172 5.1604 -2.5331 0.9736
2.4463 5.6877 -2.5340 0.9736
1.9288 5.8830 -2.5339 0.9736
0.8518 6.1289 -2.5325 0.9736
0.3013 6.1775 -2.5313 0.9736
-2.7611 5.2088 -2.4128 0.9748
-4.7064 3.4790 -2.3953 0.9750
-4.9901 3.0403 -2.3915 0.9751
-5.2330 2.5786 -2.3876 0.9751
-5.4333 2.0979 -2.3837 0.9751
-5.7672 0.5810 -2.3723 0.9753
-5.6898 -0.9631 -2.3618 0.9754
-5.5738 -1.4651 -2.3587 0.9754
-5.4140 -1.9542 -2.3558 0.9754
-5.2121 -2.4268 -2.3531 0.9755
-4.9696 -2.8793 -2.3506 0.9755
-4.6884 -3.3082 -2.3485 0.9755
-4.5229 -3.8394 -2.4281 0.9747
-3.3663 -4.9325 -2.4441 0.9745
-2.4349 -5.4503 -2.4431 0.9745
-1.9388 -5.6459 -2.4432 0.9745
-0.9047 -5.9034 -2.4443 0.9745
-0.3744 -5.9633 -2.4454 0.9745
0.1594 -5.9764 -2.4468 0.9745
0.6926 -5.9425 -2.4486 0.9745
1.2212 -5.8619 -2.4507 0.9745
1.7411 -5.7351 -2.4530 0.9744
3.6554 -4.7867 -2.4650 0.9743
4.9172 -3.0908 -2.3770 0.9752
5.7249 -1.1827 -2.3925 0.9751
5.8168 -0.6681 -2.3963 0.9750
6.0289 0.3886 -2.4726 0.9742
6.0639 0.9396 -2.5114 0.9738
5.9640 1.4790 -2.5149 0.9738
5.3783 3.0167 -2.5238 0.9737
4.7651 3.9319 -2.5284 0.9737
3.9954 4.7224 -2.5317 0.9736
2.6041 5.6170 -2.5339 0.9736
1.0227 6.1035 -2.5328 0.9736
-0.0785 6.1818 -2.5302 0.9736
-1.6380 5.6796 -2.4193 0.9748
-2.6156 5.2859 -2.4138 0.9748
-3.0730 5.0249 -2.4107 0.9749
-3.5043 4.7242 -2.4074 0.9749
-4.2757 4.0141 -2.4003 0.9750
-4.6097 3.6109 -2.3965 0.9750
-4.9057 3.1800 -2.3927 0.9750
-5.3754 2.2500 -2.3850 0.9751
-5.2796 -2.2811 -2.3539 0.9754
-4.2687 -2.3165 -1.9878 0.9792
-4.7803 -3.1769 -2.3491 0.9755
-4.4739 -3.5878 -2.3471 0.9755
-4.3116 -4.1416 -2.4469 0.9745
-3.9225 -4.5072 -2.4454 0.9745
-3.5031 -4.8371 -2.4443 0.9745
-3.0565 -5.1288 -2.4436 0.9745
-2.5862 -5.3802 -2.4432 0.9745
-2.0957 -5.5895 -2.4431 0.9745
-1.5887 -5.7548 -2.4434 0.9745
-1.0690 -5.8752 -2.4441 0.9745
-0.5407 -5.9496 -2.4451 0.9745
1.5798 -5.7796 -2.4522 0.9744
2.0914 -5.6214 -2.4548 0.9744
3.0648 -5.1724 -2.4606 0.9743
3.5188 -4.8847 -2.4639 0.9743
5.6867 -1.3414 -2.3913 0.9751
5.7930 -0.8299 -2.3952 0.9750
5.8532 -0.3101 -2.3989 0.9750
5.9592 0.2172 -2.4406 0.9746
6.0005 1.3113 -2.5138 0.9738
5.8672 1.8440 -2.5171 0.9738
5.6862 2.3631 -2.5202 0.9737
4.8718 3.7963 -2.5278 0.9737
4.5169 4.2191 -2.5297 0.9736
4.1250 4.6083 -2.5313 0.9736
3.6991 4.9604 -2.5325 0.9736
3.2427 5.2725 -2.5334 0.9736
2.7598 5.5420 -2.5339 0.9736
1.1929 6.0732 -2.5331 0.9736
0.6459 6.1530 -2.5321 0.9736
-1.9821 5.5643 -2.4175 0.9748
-1.9796 3.4499 -1.6279 0.9830
-3.7840 4.4957 -2.4050 0.9749
-4.1639 4.1339 -2.4014 0.9750
-4.8174 3.3174 -2.3939 0.9750
-5.0860 2.8696 -2.3901 0.9751
-5.3132 2.4004 -2.3862 0.9751
-5.4972 1.9135 -2.3823 0.9752
-5.7314 0.9029 -2.3746 0.9752
-5.7828 -0.1299 -2.3673 0.9753
-5.6515 -1.1526 -2.3606 0.9754
-5.3432 -2.1336 -2.3547 0.9754
-4.8685 -3.0431 -2.3498 0.9755
-4.4265 -4.0204 -2.4474 0.9745
-4.0475 -4.3966 -2.4458 0.9745
-3.6372 -4.7380 -2.4447 0.9745
-3.1988 -5.0419 -2.4438 0.9745
-2.7355 -5.3061 -2.4433 0.9745
-2.2509 -5.5287 -2.4431 0.9745
-1.7486 -5.7079 -2.4433 0.9745
-1.2325 -5.8425 -2.4438 0.9745
-0.7065 -5.9313 -2.4447 0.9745
0.3596 -5.9692 -2.4475 0.9745
2.4345 -5.4867 -2.4567 0.9744
2.9180 -5.2539 -2.4597 0.9744
3.3796 -4.9790 -2.4629 0.9743
4.0890 -4.1745 -2.3916 0.9751
4.7323 -3.3571 -2.3747 0.9752
5.0210 -2.9261 -2.3785 0.9752
5.6442 -1.4989 -2.3901 0.9751
5.7647 -0.9908 -2.3940 0.9750
5.8953 0.0502 -2.4129 0.9748
6.1014 0.5990 -2.5092 0.9739
6.0322 1.1428 -2.5127 0.9738
5.9140 1.6788 -2.5161 0.9738
5.7478 2.2027 -2.5192 0.9737
5.2763 3.1964 -2.5248 0.9737
4.9746 3.6578 -2.5271 0.9737
4.2513 4.4905 -2.5308 0.9736
3.3884 5.1795 -2.5331 0.9736
2.9133 5.4625 -2.5338 0.9736
-0.2820 6.0995 -2.4990 0.9740
-2.7899 5.1929 -2.4126 0.9748
-3.2379 4.9167 -2.4094 0.9749
-4.7253 3.4524 -2.3951 0.9750
-5.0065 3.0121 -2.3913 0.9751
-5.2467 2.5491 -2.3874 0.9751
-5.7067 1.0631 -2.3758 0.9752
-5.7698 0.5487 -2.3721 0.9753
-5.7868 0.0316 -2.3684 0.9753
-5.7581 -0.4843 -2.3650 0.9753
-5.6839 -0.9948 -2.3616 0.9754
-5.5650 -1.4961 -2.3585 0.9754
-5.4027 -1.9843 -2.3556 0.9754
-5.1981 -2.4557 -2.3529 0.9755
-4.6696 -3.3342 -2.3483 0.9755
-4.1695 -4.2827 -2.4463 0.9745
-3.7686 -4.6352 -2.4450 0.9745
-3.3386 -4.9511 -2.4440 0.9745
-2.4044 -5.4637 -2.4431 0.9745
0.1928 -5.9756 -2.4469 0.9745
0.7258 -5.9389 -2.4487 0.9745
1.2539 -5.8554 -2.4508 0.9745
1.7732 -5.7256 -2.4532 0.9744
2.2796 -5.5505 -2.4558 0.9744
2.7690 -5.3312 -2.4587 0.9744
3.6824 -4.7666 -2.4652 0.9743
4.2981 -3.8799 -2.3698 0.9753
5.1970 -2.6152 -2.3811 0.9752
5.4184 -2.1445 -2.3850 0.9751
5.7320 -1.1508 -2.3928 0.9750
5.8236 -0.6360 -2.3976 0.9750
5.8637 -0.1138 -2.4003 0.9750
6.0438 0.4234 -2.4796 0.9742
6.0591 0.9735 -2.5116 0.9738
5.9562 1.5124 -2.5151 0.9738
5.6062 2.5534 -2.5213 0.9737
5.3618 3.0468 -2.5240 0.9737
5.0733 3.5166 -2.5264 0.9737
3.5313 5.0823 -2.5329 0.9736
1.5303 5.9982 -2.5335 0.9736
0.9886 6.1090 -2.5328 0.9736
0.4393 6.1700 -2.5316 0.9736
-0.6362 5.8873 -2.4235 0.9747
-1.1581 5.8021 -2.4215 0.9748
-1.6696 5.6700 -2.4191 0.9748
-2.1665 5.4924 -2.4165 0.9748
-2.6449 5.2708 -2.4136 0.9748
-3.1007 5.0073 -2.4105 0.9749
-3.5304 4.7041 -2.4072 0.9749
-3.9303 4.3640 -2.4037 0.9749
-4.2976 3.9898 -2.4000 0.9750
-4.6293 3.5847 -2.3963 0.9750
-4.9229 3.1523 -2.3925 0.9751
-5.5549 1.7272 -2.3808 0.9752
-5.7550 0.7100 -2.3732 0.9752
-5.7864 0.1932 -2.3696 0.9753
-5.7720 -0.3235 -2.3660 0.9753
-5.6069 -1.3406 -2.3595 0.9754
-5.2664 -2.3104 -2.3537 0.9755
-4.7622 -3.2034 -2.3490 0.9755
-4.4536 -3.6126 -2.3470 0.9755
-3.4759 -4.8565 -2.4443 0.9745
-1.5565 -5.7637 -2.4435 0.9745
-0.5074 -5.9527 -2.4451 0.9745
0.5596 -5.9554 -2.4481 0.9745
1.0896 -5.8864 -2.4501 0.9745
3.0938 -5.1556 -2.4608 0.9743
3.5463 -4.8654 -2.4641 0.9743
3.9422 -4.5019 -2.4491 0.9745
4.1861 -3.9965 -2.3687 0.9753
4.5470 -3.6237 -2.3797 0.9752
5.1193 -2.7579 -2.3799 0.9752
5.6947 -1.3098 -2.3916 0.9751
5.7982 -0.7976 -2.3954 0.9750
5.9721 0.2511 -2.4464 0.9745
6.0812 0.8036 -2.5105 0.9738
5.8573 1.8769 -2.5173 0.9738
5.4430 2.8950 -2.5232 0.9737
5.1681 3.3726 -2.5257 0.9737
4.0993 4.6314 -2.5314 0.9736
3.2133 5.2906 -2.5334 0.9736
1.6973 5.9535 -2.5337 0.9736
1.1589 6.0797 -2.5330 0.9736
0.0597 6.1829 -2.5306 0.9736
-0.9959 5.8338 -2.4221 0.9747
-1.5111 5.7162 -2.4199 0.9748
-2.0130 5.5527 -2.4173 0.9748
-2.4976 5.3447 -2.4145 0.9748
-3.3991 4.8030 -2.4082 0.9749
-3.8087 4.4740 -2.4048 0.9749
-4.1865 4.1102 -2.4012 0.9750
-4.5296 3.7144 -2.3975 0.9750
-5.1015 2.8409 -2.3898 0.9751
-5.6445 -1.1841 -2.3604 0.9754
-5.3308 -2.1632 -2.3546 0.9754
-4.5539 -3.4877 -2.3476 0.9755
-4.4038 -4.0449 -2.4473 0.9745
-4.0228 -4.4190 -2.4458 0.9745
-3.6106 -4.7581 -2.4446 0.9745
-2.2200 -5.5412 -2.4431 0.9745
-1.7167 -5.7177 -2.4433 0.9745
-1.1999 -5.8494 -2.4439 0.9745
-0.1411 -5.9748 -2.4460 0.9745
0.3930 -5.9673 -2.4476 0.9745
1.4499 -5.8121 -2.4516 0.9744
1.9648 -5.6652 -2.4541 0.9744
3.4076 -4.9605 -2.4631 0.9743
4.1039 -4.1430 -2.3867 0.9751
4.4283 -3.7359 -2.3712 0.9753
5.0378 -2.8983 -2.3787 0.9752
5.9080 0.0833 -2.4182 0.9748
6.0985 0.6331 -2.5094 0.9738
6.0262 1.1766 -2.5129 0.9738
5.7358 2.2349 -2.5194 0.9737
5.5198 2.7410 -2.5223 0.9737
5.2587 3.2260 -2.5249 0.9737
4.9543 3.6858 -2.5273 0.9737
3.3595 5.1984 -2.5332 0.9736
2.8828 5.4787 -2.5338 0.9736
1.8630 5.9041 -2.5338 0.9736
0.7833 6.1377 -2.5324 0.9736
0.2323 6.1800 -2.5311 0.9736
-0.3126 6.0304 -2.4714 0.9742
-1.8579 5.6087 -2.4181 0.9748
-2.3483 5.4144 -2.4154 0.9748
-2.8187 5.1768 -2.4124 0.9748
-3.2651 4.8981 -2.4092 0.9749
-3.6840 4.5807 -2.4059 0.9749
-4.0721 4.2275 -2.4023 0.9749
-4.4263 3.8413 -2.3986 0.9750
-4.7440 3.4256 -2.3949 0.9750
-5.2603 2.5195 -2.3871 0.9751
-5.7722 0.5164 -2.3718 0.9753
-5.6778 -1.0264 -2.3614 0.9754
-4.6507 -3.3601 -2.3482 0.9755
-4.5160 -3.9212 -2.4478 0.9745
-4.1453 -4.3057 -2.4462 0.9745
-3.7426 -4.6561 -2.4449 0.9745
-3.3108 -4.9696 -2.4440 0.9745
-2.8535 -5.2439 -2.4434 0.9745
-2.3738 -5.4771 -2.4431 0.9745
-1.8756 -5.6673 -2.4432 0.9745
-1.3626 -5.8131 -2.4437 0.9745
-0.3078 -5.9675 -2.4456 0.9745
1.8052 -5.7160 -2.4533 0.9744
2.3107 -5.5381 -2.4560 0.9744
2.7990 -5.3161 -2.4589 0.9744
4.3201 -3.8562 -2.3701 0.9753
5.4309 -2.1144 -2.3852 0.9751
5.8648 -0.0811 -2.4005 0.9750
6.0541 1.0074 -2.5119 0.9738
5.9481 1.5458 -2.5153 0.9738
5.7938 2.0731 -2.5185 0.9738
5.5923 2.5849 -2.5214 0.9737
5.3450 3.0769 -2.5242 0.9737
5.0539 3.5450 -2.5266 0.9737
4.7213 3.9852 -2.5287 0.9736
3.9426 4.7671 -2.5319 0.9736
3.5030 5.1021 -2.5329 0.9736
2.5412 5.6458 -2.5340 0.9736
2.0271 5.8500 -2.5339 0.9736
0.9545 6.1142 -2.5327 0.9736
0.4048 6.1722 -2.5316 0.9736
-0.6690 5.8834 -2.4234 0.9747
-1.1903 5.7952 -2.4213 0.9748
-2.1970 5.4798 -2.4163 0.9748
-2.6741 5.2556 -2.4134 0.9748
-3.1284 4.9895 -2.4103 0.9749
-3.9543 4.3415 -2.4034 0.9749
-4.3194 3.9654 -2.3998 0.9750
-4.6488 3.5585 -2.3961 0.9750
-5.1906 2.6668 -2.3884 0.9751
-5.3991 2.1894 -2.3845 0.9751
-5.5638 1.6960 -2.3806 0.9752
-5.7869 0.1609 -2.3693 0.9753
-5.2531 -2.3396 -2.3536 0.9755
-5.0180 -2.7961 -2.3511 0.9755
-4.7440 -3.2298 -2.3488 0.9755
-4.4536 -3.6540 -2.3577 0.9754
-3.8717 -4.5504 -2.4453 0.9745
-3.4487 -4.8757 -2.4442 0.9745
-2.0331 -5.6125 -2.4432 0.9745
-1.5243 -5.7724 -2.4435 0.9745
-0.4742 -5.9556 -2.4452 0.9745
3.1229 -5.1387 -2.4610 0.9743
3.9567 -4.4679 -2.4426 0.9745
4.5610 -3.5933 -2.3764 0.9752
5.1352 -2.7296 -2.3802 0.9752
5.3670 -2.2640 -2.3840 0.9751
5.7025 -1.2780 -2.3918 0.9751
5.8031 -0.7653 -2.3956 0.9750
5.9851 0.2851 -2.4523 0.9744
6.0772 0.8376 -2.5107 0.9738
5.6602 2.4269 -2.5205 0.9737
5.4271 2.9255 -2.5233 0.9737
5.1495 3.4015 -2.5258 0.9737
4.8295 3.8509 -2.5280 0.9737
4.4699 4.2697 -2.5299 0.9736
3.6436 5.0017 -2.5326 0.9736
2.6978 5.5725 -2.5339 0.9736
1.6640 5.9628 -2.5337 0.9736
1.1250 6.0859 -2.5330 0.9736
0.5771 6.1595 -2.5319 0.9736
-1.9178 5.1992 -2.4151 0.9761
-2.3716 5.0018 -2.4125 0.9761
-2.0077 3.4101 -1.7246 0.9829
-3.5980 4.1790 -2.4033 0.9762
-5.1815 1.7390 -2.3820 0.9764
-5.3918 0.7878 -2.3748 0.9765
-5.4327 0.3030 -2.3713 0.9765
-5.4303 -0.1828 -2.3680 0.9766
-4.9982 -2.0609 -2.3562 0.9767
-4.5434 -2.9109 -2.3516 0.9767
-4.3165 -3.3443 -2.3798 0.9765
-3.7583 -4.1751 -2.4482 0.9758
-3.3692 -4.4918 -2.4471 0.9758
-2.9540 -4.7731 -2.4463 0.9758
-2.5158 -5.0167 -2.4459 0.9758
-1.0973 -5.5054 -2.4465 0.9758
-0.1012 -5.6175 -2.4486 0.9758
0.4007 -5.6075 -2.4501 0.9758
1.3934 -5.4555 -2.4539 0.9757
1.8765 -5.3145 -2.4563 0.9757
2.3458 -5.1313 -2.4589 0.9757
3.2283 -4.6436 -2.4648 0.9756
3.6346 -4.3426 -2.4680 0.9756
4.3241 -3.6068 -2.4541 0.9757
4.7472 -2.6960 -2.3793 0.9765
4.9765 -2.2650 -2.3829 0.9764
5.1667 -1.8146 -2.3866 0.9764
5.3161 -1.3484 -2.3902 0.9764
5.4926 -0.8810 -2.4244 0.9760
5.7462 0.1131 -2.5048 0.9752
5.7212 0.6263 -2.5083 0.9752
5.6499 1.1359 -2.5116 0.9752
5.5329 1.6376 -2.5147 0.9751
5.3709 2.1273 -2.5177 0.9751
4.9172 3.0545 -2.5228 0.9751
3.9411 4.2571 -2.5283 0.9750
3.5472 4.5941 -2.5295 0.9750
3.1241 4.8940 -2.5304 0.9750
-0.8120 5.4938 -2.4203 0.9761
-1.2979 5.3948 -2.4183 0.9761
-1.7725 5.2524 -2.4159 0.9761
-2.2318 5.0679 -2.4133 0.9761
-1.9124 3.4661 -1.7253 0.9829
-3.0897 4.5794 -2.4075 0.9762
-3.4814 4.2797 -2.4044 0.9762
-3.8441 3.9465 -2.4010 0.9762
-4.1750 3.5825 -2.3976 0.9763
-4.7312 2.7749 -2.3904 0.9764
-5.1334 1.8839 -2.3831 0.9764
-5.3702 0.9385 -2.3759 0.9765
-5.4357 -0.0311 -2.3690 0.9766
-5.2128 -1.4640 -2.3597 0.9767
-4.8588 -2.3622 -2.3545 0.9767
-3.8740 -4.0692 -2.4486 0.9758
-3.4937 -4.3966 -2.4474 0.9758
-2.6550 -4.9448 -2.4460 0.9758
-2.2029 -5.1615 -2.4458 0.9758
-1.2505 -5.4721 -2.4463 0.9758
0.2440 -5.6154 -2.4496 0.9758
0.7446 -5.5751 -2.4513 0.9758
2.2008 -5.1930 -2.4581 0.9757
3.0962 -4.7300 -2.4638 0.9756
3.5104 -4.4406 -2.4670 0.9756
4.4654 -3.2817 -2.4151 0.9761
4.9090 -2.4019 -2.3818 0.9764
5.1115 -1.9573 -2.3854 0.9764
5.6280 -0.5511 -2.4645 0.9756
5.7446 -0.0473 -2.5037 0.9752
5.6771 0.9773 -2.5106 0.9752
5.5743 1.4819 -2.5138 0.9751
4.9991 2.9151 -2.5221 0.9751
4.7232 3.3526 -2.5243 0.9750
3.2593 4.8044 -2.5302 0.9750
2.3541 5.3093 -2.5311 0.9750
1.8709 5.4980 -2.5310 0.9750
0.8633 5.7403 -2.5299 0.9750
0.3474 5.7919 -2.5288 0.9750
-0.1708 5.7966 -2.5273 0.9750
-1.1471 5.4305 -2.4189 0.9761
-1.6256 5.3016 -2.4167 0.9761
-3.3620 4.3771 -2.4054 0.9762
-3.7341 4.0540 -2.4021 0.9762
-4.0752 3.6994 -2.3987 0.9763
-4.6540 2.9073 -2.3915 0.9763
-4.8875 2.4766 -2.3879 0.9764
-5.0812 2.0275 -2.3842 0.9764
-5.2339 1.5635 -2.3806 0.9764
-5.3444 1.0885 -2.3770 0.9765
-5.4122 0.6063 -2.3735 0.9765
-5.4368 0.1208 -2.3701 0.9766
-5.3571 -0.8454 -2.3636 0.9766
-5.2536 -1.3184 -2.3606 0.9766
-5.1090 -1.7799 -2.3578 0.9767
-4.9244 -2.2263 -2.3553 0.9767
-4.4419 -3.0605 -2.3509 0.9767
-4.3272 -3.5909 -2.4506 0.9758
-3.2164 -4.6016 -2.4468 0.9758
-2.7922 -4.8689 -2.4461 0.9758
-1.8819 -5.2871 -2.4458 0.9758
-0.4145 -5.6013 -2.4478 0.9758
0.0871 -5.6189 -2.4491 0.9758
1.0861 -5.5218 -2.4526 0.9757
2.0543 -5.2507 -2.4572 0.9757
2.5174 -5.0519 -2.4599 0.9757
4.8377 -2.5369 -2.3806 0.9764
5.0525 -2.0982 -2.3843 0.9764
5.3748 -1.1731 -2.3976 0.9763
5.7423 0.3057 -2.5061 0.9752
5.2988 2.3070 -2.5187 0.9751
5.0770 2.7736 -2.5213 0.9751
4.5109 3.6382 -2.5257 0.9750
4.1711 4.0291 -2.5274 0.9750
3.7970 4.3877 -2.5288 0.9750
3.3918 4.7110 -2.5299 0.9750
2.9587 4.9964 -2.5307 0.9750
2.5014 5.2413 -2.5311 0.9750
-0.0089 5.8002 -2.5278 0.9750
-0.9953 5.4619 -2.4196 0.9761
-1.9467 5.1881 -2.4150 0.9761
-2.3993 4.9882 -2.4123 0.9761
-3.2398 4.4711 -2.4064 0.9762
-3.6210 4.1585 -2.4031 0.9762
-3.9721 3.8134 -2.3997 0.9763
-4.5732 3.0376 -2.3927 0.9763
-4.8187 2.6134 -2.3890 0.9764
-5.1906 1.7099 -2.3817 0.9764
-5.3144 1.2379 -2.3781 0.9765
-5.4338 0.2727 -2.3711 0.9765
-5.2904 -1.1717 -2.3615 0.9766
-4.9863 -2.0886 -2.3561 0.9767
-4.3340 -3.3967 -2.3998 0.9763
-3.7348 -4.1959 -2.4481 0.9758
-2.9272 -4.7895 -2.4463 0.9758
-2.0287 -5.2324 -2.4458 0.9758
-1.5538 -5.3931 -2.4460 0.9758
-1.0666 -5.5116 -2.4466 0.9758
-0.5707 -5.5867 -2.4475 0.9758
0.4321 -5.6054 -2.4502 0.9758
1.4239 -5.4480 -2.4541 0.9757
1.9063 -5.3043 -2.4564 0.9757
2.3746 -5.1184 -2.4591 0.9757
3.6591 -4.3226 -2.4682 0.9756
4.7627 -2.6697 -2.3795 0.9765
5.1772 -1.7859 -2.3868 0.9764
5.3241 -1.3188 -2.3904 0.9764
5.7460 0.1452 -2.5050 0.9752
5.7181 0.6583 -2.5085 0.9752
5.3593 2.1575 -2.5178 0.9751
4.9003 3.0821 -2.5229 0.9751
4.2811 3.9102 -2.5269 0.9750
3.9174 4.2793 -2.5284 0.9750
3.5216 4.6140 -2.5296 0.9750
2.6467 5.1693 -2.5310 0.9750
1.6855 5.5573 -2.5309 0.9750
1.1826 5.6844 -2.5304 0.9750
0.6704 5.7652 -2.5295 0.9750
-0.3648 5.7862 -2.5267 0.9750
-0.8426 5.4890 -2.4202 0.9761
-1.3280 5.3872 -2.4181 0.9761
-1.9316 3.4551 -1.7251 0.9829
-3.1150 4.5617 -2.4073 0.9762
-3.5050 4.2598 -2.4042 0.9762
-3.8658 3.9246 -2.4008 0.9762
-4.4887 3.1656 -2.3938 0.9763
-4.9648 2.3102 -2.3865 0.9764
-5.2803 1.3865 -2.3792 0.9765
-5.3749 0.9084 -2.3757 0.9765
-5.4265 0.4245 -2.3722 0.9765
-5.4350 -0.0614 -2.3688 0.9766
-5.3232 -1.0239 -2.3625 0.9766
-5.2042 -1.4930 -2.3596 0.9767
-5.0444 -1.9492 -2.3569 0.9767
-4.8452 -2.3891 -2.3544 0.9767
-4.3355 -3.2067 -2.3502 0.9767
-3.8511 -4.0906 -2.4485 0.9758
-3.0601 -4.7062 -2.4465 0.9758
-2.1740 -5.1737 -2.4458 0.9758
0.7758 -5.5711 -2.4514 0.9758
1.2709 -5.4841 -2.4534 0.9757
2.2299 -5.1810 -2.4582 0.9757
2.6864 -4.9669 -2.4610 0.9757
3.1228 -4.7131 -2.4640 0.9756
3.5355 -4.4213 -2.4672 0.9756
4.4785 -3.2529 -2.4124 0.9761
4.6841 -2.8003 -2.3784 0.9765
5.1229 -1.9288 -2.3857 0.9764
5.2826 -1.4662 -2.3893 0.9764
5.4156 2.0062 -2.5169 0.9751
5.2206 2.4842 -2.5197 0.9751
4.3877 3.7884 -2.5264 0.9750
3.2325 4.8227 -2.5302 0.9750
1.8401 5.5083 -2.5310 0.9750
0.8312 5.7449 -2.5298 0.9750
-0.2031 5.7953 -2.5272 0.9750
-0.6892 5.5117 -2.4208 0.9761
-1.1774 5.4237 -2.4188 0.9761
-1.6551 5.2921 -2.4165 0.9761
-2.1186 5.1179 -2.4140 0.9761
-2.5639 4.9028 -2.4113 0.9761
-3.3861 4.3579 -2.4052 0.9762
-4.4006 3.2912 -2.3949 0.9763
-4.6698 2.8810 -2.3913 0.9763
-5.0920 1.9989 -2.3840 0.9764
-5.4370 0.0904 -2.3698 0.9766
-5.4158 -0.3946 -2.3665 0.9766
-5.2458 -1.3476 -2.3604 0.9766
-4.6863 -2.6803 -2.3528 0.9767
-4.3068 -3.6148 -2.4505 0.9758
-3.9645 -3.9822 -2.4489 0.9758
-3.5915 -4.3179 -2.4477 0.9758
-3.1906 -4.6194 -2.4467 0.9758
-2.7649 -4.8844 -2.4461 0.9758
-2.3177 -5.1111 -2.4458 0.9758
-1.3724 -5.4425 -2.4462 0.9758
0.1184 -5.6186 -2.4492 0.9758
2.5458 -5.0381 -2.4601 0.9757
4.1692 -3.8489 -2.4729 0.9755
4.6199 -2.9401 -2.3866 0.9764
4.8522 -2.5100 -2.3809 0.9764
5.0646 -2.0702 -2.3845 0.9764
5.7401 -0.1756 -2.5028 0.9753
5.7410 0.3378 -2.5063 0.9752
5.6957 0.8500 -2.5097 0.9752
5.6043 1.3566 -2.5130 0.9752
5.4675 1.8536 -2.5160 0.9751
5.0618 2.8020 -2.5214 0.9751
4.1487 4.0524 -2.5275 0.9750
2.4721 5.2553 -2.5311 0.9750
1.9933 5.4550 -2.5311 0.9750
0.9914 5.7201 -2.5301 0.9750
-0.0412 5.7998 -2.5277 0.9750
-1.5072 5.3378 -2.4173 0.9761
-2.4269 4.9743 -2.4121 0.9761
-2.0453 3.3869 -1.7243 0.9829
-3.6438 4.1379 -2.4029 0.9762
-3.9929 3.7908 -2.3995 0.9763
-4.3090 3.4144 -2.3960 0.9763
-4.8328 2.5862 -2.3888 0.9764
-5.0366 2.1413 -2.3852 0.9764
-5.1996 1.6807 -2.3815 0.9764
-5.3208 1.2081 -2.3779 0.9765
-5.4347 0.2423 -2.3709 0.9765
-5.3764 -0.7257 -2.3644 0.9766
-5.2834 -1.2011 -2.3613 0.9766
-4.3593 -3.4561 -2.4245 0.9760
-4.0749 -3.8707 -2.4494 0.9758
-3.3187 -4.5290 -2.4470 0.9758
-2.9004 -4.8056 -2.4463 0.9758
-1.9995 -5.2437 -2.4458 0.9758
-1.5237 -5.4018 -2.4461 0.9758
-0.0385 -5.6187 -2.4488 0.9758
0.4634 -5.6032 -2.4503 0.9758
1.4544 -5.4402 -2.4542 0.9757
2.4033 -5.1054 -2.4592 0.9757
3.2805 -4.6080 -2.4652 0.9756
4.0583 -3.9621 -2.4718 0.9756
5.0024 -2.2097 -2.3834 0.9764
5.3319 -1.2892 -2.3907 0.9763
5.5163 -0.8217 -2.4306 0.9760
5.7201 -0.3351 -2.4972 0.9753
5.3476 2.1875 -2.5180 0.9751
4.8833 3.1095 -2.5231 0.9751
4.5902 3.5359 -2.5252 0.9750
4.2594 3.9342 -2.5270 0.9750
2.1448 5.3972 -2.5311 0.9750
1.6545 5.5666 -2.5309 0.9750
1.1508 5.6908 -2.5303 0.9750
0.6381 5.7687 -2.5294 0.9750
0.1207 5.7997 -2.5282 0.9750
-0.3971 5.7838 -2.5266 0.9750
-0.8732 5.4839 -2.4201 0.9761
-1.9507 3.4440 -1.7250 0.9829
-3.1401 4.5438 -2.4071 0.9762
-3.5284 4.2398 -2.4039 0.9762
-3.8873 3.9026 -2.4006 0.9763
-4.2140 3.5350 -2.3971 0.9763
-4.7609 2.7214 -2.3900 0.9764
-5.1531 1.8261 -2.3826 0.9764
-5.2875 1.3569 -2.3790 0.9765
-5.3968 -0.5755 -2.3654 0.9766
-5.3170 -1.0535 -2.3623 0.9766
-4.5923 -2.8349 -2.3520 0.9767
-4.3174 -3.2307 -2.3501 0.9767
-4.1823 -3.7561 -2.4499 0.9758
-3.4442 -4.4351 -2.4473 0.9758
-2.5995 -4.9740 -2.4460 0.9758
-2.1451 -5.1858 -2.4458 0.9758
-1.6739 -5.3569 -2.4459 0.9758
-0.6953 -5.5721 -2.4472 0.9758
-0.1953 -5.6144 -2.4483 0.9758
0.8069 -5.5669 -2.4515 0.9758
1.3016 -5.4772 -2.4535 0.9757
1.7869 -5.3442 -2.4558 0.9757
3.5604 -4.4018 -2.4674 0.9756
3.9444 -4.0721 -2.4707 0.9756
4.2852 -3.6979 -2.4668 0.9756
4.4916 -3.2242 -2.4096 0.9762
5.7458 0.0168 -2.5041 0.9752
5.7294 0.5303 -2.5076 0.9752
5.6668 1.0408 -2.5110 0.9752
5.5583 1.5444 -2.5142 0.9751
5.2070 2.5135 -2.5199 0.9751
4.9668 2.9711 -2.5223 0.9751
4.3667 3.8130 -2.5265 0.9750
3.6234 4.5337 -2.5293 0.9750
2.7614 5.1087 -2.5309 0.9750
1.8093 5.5185 -2.5310 0.9750
1.3094 5.6569 -2.5306 0.9750
-0.2355 5.7938 -2.5271 0.9750
-0.7247 5.5441 -2.4368 0.9759
-1.2076 5.4168 -2.4187 0.9761
-2.1470 5.1056 -2.4138 0.9761
-3.0133 4.6316 -2.4081 0.9762
-3.7785 4.0114 -2.4017 0.9762
-4.1155 3.6529 -2.3982 0.9763
-4.6853 2.8546 -2.3911 0.9763
-5.1025 1.9702 -2.3838 0.9764
-5.4176 0.5458 -2.3730 0.9765
-5.4130 -0.4248 -2.3663 0.9766
-5.3464 -0.9050 -2.3632 0.9766
-4.8986 -2.2809 -2.3550 0.9767
-4.6710 -2.7063 -2.3527 0.9767
-4.2864 -3.6387 -2.4504 0.9758
-3.5672 -4.3378 -2.4476 0.9758
-1.3420 -5.4502 -2.4462 0.9758
-0.3520 -5.6059 -2.4480 0.9758
1.1478 -5.5099 -2.4529 0.9757
1.6364 -5.3904 -2.4551 0.9757
2.1131 -5.2281 -2.4576 0.9757
3.4347 -4.4977 -2.4664 0.9756
4.4259 -3.3683 -2.4239 0.9760
4.6325 -2.9119 -2.3847 0.9764
5.0766 -2.0421 -2.3847 0.9764
5.7415 -0.1436 -2.5030 0.9753
5.2734 2.3664 -2.5190 0.9751
4.7780 3.2724 -2.5239 0.9750
4.4704 3.6887 -2.5259 0.9750
4.1262 4.0757 -2.5276 0.9750
3.7480 4.4301 -2.5290 0.9750
3.3391 4.7488 -2.5300 0.9750
2.9028 5.0293 -2.5307 0.9750
2.4427 5.2690 -2.5311 0.9750
1.9628 5.4660 -2.5311 0.9750
1.4669 5.6186 -2.5307 0.9750
0.4444 5.7858 -2.5290 0.9750
-0.0736 5.7993 -2.5276 0.9750
-0.5660 5.5267 -2.4212 0.9761
-1.0561 5.4499 -2.4193 0.9761
-2.0043 5.1654 -2.4147 0.9761
-2.0640 3.3752 -1.7242 0.9829
-3.6666 4.1171 -2.4027 0.9762
-4.3276 3.3899 -2.3958 0.9763
-4.6060 2.9857 -2.3922 0.9763
-4.8467 2.5589 -2.3886 0.9764
-5.0480 2.1129 -2.3849 0.9764
-5.2084 1.6515 -2.3813 0.9764
-5.3269 1.1783 -2.3777 0.9765
-5.4028 0.6971 -2.3741 0.9765
-5.4355 0.2119 -2.3707 0.9765
-5.4251 -0.2736 -2.3674 0.9766
-5.3718 -0.7557 -2.3642 0.9766
-5.2762 -1.2304 -2.3612 0.9766
-4.3851 -3.5166 -2.4497 0.9758
-3.6875 -4.2371 -2.4480 0.9758
-1.9702 -5.2548 -2.4458 0.9758
-1.4935 -5.4102 -2.4461 0.9758
0.4947 -5.6007 -2.4504 0.9758
0.9933 -5.5384 -2.4522 0.9757
2.8800 -4.8606 -2.4623 0.9756
3.7078 -4.2822 -2.4686 0.9756
4.3626 -3.5167 -2.4421 0.9758
4.5691 -3.0532 -2.3949 0.9763
5.0152 -2.1820 -2.3836 0.9764
5.1978 -1.7283 -2.3873 0.9764
5.7335 -0.3037 -2.5023 0.9753
5.7451 0.2094 -2.5055 0.9752
5.7113 0.7223 -2.5089 0.9752
5.6314 1.2307 -2.5122 0.9752
5.5059 1.7305 -2.5153 0.9751
5.3356 2.2175 -2.5182 0.9751
5.1218 2.6876 -2.5208 0.9751
4.8661 3.1369 -2.5232 0.9751
4.5706 3.5616 -2.5253 0.9750
4.2375 3.9581 -2.5271 0.9750
3.8696 4.3230 -2.5286 0.9750
3.0419 4.9459 -2.5305 0.9750
2.1146 5.4091 -2.5311 0.9750
1.6233 5.5757 -2.5309 0.9750
0.6059 5.7720 -2.5294 0.9750
0.0883 5.8001 -2.5281 0.9750
-0.9038 5.4787 -2.4200 0.9761
-1.3879 5.3714 -2.4178 0.9761
-3.5517 4.2197 -2.4037 0.9762
-4.7756 2.6945 -2.3897 0.9764
-4.9894 2.2541 -2.3861 0.9764
-5.1627 1.7971 -2.3824 0.9764
-5.2944 1.3272 -2.3788 0.9765
-5.4299 0.3638 -2.3718 0.9765
-5.4330 -0.1221 -2.3684 0.9766
-5.3106 -1.0831 -2.3621 0.9766
-4.8176 -2.4428 -2.3541 0.9767
-4.1610 -3.7793 -2.4498 0.9758
-2.1161 -5.1977 -2.4458 0.9758
-1.6439 -5.3662 -2.4460 0.9758
-1.1587 -5.4926 -2.4465 0.9758
-0.1640 -5.6156 -2.4484 0.9758
0.3380 -5.6112 -2.4499 0.9758
0.8380 -5.5626 -2.4516 0.9758
4.9499 -2.3200 -2.3825 0.9764
5.1451 -1.8719 -2.3861 0.9764
5.2997 -1.4074 -2.3898 0.9764
5.4690 -0.9400 -2.4184 0.9761
5.7268 0.5623 -2.5078 0.9752
5.5500 1.5755 -2.5144 0.9751
4.6671 3.4318 -2.5247 0.9750
3.5981 4.5539 -2.5294 0.9750
3.1785 4.8586 -2.5303 0.9750
2.2648 5.3480 -2.5311 0.9750
1.7785 5.5285 -2.5310 0.9750
1.2777 5.6640 -2.5305 0.9750
0.7670 5.7536 -2.5297 0.9750
-0.7507 5.5031 -2.4206 0.9761
-1.2377 5.4097 -2.4185 0.9761
-2.1753 5.0932 -2.4137 0.9761
-1.8871 3.5125 -1.7377 0.9828
-3.0388 4.6144 -2.4079 0.9762
-3.4340 4.3191 -2.4048 0.9762
-3.8005 3.9899 -2.4014 0.9762
-5.1130 1.9415 -2.3836 0.9764
-5.2578 1.4752 -2.3799 0.9765
-5.3604 0.9986 -2.3763 0.9765
-5.4201 0.5155 -2.3728 0.9765
-5.4367 0.0297 -2.3694 0.9766
-5.2296 -1.4059 -2.3601 0.9766
-4.6555 -2.7321 -2.3525 0.9767
-4.3893 -3.1340 -2.3505 0.9767
-3.5428 -4.3575 -2.4475 0.9758
-2.7101 -4.9149 -2.4461 0.9758
-1.3115 -5.4577 -2.4463 0.9758
-0.3206 -5.6080 -2.4480 0.9758
0.1812 -5.6173 -2.4494 0.9758
0.6822 -5.5825 -2.4511 0.9758
1.1786 -5.5037 -2.4530 0.9757
2.1424 -5.2165 -2.4577 0.9757
2.6022 -5.0101 -2.4605 0.9757
3.0426 -4.7636 -2.4634 0.9756
3.4600 -4.4788 -2.4666 0.9756
3.8511 -4.1577 -2.4699 0.9756
4.4391 -3.3393 -2.4209 0.9761
4.6451 -2.8837 -2.3828 0.9764
4.8809 -2.4561 -2.3813 0.9764
5.7427 -0.1115 -2.5032 0.9752
5.7378 0.4020 -2.5068 0.9752
5.5897 1.4194 -2.5134 0.9752
5.2605 2.3959 -2.5192 0.9751
5.0308 2.8587 -2.5218 0.9751
4.4499 3.7138 -2.5260 0.9750
3.3126 4.7675 -2.5301 0.9750
2.4133 5.2826 -2.5311 0.9750
1.4355 5.6266 -2.5307 0.9750
0.4121 5.7881 -2.5289 0.9750
-1.0865 5.4436 -2.4192 0.9761
-2.0329 5.1537 -2.4145 0.9761
-2.4820 4.9462 -2.4118 0.9761
-2.0827 3.3633 -1.7241 0.9829
-3.3134 4.4151 -2.4058 0.9762
-3.6892 4.0962 -2.4025 0.9762
-4.3461 3.3654 -2.3956 0.9763
-4.6222 2.9597 -2.3920 0.9763
-5.2171 1.6222 -2.3811 0.9764
-5.4361 0.1815 -2.3705 0.9765
-5.2689 -1.2598 -2.3610 0.9766
-5.1293 -1.7229 -2.3582 0.9767
-4.9496 -2.1714 -2.3556 0.9767
-4.4763 -3.0110 -2.3511 0.9767
-4.3674 -3.5426 -2.4508 0.9758
-4.0311 -3.9157 -2.4492 0.9758
-3.6636 -4.2575 -2.4479 0.9758
-1.9408 -5.2657 -2.4458 0.9758
-1.4633 -5.4186 -2.4461 0.9758
-0.9742 -5.5289 -2.4467 0.9758
1.0242 -5.5330 -2.4524 0.9757
1.5152 -5.4243 -2.4545 0.9757
1.9952 -5.2726 -2.4569 0.9757
2.4605 -5.0790 -2.4596 0.9757
2.9073 -4.8448 -2.4625 0.9756
3.7319 -4.2618 -2.4688 0.9756
4.1031 -3.9172 -2.4723 0.9756
4.5818 -3.0249 -2.3928 0.9763
4.8081 -2.5903 -2.3802 0.9765
5.3513 -1.2308 -2.3931 0.9763
5.7348 -0.2716 -2.5021 0.9753
5.7077 0.7542 -2.5091 0.9752
5.4966 1.7613 -2.5155 0.9751
5.3235 2.2474 -2.5184 0.9751
5.1071 2.7163 -2.5210 0.9751
3.8456 4.3447 -2.5287 0.9750
3.4440 4.6726 -2.5298 0.9750
0.0560 5.8003 -2.5280 0.9750
-0.4549 5.6944 -2.4896 0.9754
-0.9343 5.4732 -2.4198 0.9761
-1.4178 5.3633 -2.4177 0.9761
-2.3437 5.0154 -2.4127 0.9761
-3.1902 4.5078 -2.4068 0.9762
-3.9299 3.8583 -2.4002 0.9763
-4.5398 3.0890 -2.3931 0.9763
-5.3878 0.8180 -2.3750 0.9765
-5.4314 0.3334 -2.3715 0.9765
-5.4317 -0.1524 -2.3682 0.9766
-5.0100 -2.0331 -2.3564 0.9767
-4.2996 -3.2929 -2.3603 0.9766
-4.1397 -3.8023 -2.4497 0.9758
-3.7817 -4.1542 -2.4483 0.9758
-2.9806 -4.7566 -2.4464 0.9758
-2.0871 -5.2095 -2.4458 0.9758
-0.6330 -5.5797 -2.4473 0.9758
-0.1326 -5.6166 -2.4485 0.9758
0.3694 -5.6094 -2.4500 0.9758
1.3628 -5.4629 -2.4538 0.9757
2.3169 -5.1439 -2.4587 0.9757
3.6099 -4.3625 -2.4678 0.9756
3.9903 -4.0284 -2.4712 0.9756
4.3112 -3.6371 -2.4582 0.9757
4.5176 -3.1671 -2.4045 0.9762
4.7317 -2.7222 -2.3791 0.9765
4.9633 -2.2926 -2.3827 0.9764
5.1560 -1.8433 -2.3863 0.9764
5.6803 -0.4283 -2.4826 0.9755
5.7241 0.5943 -2.5081 0.9752
5.6557 1.1042 -2.5114 0.9752
5.5415 1.6066 -2.5145 0.9751
4.9339 3.0267 -2.5226 0.9751
4.6481 3.4580 -2.5248 0.9750
4.3241 3.8618 -2.5267 0.9750
3.5727 4.5741 -2.5295 0.9750
3.1514 4.8764 -2.5304 0.9750
2.7042 5.1393 -2.5309 0.9750
2.2349 5.3605 -2.5311 0.9750
1.7476 5.5383 -2.5310 0.9750
0.7347 5.7576 -2.5296 0.9750
0.2179 5.7975 -2.5284 0.9750
-0.3001 5.7904 -2.5269 0.9750
-1.2678 5.4023 -2.4184 0.9761
-2.2036 5.0806 -2.4135 0.9761
-1.8985 3.4867 -1.7302 0.9828
-3.0643 4.5969 -2.4077 0.9762
-3.4578 4.2995 -2.4046 0.9762
-3.8223 3.9682 -2.4012 0.9762
-4.9397 2.3660 -2.3870 0.9764
-5.1233 1.9127 -2.3833 0.9764
-5.2655 1.4457 -2.3797 0.9765
-5.3654 0.9685 -2.3761 0.9765
-5.4070 -0.4852 -2.3659 0.9766
-5.3351 -0.9645 -2.3628 0.9766
-5.2213 -1.4350 -2.3599 0.9766
-5.0665 -1.8930 -2.3572 0.9767
-4.6399 -2.7580 -2.3524 0.9767
-4.3715 -3.1584 -2.3504 0.9767
-3.8968 -4.0476 -2.4487 0.9758
-3.5183 -4.3771 -2.4475 0.9758
-1.7633 -5.3280 -2.4459 0.9758
-1.2810 -5.4650 -2.4463 0.9758
-0.7885 -5.5592 -2.4470 0.9758
-0.2893 -5.6098 -2.4481 0.9758
0.2126 -5.6164 -2.4495 0.9758
1.2094 -5.4973 -2.4531 0.9757
1.6967 -5.3724 -2.4554 0.9757
2.1716 -5.2048 -2.4579 0.9757
2.6304 -4.9959 -2.4606 0.9757
3.4853 -4.4598 -2.4668 0.9756
3.8746 -4.1365 -2.4701 0.9756
4.4523 -3.3104 -2.4180 0.9761
4.8950 -2.4291 -2.3815 0.9764
5.7437 -0.0794 -2.5035 0.9752
5.5821 1.4506 -2.5136 0.9751
5.0150 2.8870 -2.5219 0.9751
3.6985 4.4719 -2.5291 0.9750
3.2860 4.7860 -2.5301 0.9750
2.8465 5.0615 -2.5308 0.9750
2.3837 5.2960 -2.5311 0.9750
1.4041 5.6344 -2.5307 0.9750
0.3798 5.7901 -2.5288 0.9750
-0.1384 5.7976 -2.5274 0.9750
-1.1168 5.4371 -2.4191 0.9761
-1.5961 5.3109 -2.4168 0.9761
-2.0616 5.1419 -2.4143 0.9761
-2.1111 3.3670 -1.7320 0.9828
-3.7117 4.0752 -2.4023 0.9762
-4.3644 3.3408 -2.3954 0.9763
-4.8740 2.5041 -2.3881 0.9764
-5.0703 2.0560 -2.3845 0.9764
-5.4092 0.6366 -2.3737 0.9765
-5.4208 -0.3341 -2.3670 0.9766
-4.9371 -2.1989 -2.3554 0.9767
-4.4591 -3.0358 -2.3510 0.9767
-4.3473 -3.5668 -2.4507 0.9758
-3.2421 -4.5836 -2.4468 0.9758
-1.9114 -5.2765 -2.4458 0.9758
-0.9433 -5.5344 -2.4468 0.9758
0.0556 -5.6191 -2.4490 0.9758
1.0552 -5.5275 -2.4525 0.9757
2.0248 -5.2617 -2.4571 0.9757
2.9346 -4.8289 -2.4627 0.9756
4.1253 -3.8946 -2.4725 0.9755
4.3880 -3.4571 -2.4346 0.9759
4.8230 -2.5636 -2.3804 0.9764
5.0402 -2.1262 -2.3841 0.9764
5.5520 -0.7322 -2.4406 0.9759
5.7367 -0.2397 -2.5023 0.9753
5.7038 0.7862 -2.5093 0.9752
5.3113 2.2772 -2.5185 0.9751
5.0921 2.7450 -2.5211 0.9751
4.8313 3.1914 -2.5235 0.9751
4.5310 3.6128 -2.5255 0.9750
3.8214 4.3663 -2.5287 0.9750
2.9865 4.9797 -2.5306 0.9750
1.5609 5.5934 -2.5308 0.9750
-0.9076 5.1435 -2.4176 0.9772
-1.8043 4.8915 -2.4133 0.9773
-3.7186 3.6102 -2.3991 0.9774
-4.0205 3.2595 -2.3958 0.9774
-4.5230 2.4858 -2.3890 0.9775
-4.9983 1.1938 -2.3787 0.9776
-5.0777 0.7419 -2.3754 0.9776
-5.1149 -0.1721 -2.3689 0.9777
-4.9904 -1.0760 -2.3630 0.9777
-4.2811 -2.7429 -2.3535 0.9778
-4.1898 -3.2462 -2.4534 0.9769
-3.8809 -3.6048 -2.4518 0.9769
-3.5418 -3.9346 -2.4505 0.9769
-3.1752 -4.2332 -2.4495 0.9769
-2.3710 -4.7280 -2.4483 0.9770
-1.9395 -4.9206 -2.4482 0.9770
-1.0342 -5.1885 -2.4489 0.9770
-0.5672 -5.2618 -2.4497 0.9769
-0.0954 -5.2938 -2.4508 0.9769
0.3776 -5.2843 -2.4523 0.9769
1.3130 -5.1406 -2.4559 0.9769
2.6356 -4.6229 -2.4632 0.9768
3.4236 -4.0906 -2.4691 0.9768
3.7799 -3.7736 -2.4723 0.9767
4.6638 -2.6486 -2.4826 0.9766
4.8886 -2.2250 -2.4862 0.9766
5.0749 -1.7824 -2.4898 0.9766
5.2213 -1.3243 -2.4934 0.9765
5.3887 -0.3761 -2.5004 0.9765
5.3840 0.5894 -2.5071 0.9764
5.3165 1.0689 -2.5102 0.9764
4.8594 2.4470 -2.5184 0.9763
4.6258 2.8735 -2.5207 0.9763
4.3544 3.2774 -2.5227 0.9763
4.0474 3.6555 -2.5245 0.9762
3.7071 4.0044 -2.5259 0.9762
2.5165 4.8480 -2.5284 0.9762
2.0739 5.0536 -2.5285 0.9762
0.6608 5.4192 -2.5271 0.9762
-0.3128 5.4449 -2.5245 0.9762
-0.7638 5.1680 -2.4182 0.9772
-1.2210 5.0752 -2.4163 0.9773
-1.6676 4.9415 -2.4141 0.9773
-2.0998 4.7682 -2.4116 0.9773
-1.9070 3.4562 -1.8272 0.9828
-3.2763 4.0275 -2.4032 0.9774
-4.9652 1.3335 -2.3798 0.9776
-5.0573 0.8838 -2.3764 0.9776
-5.1089 0.4283 -2.3731 0.9777
-5.1198 -0.0292 -2.3699 0.9777
-4.9110 -1.3793 -2.3612 0.9778
-4.7631 -1.8100 -2.3586 0.9778
-4.3572 -2.6230 -2.3541 0.9778
-4.1923 -3.0646 -2.4038 0.9774
-3.9808 -3.4957 -2.4523 0.9769
-3.2926 -4.1434 -2.4497 0.9769
-1.6338 -5.0306 -2.4483 0.9770
-1.1785 -5.1572 -2.4487 0.9770
0.2299 -5.2918 -2.4518 0.9769
0.7017 -5.2536 -2.4534 0.9769
1.1686 -5.1739 -2.4553 0.9769
1.6271 -5.0534 -2.4574 0.9769
3.3068 -4.1829 -2.4682 0.9768
3.6716 -3.8761 -2.4713 0.9767
4.5860 -2.7765 -2.4815 0.9766
5.0209 -1.9226 -2.4887 0.9766
5.2979 -1.0022 -2.4958 0.9765
5.3737 -0.5262 -2.4993 0.9765
5.2452 1.3944 -2.5122 0.9764
5.1055 1.8590 -2.5151 0.9763
4.9243 2.3096 -2.5177 0.9763
4.7030 2.7424 -2.5200 0.9763
4.4432 3.1538 -2.5221 0.9763
4.1470 3.5403 -2.5240 0.9763
3.4554 4.2258 -2.5267 0.9762
2.2142 4.9937 -2.5285 0.9762
1.7597 5.1712 -2.5285 0.9762
1.2910 5.3068 -2.5281 0.9762
0.8120 5.3993 -2.5274 0.9762
0.3268 5.4480 -2.5263 0.9762
-0.1606 5.4525 -2.5250 0.9762
-1.0791 5.1087 -2.4169 0.9772
-1.5294 4.9876 -2.4148 0.9773
-2.3868 4.6268 -2.4099 0.9773
-2.1416 3.3737 -1.8497 0.9825
-3.5142 3.8154 -2.4011 0.9774
-4.1252 3.1213 -2.3945 0.9775
-4.3811 2.7369 -2.3911 0.9775
-4.9283 1.4722 -2.3808 0.9776
-5.0971 0.5711 -2.3741 0.9776
-5.0464 -0.7963 -2.3648 0.9777
-4.9493 -1.2421 -2.3620 0.9778
-4.8134 -1.6769 -2.3594 0.9778
-4.4299 -2.5010 -2.3548 0.9778
-4.1856 -2.8839 -2.3528 0.9778
-4.0777 -3.3838 -2.4528 0.9769
-3.7571 -3.7320 -2.4513 0.9769
-3.4074 -4.0504 -2.4501 0.9769
-3.0312 -4.3367 -2.4491 0.9769
-2.6315 -4.5887 -2.4485 0.9770
-2.2112 -4.8047 -2.4482 0.9770
-1.7736 -4.9829 -2.4482 0.9770
-1.3220 -5.1219 -2.4486 0.9770
-0.3906 -5.2787 -2.4501 0.9769
1.0234 -5.2032 -2.4546 0.9769
1.4849 -5.0954 -2.4567 0.9769
1.9355 -4.9472 -2.4590 0.9769
2.7902 -4.5340 -2.4643 0.9768
3.1875 -4.2720 -2.4672 0.9768
3.5605 -3.9755 -2.4703 0.9768
5.1346 -1.6123 -2.4911 0.9766
5.3546 -0.6757 -2.4982 0.9765
5.4041 0.2877 -2.5050 0.9764
5.3638 0.7698 -2.5083 0.9764
5.2801 1.2470 -2.5113 0.9764
4.2433 3.4224 -2.5234 0.9763
3.1903 4.4312 -2.5274 0.9762
2.3527 4.9298 -2.5285 0.9762
0.9625 5.3751 -2.5276 0.9762
-0.4949 5.4300 -2.5239 0.9763
-0.9363 5.1381 -2.4175 0.9772
-1.3899 5.0298 -2.4155 0.9773
-2.2574 4.6933 -2.4107 0.9773
-3.0487 4.2074 -2.4051 0.9774
-4.3049 2.8594 -2.3922 0.9775
-4.7311 2.0427 -2.3853 0.9775
-4.8874 1.6100 -2.3819 0.9776
-5.0045 1.1657 -2.3785 0.9776
-5.0814 0.7135 -2.3752 0.9776
-5.1177 0.2568 -2.3719 0.9777
-5.1134 -0.2007 -2.3687 0.9777
-5.0686 -0.6554 -2.3657 0.9777
-4.9839 -1.1038 -2.3629 0.9778
-4.8600 -1.5424 -2.3602 0.9778
-4.2743 -2.2581 -2.2376 0.9789
-4.2763 -2.7737 -2.3594 0.9778
-4.1715 -3.2694 -2.4533 0.9769
-3.5197 -3.9542 -2.4504 0.9769
-2.7587 -4.5138 -2.4487 0.9770
-2.3445 -4.7412 -2.4483 0.9770
-1.9120 -4.9313 -2.4482 0.9770
-1.4644 -5.0827 -2.4484 0.9770
-1.0052 -5.1943 -2.4490 0.9769
-0.0658 -5.2945 -2.4509 0.9769
0.8775 -5.2285 -2.4541 0.9769
1.3417 -5.1335 -2.4560 0.9769
3.0658 -4.3577 -2.4663 0.9768
3.4467 -4.0717 -2.4693 0.9768
4.1265 -3.4032 -2.4759 0.9767
4.4199 -3.0255 -2.4793 0.9767
4.6789 -2.6227 -2.4829 0.9766
5.3911 -0.3460 -2.5006 0.9765
5.3811 0.6195 -2.5073 0.9764
5.3109 1.0986 -2.5104 0.9764
4.8459 2.4742 -2.5186 0.9763
4.6100 2.8994 -2.5208 0.9763
4.3363 3.3019 -2.5228 0.9763
4.0270 3.6782 -2.5246 0.9762
3.3124 4.3399 -2.5271 0.9762
2.9128 4.6196 -2.5279 0.9762
1.5854 5.2271 -2.5284 0.9762
1.1123 5.3466 -2.5278 0.9762
-0.3431 5.4428 -2.5244 0.9762
-1.2493 5.0680 -2.4161 0.9773
-1.9181 3.4310 -1.8195 0.9828
-3.2984 4.0088 -2.4030 0.9774
-3.6383 3.6936 -2.3999 0.9774
-3.9480 3.3496 -2.3966 0.9774
-4.2253 2.9798 -2.3933 0.9775
-4.8428 1.7466 -2.3830 0.9776
-5.1191 -0.0578 -2.3697 0.9777
-4.7526 -1.8365 -2.3585 0.9778
-4.5653 -2.2511 -2.3561 0.9778
-4.2148 -3.1173 -2.4266 0.9772
-3.6293 -3.8550 -2.4508 0.9769
-2.0489 -4.8760 -2.4482 0.9770
-1.6057 -5.0396 -2.4483 0.9770
-0.6845 -5.2473 -2.4495 0.9769
1.6554 -5.0445 -2.4575 0.9769
2.5309 -4.6794 -2.4625 0.9768
3.6935 -3.8559 -2.4715 0.9767
4.3318 -3.1464 -2.4782 0.9767
4.6018 -2.7511 -2.4817 0.9766
5.1885 -1.4401 -2.4925 0.9765
5.3039 -0.9727 -2.4960 0.9765
5.3375 0.9496 -2.5094 0.9764
5.2377 1.4238 -2.5124 0.9764
5.0954 1.8876 -2.5152 0.9763
4.9117 2.3372 -2.5178 0.9763
4.6878 2.7688 -2.5202 0.9763
4.1274 3.5636 -2.5241 0.9763
3.7952 3.9201 -2.5256 0.9762
3.4318 4.2452 -2.5268 0.9762
2.6240 4.7904 -2.5283 0.9762
1.7307 5.1810 -2.5285 0.9762
1.2613 5.3139 -2.5280 0.9762
0.7818 5.4036 -2.5273 0.9762
-0.1911 5.4513 -2.5249 0.9762
-0.6552 5.2396 -2.4442 0.9770
-1.5571 4.9787 -2.4146 0.9773
