ply
format ascii 1.0
element vertex 1594
property float32 x
property float32 y
property float32 z
property float32 I
end_header
4.7575 -3.1227 -2.4801 0.9755
5.0207 -2.6879 -2.4819 0.9755
5.4265 -1.7557 -2.4856 0.9754
5.5657 -1.2656 -2.4875 0.9754
5.7108 -0.2570 -2.4914 0.9754
5.7153 0.2536 -2.4933 0.9753
5.6741 0.7629 -2.4951 0.9753
5.5875 1.2669 -2.4969 0.9753
5.4560 1.7614 -2.4987 0.9753
5.2807 2.2426 -2.5003 0.9753
5.0628 2.7063 -2.5019 0.9753
4.4915 3.5550 -2.4964 0.9753
4.0043 3.7972 -2.4050 0.9762
3.6469 4.1360 -2.4032 0.9762
3.2646 4.4465 -2.4041 0.9762
2.4240 4.9586 -2.4054 0.9762
1.9725 5.1559 -2.4059 0.9762
1.5049 5.3119 -2.4061 0.9762
1.0251 5.4252 -2.4062 0.9762
0.5371 5.4949 -2.4062 0.9762
-1.4172 5.3315 -2.4043 0.9762
-1.8865 5.1821 -2.4034 0.9762
-3.2023 4.5135 -2.4119 0.9761
-4.7408 3.2189 -2.4974 0.9753
-5.2297 2.3220 -2.4937 0.9753
-5.4118 1.8448 -2.4918 0.9754
-5.5505 1.3537 -2.4899 0.9754
-5.6978 -0.1637 -2.4842 0.9754
-5.6562 -0.6707 -2.4824 0.9755
-5.2659 -2.1398 -2.4772 0.9755
-5.0508 -2.5993 -2.4756 0.9755
-4.7960 -3.0376 -2.4742 0.9755
-4.5035 -3.4515 -2.4728 0.9755
-4.0179 -3.6925 -2.3782 0.9765
-3.6568 -4.0189 -2.3680 0.9766
-3.2825 -4.3274 -2.3671 0.9766
-2.4600 -4.8390 -2.3658 0.9766
-2.0182 -5.0382 -2.3653 0.9766
-1.5606 -5.1975 -2.3651 0.9766
-1.0907 -5.3157 -2.3649 0.9766
-0.6123 -5.3919 -2.3650 0.9766
0.8374 -5.3639 -2.3660 0.9766
1.3129 -5.2694 -2.3667 0.9766
1.7783 -5.1330 -2.3675 0.9766
2.6643 -4.7395 -2.3695 0.9766
3.0780 -4.4852 -2.3707 0.9765
3.6179 -4.3767 -2.4748 0.9755
3.9962 -4.0390 -2.4763 0.9755
4.3433 -3.6689 -2.4779 0.9755
5.3675 -1.9239 -2.4850 0.9754
5.5220 -1.4385 -2.4869 0.9754
5.6229 1.0914 -2.4963 0.9753
5.5071 1.5897 -2.4981 0.9753
5.3470 2.0760 -2.4998 0.9753
5.1438 2.5463 -2.5014 0.9753
4.8991 2.9967 -2.5029 0.9753
4.1154 3.6652 -2.4017 0.9762
3.0018 4.6294 -2.4046 0.9762
2.1325 5.0915 -2.4057 0.9762
1.6701 5.2621 -2.4060 0.9762
0.2174 5.5164 -2.4060 0.9762
-0.2755 5.5131 -2.4057 0.9762
-2.1834 5.0625 -2.4028 0.9762
-2.6250 4.8454 -2.4017 0.9762
-3.0452 4.5896 -2.4005 0.9763
-3.4867 4.3549 -2.4313 0.9760
-4.3232 3.7692 -2.4997 0.9753
-4.6390 3.3663 -2.4980 0.9753
-5.1559 2.4849 -2.4944 0.9753
-5.3530 2.0136 -2.4925 0.9754
-5.7016 0.0145 -2.4849 0.9754
-5.6759 -0.4938 -2.4830 0.9754
-5.6052 -0.9974 -2.4812 0.9755
-5.3314 -1.9746 -2.4778 0.9755
-5.1307 -2.4407 -2.4762 0.9755
-4.8896 -2.8869 -2.4747 0.9755
-4.6100 -3.3097 -2.4733 0.9755
-4.2412 -3.6600 -2.4415 0.9759
-2.1747 -4.9730 -2.3655 0.9766
-1.7223 -5.1464 -2.3651 0.9766
-0.7804 -5.3700 -2.3649 0.9766
0.6694 -5.3871 -2.3658 0.9766
1.1475 -5.3072 -2.3664 0.9766
2.9427 -4.5891 -2.3759 0.9765
3.8672 -4.1610 -2.4757 0.9755
4.2256 -3.8019 -2.4773 0.9755
4.5509 -3.4122 -2.4789 0.9755
4.8405 -2.9947 -2.4807 0.9755
5.7169 -0.1038 -2.4919 0.9754
5.7077 0.4068 -2.4938 0.9753
5.4079 1.9075 -2.4992 0.9753
5.2197 2.3838 -2.5008 0.9753
3.5352 4.2328 -2.4035 0.9762
3.1446 4.5328 -2.4043 0.9762
1.8336 5.2072 -2.4060 0.9762
1.3620 5.3504 -2.4062 0.9762
0.8793 5.4507 -2.4062 0.9762
0.3897 5.5072 -2.4061 0.9762
-0.1031 5.5193 -2.4058 0.9762
-0.5949 5.4871 -2.4054 0.9762
-1.5595 5.2911 -2.4040 0.9762
-2.0245 5.1290 -2.4031 0.9762
-2.4728 4.9258 -2.4021 0.9762
-3.3052 4.4035 -2.3996 0.9763
-3.8418 4.2655 -2.5018 0.9753
-4.2043 3.9033 -2.5002 0.9753
-4.8243 3.0900 -2.4968 0.9753
-5.2888 2.1804 -2.4932 0.9753
-5.4581 1.6987 -2.4913 0.9754
-5.6644 0.7008 -2.4874 0.9754
-5.3917 -1.8075 -2.4783 0.9755
-4.4088 -3.5704 -2.4725 0.9755
-3.1650 -4.4134 -2.3669 0.9766
-2.7579 -4.6767 -2.3662 0.9766
-1.4206 -5.2373 -2.3650 0.9766
-0.9479 -5.3430 -2.3649 0.9766
-0.4675 -5.4064 -2.3650 0.9766
0.0166 -5.4271 -2.3652 0.9766
0.5007 -5.4049 -2.3656 0.9766
1.4538 -5.2328 -2.3669 0.9766
1.9155 -5.0841 -2.3678 0.9766
4.7434 -3.1437 -2.4801 0.9755
5.0085 -2.7101 -2.4818 0.9755
5.2341 -2.2542 -2.4837 0.9754
5.4184 -1.7797 -2.4855 0.9754
5.5598 -1.2903 -2.4875 0.9754
5.6772 0.7377 -2.4950 0.9753
5.5929 1.2420 -2.4968 0.9753
5.4636 1.7371 -2.4986 0.9753
4.8179 3.1275 -2.5033 0.9752
3.6651 4.1197 -2.4031 0.9762
3.2844 4.4318 -2.4040 0.9762
2.8768 4.7086 -2.4048 0.9762
1.5285 5.3052 -2.4061 0.9762
1.0492 5.4206 -2.4062 0.9762
0.5615 5.4924 -2.4062 0.9762
-0.4232 5.5034 -2.4056 0.9762
-0.9122 5.4425 -2.4050 0.9762
-1.3936 5.3379 -2.4043 0.9762
-2.7536 4.7726 -2.4013 0.9762
-4.4219 3.6512 -2.4992 0.9753
-4.7266 3.2400 -2.4974 0.9753
-4.9932 2.8035 -2.4957 0.9753
-5.4038 1.8689 -2.4919 0.9754
-5.5447 1.3785 -2.4900 0.9754
-5.6412 0.8777 -2.4881 0.9754
-5.6926 0.3708 -2.4862 0.9754
-5.6594 -0.6456 -2.4825 0.9755
-5.5752 -1.1470 -2.4807 0.9755
-5.2755 -2.1164 -2.4773 0.9755
-5.0625 -2.5769 -2.4757 0.9755
-4.8096 -3.0164 -2.4742 0.9755
-4.0483 -3.6874 -2.3865 0.9764
-3.6747 -4.0027 -2.3681 0.9766
-3.3018 -4.3129 -2.3672 0.9766
-1.5836 -5.1905 -2.3651 0.9766
-1.1143 -5.3108 -2.3649 0.9766
-0.1530 -5.4248 -2.3651 0.9766
0.3315 -5.4176 -2.3655 0.9766
0.8136 -5.3675 -2.3660 0.9766
1.7554 -5.1408 -2.3675 0.9766
2.2079 -4.9657 -2.3684 0.9766
2.6432 -4.7511 -2.3695 0.9766
3.5983 -4.3926 -2.4747 0.9755
3.9781 -4.0566 -2.4762 0.9755
4.3269 -3.6880 -2.4778 0.9755
4.6417 -3.2896 -2.4795 0.9755
4.9201 -2.8645 -2.4812 0.9755
5.3587 -1.9476 -2.4849 0.9754
5.5153 -1.4630 -2.4868 0.9754
5.6281 -0.9660 -2.4887 0.9754
5.6962 -0.4605 -2.4906 0.9754
5.6961 0.5598 -2.4944 0.9753
5.6276 1.0664 -2.4962 0.9753
5.5139 1.5652 -2.4980 0.9753
5.1549 2.5233 -2.5013 0.9753
4.9122 2.9749 -2.5028 0.9753
4.1316 3.6468 -2.4017 0.9762
3.4208 4.3265 -2.4037 0.9762
2.5992 4.8685 -2.4052 0.9762
1.6934 5.2546 -2.4060 0.9762
0.7329 5.4723 -2.4062 0.9762
0.2419 5.5155 -2.4060 0.9762
-0.2510 5.5143 -2.4057 0.9762
-0.7417 5.4688 -2.4052 0.9762
-1.2262 5.3794 -2.4046 0.9762
-2.1609 5.0723 -2.4028 0.9762
-3.0249 4.6032 -2.4005 0.9763
-3.9541 4.1602 -2.5014 0.9753
-4.3066 3.7885 -2.4998 0.9753
-4.9044 2.9589 -2.4963 0.9753
-5.3442 2.0374 -2.4926 0.9754
-5.5004 1.5515 -2.4907 0.9754
-5.7017 0.0398 -2.4850 0.9754
-5.6097 -0.9725 -2.4813 0.9755
-5.4967 -1.4679 -2.4795 0.9755
-5.1416 -2.4180 -2.4762 0.9755
-3.0453 -4.4962 -2.3667 0.9766
-2.6313 -4.7486 -2.3660 0.9766
-1.7451 -5.1387 -2.3652 0.9766
-0.8043 -5.3665 -2.3649 0.9766
0.1621 -5.4250 -2.3654 0.9766
1.5938 -5.1925 -2.3672 0.9766
2.0513 -5.0315 -2.3680 0.9766
2.4930 -4.8306 -2.3691 0.9766
3.3967 -4.4215 -2.4299 0.9760
3.8486 -4.1780 -2.4756 0.9755
4.8270 -3.0161 -2.4806 0.9755
5.4654 -1.6342 -2.4861 0.9754
5.5588 1.3918 -2.4974 0.9753
5.4162 1.8833 -2.4991 0.9753
5.2301 2.3605 -2.5007 0.9753
5.0017 2.8193 -2.5023 0.9753
2.7498 4.7845 -2.4050 0.9762
2.3126 5.0118 -2.4055 0.9762
1.3858 5.3443 -2.4062 0.9762
0.4141 5.5054 -2.4061 0.9762
-0.0786 5.5198 -2.4059 0.9762
-0.5705 5.4898 -2.4054 0.9762
-1.0576 5.4156 -2.4048 0.9762
-1.5360 5.2981 -2.4041 0.9762
-2.4509 4.9369 -2.4021 0.9762
-2.8801 4.6963 -2.4010 0.9762
-3.8229 4.2826 -2.5019 0.9753
-4.8107 3.1115 -2.4969 0.9753
-5.0654 2.6681 -2.4951 0.9753
-5.6388 -0.7969 -2.4819 0.9755
-5.5413 -1.2958 -2.4801 0.9755
-5.3999 -1.7836 -2.4784 0.9755
-5.2158 -2.2567 -2.4768 0.9755
-4.9907 -2.7112 -2.4753 0.9755
-4.4246 -3.5509 -2.4725 0.9755
-3.1846 -4.3994 -2.3669 0.9766
-2.3510 -4.8926 -2.3657 0.9766
-1.9049 -5.0819 -2.3653 0.9766
-0.4915 -5.4043 -2.3650 0.9766
1.8928 -5.0924 -2.3677 0.9766
2.7700 -4.6793 -2.3698 0.9766
3.7154 -4.2954 -2.4751 0.9755
4.0862 -3.9493 -2.4766 0.9755
4.4251 -3.5714 -2.4783 0.9755
4.9962 -2.7322 -2.4817 0.9755
5.5538 -1.3149 -2.4874 0.9754
5.6533 -0.8150 -2.4893 0.9754
5.7169 0.2028 -2.4931 0.9753
5.6803 0.7124 -2.4949 0.9753
5.5981 1.2171 -2.4968 0.9753
5.4711 1.7128 -2.4985 0.9753
5.3001 2.1954 -2.5002 0.9753
4.8316 3.1060 -2.5032 0.9752
4.5378 3.5265 -2.5046 0.9752
3.3039 4.4171 -2.4040 0.9762
0.5859 5.4899 -2.4062 0.9762
0.0939 5.5198 -2.4060 0.9762
-0.8880 5.4466 -2.4050 0.9762
-1.8404 5.1988 -2.4035 0.9762
-3.1467 4.5197 -2.4001 0.9763
-3.6603 4.3678 -2.4836 0.9754
-4.9808 2.8258 -2.4957 0.9753
-5.3956 1.8930 -2.4920 0.9754
-5.5387 1.4031 -2.4901 0.9754
-5.6911 0.3961 -2.4863 0.9754
-5.6624 -0.6205 -2.4825 0.9755
-5.4543 -1.6144 -2.4790 0.9755
-5.2850 -2.0930 -2.4773 0.9755
-5.0740 -2.5545 -2.4758 0.9755
-4.8231 -2.9951 -2.4743 0.9755
-4.0789 -3.6822 -2.3948 0.9763
-3.3209 -4.2982 -2.3672 0.9766
-2.9234 -4.5758 -2.3665 0.9766
-3.3023 4.2797 -2.5022 0.9765
-4.0056 3.6207 -2.4993 0.9765
-4.3098 3.2469 -2.4977 0.9765
-4.5793 2.8477 -2.4961 0.9765
-5.0054 1.9860 -2.4926 0.9765
-5.3410 0.5887 -2.4872 0.9766
-5.3683 0.1098 -2.4854 0.9766
-5.3529 -0.3692 -2.4837 0.9766
-5.2950 -0.8446 -2.4820 0.9766
-5.1951 -1.3126 -2.4803 0.9767
-5.0540 -1.7696 -2.4787 0.9767
-4.6537 -2.6363 -2.4758 0.9767
-3.7264 -3.7113 -2.4344 0.9771
-2.9255 -4.1964 -2.3679 0.9777
-1.7090 -4.8181 -2.3664 0.9777
-1.2724 -4.9509 -2.3662 0.9777
-0.3725 -5.0983 -2.3662 0.9777
0.0838 -5.1117 -2.3665 0.9777
0.5395 -5.0847 -2.3669 0.9777
1.8680 -4.7646 -2.3689 0.9777
3.5710 -3.9831 -2.4762 0.9767
4.2269 -3.2892 -2.4792 0.9767
5.3362 -0.6727 -2.4896 0.9766
5.3788 -0.1942 -2.4914 0.9766
5.2493 1.2393 -2.4966 0.9765
4.9519 2.1550 -2.4998 0.9765
4.7427 2.5897 -2.5013 0.9765
4.2115 3.3947 -2.5039 0.9764
3.7652 3.6345 -2.4223 0.9772
3.3976 3.9229 -2.4022 0.9774
2.6482 4.4670 -2.4037 0.9774
2.2397 4.6865 -2.4043 0.9774
1.8130 4.8684 -2.4047 0.9774
1.3717 5.0112 -2.4049 0.9774
-0.0039 5.1950 -2.4047 0.9774
-0.4672 5.1731 -2.4043 0.9774
-0.9265 5.1097 -2.4038 0.9774
-1.8185 4.8607 -2.4023 0.9774
-2.2440 4.6773 -2.4013 0.9774
-2.6538 4.4611 -2.4027 0.9774
-3.1186 4.3139 -2.4640 0.9768
-3.5439 4.0794 -2.5013 0.9765
-4.7347 2.5760 -2.4950 0.9765
-5.2365 1.2280 -2.4897 0.9766
-5.2348 -1.1499 -2.4809 0.9767
-5.1080 -1.6112 -2.4792 0.9767
-4.7347 -2.4901 -2.4762 0.9767
-4.4913 -2.9009 -2.4749 0.9767
-4.2125 -3.2882 -2.4736 0.9767
-3.4105 -3.8158 -2.3690 0.9777
-3.0555 -4.1034 -2.3681 0.9777
-2.6765 -4.3583 -2.3674 0.9777
-1.8588 -4.7625 -2.3665 0.9777
-1.4265 -4.9088 -2.3662 0.9777
-0.5316 -5.0840 -2.3662 0.9777
0.8337 -5.0456 -2.3672 0.9777
1.2808 -4.9525 -2.3678 0.9777
1.7180 -4.8201 -2.3686 0.9777
2.1419 -4.6494 -2.3695 0.9777
3.0638 -4.3805 -2.4744 0.9767
4.6692 -2.6357 -2.4819 0.9766
5.0703 -1.7667 -2.4854 0.9766
5.2115 -1.3083 -2.4872 0.9766
5.3688 -0.3621 -2.4908 0.9766
5.1707 1.5425 -2.4977 0.9765
4.8203 2.4397 -2.5008 0.9765
4.3148 3.2609 -2.5035 0.9764
3.1649 4.1145 -2.4028 0.9774
2.7862 4.3817 -2.4035 0.9774
2.3848 4.6139 -2.4041 0.9774
1.9642 4.8091 -2.4046 0.9774
1.0786 5.0825 -2.4050 0.9774
0.1584 5.1928 -2.4048 0.9774
-0.7665 5.1366 -2.4040 0.9774
-1.6660 4.9158 -2.4026 0.9774
-2.0970 4.7458 -2.4017 0.9774
-2.5109 4.5379 -2.4006 0.9774
-3.4154 4.1890 -2.5018 0.9765
-4.1005 3.5113 -2.4989 0.9765
-4.8739 2.2959 -2.4939 0.9765
-5.0557 1.8507 -2.4921 0.9765
-5.1969 1.3913 -2.4903 0.9766
-5.3682 -0.0341 -2.4849 0.9766
-5.3400 -0.5124 -2.4832 0.9766
-4.0134 -3.5261 -2.4729 0.9767
-3.5556 -3.7363 -2.3874 0.9775
-2.8117 -4.2729 -2.3677 0.9777
-2.4188 -4.5055 -2.3671 0.9777
-2.0069 -4.7024 -2.3666 0.9777
-1.5792 -4.8620 -2.3663 0.9777
-1.1392 -4.9831 -2.3661 0.9777
-0.6902 -5.0649 -2.3661 0.9777
-0.2357 -5.1066 -2.3663 0.9777
0.6756 -5.0688 -2.3670 0.9777
1.5663 -4.8708 -2.3683 0.9777
2.4180 -4.5359 -2.3793 0.9776
3.3139 -4.1967 -2.4752 0.9767
3.6771 -3.8866 -2.4766 0.9767
4.0115 -3.5453 -2.4781 0.9767
4.8165 -2.3614 -2.4830 0.9766
5.0114 -1.9238 -2.4847 0.9766
5.1667 -1.4702 -2.4865 0.9766
5.3535 -0.5295 -2.4901 0.9766
5.3832 -0.0499 -2.4919 0.9766
5.3701 0.4307 -2.4937 0.9765
5.2152 1.3799 -2.4971 0.9765
5.0746 1.8407 -2.4987 0.9765
4.8932 2.2874 -2.5003 0.9765
4.6724 2.7163 -2.5017 0.9765
3.6350 3.7020 -2.4016 0.9774
3.2915 4.0131 -2.4025 0.9774
2.9214 4.2921 -2.4033 0.9774
2.1133 4.7451 -2.4044 0.9774
-1.9480 4.8097 -2.4020 0.9774
-2.3682 4.6148 -2.4010 0.9774
-3.2834 4.2945 -2.5023 0.9765
-3.9896 3.6386 -2.4994 0.9765
-4.9967 2.0083 -2.4927 0.9765
-5.2664 1.0869 -2.4891 0.9766
-5.3547 -0.3454 -2.4838 0.9766
-5.2989 -0.8211 -2.4820 0.9766
-5.2010 -1.2896 -2.4804 0.9767
-4.8830 -2.1904 -2.4773 0.9767
-4.1222 -3.3995 -2.4733 0.9767
-2.9442 -4.1834 -2.3679 0.9777
-2.5586 -4.4281 -2.3673 0.9777
-2.1529 -4.6377 -2.3667 0.9777
-1.2944 -4.9452 -2.3662 0.9777
0.5169 -5.0870 -2.3668 0.9777
1.4132 -4.9168 -2.3681 0.9777
1.8468 -4.7728 -2.3689 0.9777
2.2660 -4.5909 -2.3698 0.9777
2.6677 -4.3725 -2.3709 0.9777
3.5531 -3.9988 -2.4761 0.9767
3.8979 -3.6681 -2.4776 0.9767
4.2121 -3.3079 -2.4791 0.9767
4.4934 -2.9209 -2.4807 0.9767
4.7392 -2.5102 -2.4824 0.9766
5.2458 -1.1684 -2.4877 0.9766
5.3330 -0.6964 -2.4895 0.9766
5.3777 -0.2181 -2.4913 0.9766
5.3796 0.2627 -2.4931 0.9765
5.2545 1.2160 -2.4965 0.9765
5.1285 1.6809 -2.4982 0.9765
4.9612 2.1330 -2.4997 0.9765
4.7540 2.5685 -2.5012 0.9765
4.2264 3.3759 -2.5038 0.9764
3.7939 3.6297 -2.4304 0.9771
2.6679 4.4552 -2.4037 0.9774
2.2604 4.6764 -2.4043 0.9774
1.8346 4.8602 -2.4047 0.9774
1.3940 5.0050 -2.4049 0.9774
0.9420 5.1096 -2.4050 0.9774
0.4825 5.1731 -2.4049 0.9774
0.0191 5.1950 -2.4047 0.9774
-0.4442 5.1752 -2.4043 0.9774
-0.9038 5.1138 -2.4038 0.9774
-1.3560 5.0114 -2.4031 0.9774
-2.6313 4.4683 -2.4003 0.9774
-3.8748 3.7622 -2.4999 0.9765
-4.4759 3.0101 -2.4968 0.9765
-4.9327 2.1639 -2.4933 0.9765
-5.1025 1.7141 -2.4916 0.9766
-5.3625 0.3015 -2.4862 0.9766
-5.2400 -1.1267 -2.4810 0.9767
-5.1153 -1.5885 -2.4793 0.9767
-4.7458 -2.4691 -2.4763 0.9767
-4.2272 -3.2696 -2.4737 0.9767
-3.9169 -3.6319 -2.4726 0.9767
-2.6959 -4.3464 -2.3675 0.9777
-2.2970 -4.5685 -2.3669 0.9777
-1.8800 -4.7543 -2.3665 0.9777
-0.5541 -5.0816 -2.3662 0.9777
-0.0987 -5.1112 -2.3663 0.9777
0.3576 -5.1004 -2.3667 0.9777
0.8113 -5.0492 -2.3672 0.9777
2.5294 -4.4529 -2.3705 0.9777
3.0386 -4.3859 -2.4698 0.9768
3.4257 -4.1071 -2.4756 0.9767
4.1058 -3.4371 -2.4786 0.9767
4.8791 -2.2320 -2.4835 0.9766
5.2054 -1.3314 -2.4871 0.9766
5.3669 -0.3859 -2.4907 0.9766
4.5987 2.8411 -2.5021 0.9765
3.5349 3.7986 -2.4019 0.9774
3.1831 4.1003 -2.4027 0.9774
2.4053 4.6032 -2.4041 0.9774
0.6439 5.1556 -2.4050 0.9774
-0.2823 5.1869 -2.4045 0.9774
-1.1989 5.0519 -2.4034 0.9774
-2.8852 4.3067 -2.3995 0.9774
-3.3968 4.2042 -2.5019 0.9765
-4.6410 2.7441 -2.4957 0.9765
-5.1909 1.4145 -2.4904 0.9766
-5.3518 0.4690 -2.4868 0.9766
-5.3685 -0.0103 -2.4850 0.9766
-5.3424 -0.4887 -2.4832 0.9766
-5.2739 -0.9626 -2.4815 0.9766
-4.0291 -3.5083 -2.4729 0.9767
-3.5830 -3.7317 -2.3947 0.9775
-3.2004 -3.9922 -2.3684 0.9777
-2.0277 -4.6935 -2.3666 0.9777
-1.6008 -4.8550 -2.3663 0.9777
-1.1613 -4.9780 -2.3661 0.9777
-0.7127 -5.0618 -2.3661 0.9777
0.1981 -5.1088 -2.3665 0.9777
0.6531 -5.0717 -2.3670 0.9777
1.1031 -4.9944 -2.3676 0.9777
2.3917 -4.5349 -2.3732 0.9777
2.8283 -4.3679 -2.4087 0.9773
3.2951 -4.2113 -2.4752 0.9767
3.6597 -3.9028 -2.4765 0.9767
4.3001 -3.1944 -2.4796 0.9767
4.5710 -2.8000 -2.4812 0.9766
4.8057 -2.3827 -2.4829 0.9766
5.0026 -1.9460 -2.4847 0.9766
5.1600 -1.4930 -2.4864 0.9766
5.2764 -1.0276 -2.4882 0.9766
5.3509 -0.5533 -2.4900 0.9766
5.3177 0.8850 -2.4953 0.9765
5.0826 1.8181 -2.4986 0.9765
4.1351 3.4885 -2.5042 0.9764
3.3093 3.9983 -2.4025 0.9774
2.9404 4.2790 -2.4032 0.9774
2.1344 4.7356 -2.4044 0.9774
1.7038 4.9079 -2.4048 0.9774
0.8047 5.1330 -2.4050 0.9774
-0.1201 5.1934 -2.4046 0.9774
-0.5828 5.1611 -2.4042 0.9774
-1.9266 4.8184 -2.4020 0.9774
-2.7496 4.3955 -2.3999 0.9774
-3.9735 3.6563 -2.4995 0.9765
-4.2811 3.2853 -2.4979 0.9765
-4.7903 2.4691 -2.4946 0.9765
-4.9879 2.0305 -2.4928 0.9765
-5.1454 1.5764 -2.4910 0.9766
-5.2617 1.1104 -2.4892 0.9766
-5.3359 0.6361 -2.4874 0.9766
-5.3564 -0.3216 -2.4839 0.9766
-5.3026 -0.7975 -2.4821 0.9766
-4.8928 -2.1687 -2.4773 0.9767
-4.4247 -3.0002 -2.4746 0.9767
-4.1374 -3.3812 -2.4733 0.9767
-3.3240 -3.8908 -2.3687 0.9777
-1.7518 -4.8028 -2.3664 0.9777
-1.3163 -4.9394 -2.3662 0.9777
-0.8705 -5.0370 -2.3661 0.9777
0.0383 -5.1122 -2.3664 0.9777
0.4943 -5.0892 -2.3668 0.9777
2.6481 -4.3841 -2.3708 0.9777
3.8814 -3.6853 -2.4775 0.9767
4.7278 -2.5311 -2.4823 0.9766
5.1095 -1.6531 -2.4858 0.9766
5.3296 -0.7200 -2.4894 0.9766
5.3765 -0.2420 -2.4912 0.9766
5.3415 0.7182 -2.4947 0.9765
5.2597 1.1926 -2.4964 0.9765
4.9705 2.1109 -2.4996 0.9765
4.5215 2.9638 -2.5025 0.9765
4.2413 3.3570 -2.5038 0.9764
3.0724 4.1846 -2.4030 0.9774
1.4162 4.9987 -2.4049 0.9774
0.9647 5.1054 -2.4050 0.9774
0.5055 5.1709 -2.4049 0.9774
-0.4212 5.1772 -2.4044 0.9774
-0.8812 5.1179 -2.4038 0.9774
-2.2024 4.6972 -2.4014 0.9774
-2.6114 4.4801 -2.4003 0.9774
-3.0570 4.3087 -2.4454 0.9770
-3.5077 4.1110 -2.5015 0.9765
-3.8582 3.7795 -2.5000 0.9765
-4.1773 3.4182 -2.4985 0.9765
-4.9232 2.1859 -2.4934 0.9765
-5.2258 1.2746 -2.4898 0.9766
-5.3651 -0.1541 -2.4845 0.9766
-5.2451 -1.1034 -2.4810 0.9767
-5.1225 -1.5658 -2.4794 0.9767
-4.7569 -2.4481 -2.4764 0.9767
-4.5171 -2.8610 -2.4750 0.9767
-3.9331 -3.6146 -2.4726 0.9767
-3.0919 -4.0762 -2.3682 0.9777
-1.0274 -5.0073 -2.3661 0.9777
1.2367 -4.9635 -2.3678 0.9777
2.1004 -4.6680 -2.3694 0.9777
2.5095 -4.4640 -2.3705 0.9777
3.0077 -4.3828 -2.4605 0.9768
3.4074 -4.1221 -2.4756 0.9767
4.0904 -3.4552 -2.4785 0.9767
5.1992 -1.3545 -2.4870 0.9766
5.3032 -0.8860 -2.4888 0.9766
5.3840 0.0705 -2.4924 0.9765
5.2932 1.0274 -2.4959 0.9765
5.1839 1.4964 -2.4975 0.9765
5.0330 1.9541 -2.4991 0.9765
3.2012 4.0860 -2.4027 0.9774
2.8249 4.3567 -2.4035 0.9774
2.4257 4.5924 -2.4041 0.9774
2.0068 4.7914 -2.4045 0.9774
1.5716 4.9519 -2.4048 0.9774
0.6668 5.1527 -2.4050 0.9774
0.2045 5.1913 -2.4048 0.9774
-0.2593 5.1881 -2.4045 0.9774
-1.1764 5.0572 -2.4034 0.9774
-1.6223 4.9306 -2.4027 0.9774
-2.0548 4.7644 -2.4018 0.9774
-2.8661 4.3196 -2.3996 0.9774
-3.3782 4.2194 -2.5020 0.9765
-3.7389 3.8991 -2.5005 0.9765
-4.0694 3.5479 -2.4990 0.9765
-4.6289 2.7648 -2.4958 0.9765
-5.1847 1.4376 -2.4905 0.9766
-5.2885 0.9687 -2.4887 0.9766
-5.3499 0.4928 -2.4869 0.9766
-5.3687 0.0136 -2.4851 0.9766
-5.2783 -0.9392 -2.4816 0.9766
-5.1700 -1.4053 -2.4800 0.9767
-5.0209 -1.8596 -2.4784 0.9767
-4.6052 -2.7190 -2.4755 0.9767
-4.3420 -3.1172 -2.4742 0.9767
-3.2182 -3.9780 -2.3685 0.9777
-2.0486 -4.6845 -2.3666 0.9777
-0.7352 -5.0585 -2.3661 0.9777
-0.2810 -5.1042 -2.3662 0.9777
0.6305 -5.0745 -2.3670 0.9777
1.5229 -4.8844 -2.3682 0.9777
1.9533 -4.7307 -2.3691 0.9777
2.3684 -4.5396 -2.3701 0.9777
2.8003 -4.3670 -2.4013 0.9774
3.9796 -3.5805 -2.4779 0.9767
4.2858 -3.2134 -2.4795 0.9767
4.5583 -2.8202 -2.4811 0.9767
4.9938 -1.9681 -2.4846 0.9766
5.3482 -0.5770 -2.4900 0.9766
5.3822 -0.0978 -2.4917 0.9766
5.3214 0.8613 -2.4953 0.9765
4.4412 3.0844 -2.5029 0.9764
3.6676 3.6695 -2.4015 0.9774
2.5678 4.5140 -2.4039 0.9774
1.7255 4.9002 -2.4047 0.9774
0.3667 5.1825 -2.4049 0.9774
-0.5598 5.1637 -2.4042 0.9774
-1.4676 4.9795 -2.4029 0.9774
-3.2453 4.3237 -2.5024 0.9765
-3.6160 4.0148 -2.5010 0.9765
-3.9574 3.6741 -2.4996 0.9765
-4.2666 3.3044 -2.4980 0.9765
-4.5413 2.9087 -2.4963 0.9765
-4.7794 2.4904 -2.4946 0.9765
-4.9790 2.0527 -2.4929 0.9765
-5.1386 1.5993 -2.4911 0.9766
-5.2569 1.1337 -2.4893 0.9766
-5.3579 -0.2978 -2.4839 0.9766
-5.2126 -1.2434 -2.4805 0.9767
-4.1525 -3.3629 -2.4734 0.9767
-3.8178 -3.7023 -2.4617 0.9768
-3.3413 -3.8760 -2.3688 0.9777
-2.9813 -4.1572 -2.3680 0.9777
-2.5979 -4.4053 -2.3673 0.9777
-2.1941 -4.6185 -2.3668 0.9777
-1.7731 -4.7950 -2.3664 0.9777
-1.3383 -4.9335 -2.3662 0.9777
-0.8929 -5.0331 -2.3661 0.9777
0.9241 -5.0301 -2.3673 0.9777
1.3694 -4.9290 -2.3680 0.9777
1.8042 -4.7888 -2.3688 0.9777
3.1421 -4.3253 -2.4746 0.9767
3.5172 -4.0300 -2.4760 0.9767
4.4669 -2.9605 -2.4806 0.9767
4.7164 -2.5520 -2.4822 0.9766
4.9286 -2.1226 -2.4840 0.9766
5.1019 -1.6757 -2.4857 0.9766
5.3262 -0.7437 -2.4893 0.9766
5.3813 0.2148 -2.4929 0.9765
5.3445 0.6945 -2.4947 0.9765
5.2648 1.1691 -2.4964 0.9765
5.1429 1.6352 -2.4980 0.9765
4.9797 2.0887 -2.4996 0.9765
4.7764 2.5260 -2.5011 0.9765
4.5345 2.9436 -2.5024 0.9765
3.8517 3.6201 -2.4467 0.9770
3.4494 3.8771 -2.4021 0.9774
2.7073 4.4312 -2.4037 0.9774
1.8778 4.8437 -2.4046 0.9774
1.4384 4.9924 -2.4049 0.9774
0.5284 5.1686 -2.4050 0.9774
-0.3982 5.1790 -2.4044 0.9774
-1.7537 4.8848 -2.4024 0.9774
-2.1816 4.7071 -2.4015 0.9774
-2.5915 4.4917 -2.4004 0.9774
-3.0276 4.3078 -2.4372 0.9771
-3.4895 4.1266 -2.5015 0.9765
-4.1622 3.4369 -2.4985 0.9765
-4.7004 2.6392 -2.4952 0.9765
-5.2203 1.2978 -2.4899 0.9766
-5.3114 0.8264 -2.4881 0.9766
-5.3600 0.3491 -2.4863 0.9766
-5.3660 -0.1303 -2.4846 0.9766
-5.2502 -1.0801 -2.4811 0.9767
-4.9683 -1.9932 -2.4779 0.9767
-4.7679 -2.4270 -2.4765 0.9767
-4.5299 -2.8410 -2.4751 0.9767
-3.9492 -3.5971 -2.4727 0.9767
-2.3375 -4.5479 -2.3670 0.9777
-1.0497 -5.0027 -2.3661 0.9777
-0.5993 -5.0765 -2.3661 0.9777
0.7664 -5.0561 -2.3671 0.9777
1.2146 -4.9689 -2.3677 0.9777
2.0796 -4.6772 -2.3694 0.9777
3.3889 -4.1371 -2.4755 0.9767
3.7466 -3.8205 -2.4769 0.9767
4.0749 -3.4732 -2.4784 0.9767
4.3712 -3.0979 -2.4800 0.9767
4.6332 -2.6975 -2.4816 0.9766
5.3629 -0.4336 -2.4905 0.9766
5.1903 1.4733 -2.4974 0.9765
4.8520 2.3751 -2.5005 0.9765
4.3575 3.2029 -2.5033 0.9764
2.8442 4.3440 -2.4034 0.9774
2.0280 4.7824 -2.4045 0.9774
1.5936 4.9449 -2.4048 0.9774
0.6897 5.1497 -2.4050 0.9774
0.2276 5.1903 -2.4048 0.9774
-0.2362 5.1893 -2.4045 0.9774
-1.1539 5.0625 -2.4035 0.9774
-1.6004 4.9378 -2.4027 0.9774
-2.0337 4.7736 -2.4018 0.9774
-2.8470 4.3324 -2.3996 0.9774
-3.3596 4.2345 -2.5020 0.9765
-3.7217 3.9157 -2.5006 0.9765
-4.0537 3.5660 -2.4991 0.9765
-4.6167 2.7854 -2.4958 0.9765
-4.8435 2.3609 -2.4941 0.9765
-5.0312 1.9181 -2.4924 0.9765
-5.3479 0.5165 -2.4870 0.9766
-5.2826 -0.9158 -2.4817 0.9766
-4.6173 -2.6986 -2.4755 0.9767
-4.3559 -3.0980 -2.4742 0.9767
-4.0603 -3.4725 -2.4731 0.9767
-3.2430 -3.9725 -2.3737 0.9777
-2.8685 -4.2352 -2.3678 0.9777
-2.4786 -4.4730 -2.3671 0.9777
-2.0694 -4.6753 -2.3667 0.9777
-1.2055 -4.9676 -2.3661 0.9777
-0.3037 -5.1029 -2.3662 0.9777
0.6080 -5.0771 -2.3669 0.9777
1.0587 -5.0039 -2.3675 0.9777
1.5012 -4.8910 -2.3682 0.9777
1.9322 -4.7393 -2.3691 0.9777
3.9635 -3.5981 -2.4779 0.9767
4.2713 -3.2323 -2.4794 0.9767
4.5456 -2.8403 -2.4810 0.9767
4.9848 -1.9902 -2.4845 0.9766
5.3454 -0.6008 -2.4899 0.9766
5.3815 -0.1216 -2.4917 0.9766
5.0982 1.7728 -2.4985 0.9765
4.7077 2.6536 -2.5015 0.9765
4.4547 3.0646 -2.5028 0.9764
4.1657 3.4514 -2.5041 0.9764
3.3446 3.9686 -2.4024 0.9774
2.9782 4.2526 -2.4032 0.9774
2.5878 4.5025 -2.4038 0.9774
1.7473 4.8925 -2.4047 0.9774
1.3040 5.0293 -2.4049 0.9774
0.8503 5.1256 -2.4050 0.9774
-0.0740 5.1944 -2.4047 0.9774
-0.5369 5.1662 -2.4042 0.9774
-0.9953 5.0965 -2.4037 0.9774
-1.4455 4.9860 -2.4030 0.9774
-1.8838 4.8355 -2.4021 0.9774
-2.3067 4.6463 -2.4012 0.9774
-3.5982 4.0310 -2.5011 0.9765
-3.9411 3.6917 -2.4996 0.9765
-4.2520 3.3234 -2.4981 0.9765
-4.9700 2.0749 -2.4930 0.9765
-5.2520 1.1571 -2.4894 0.9766
-5.3304 0.6836 -2.4876 0.9766
-5.3099 -0.7504 -2.4823 0.9766
-5.2182 -1.2203 -2.4806 0.9767
-5.0853 -1.6797 -2.4790 0.9767
-4.9122 -2.1253 -2.4775 0.9767
-4.4514 -2.9609 -2.4747 0.9767
-3.8487 -3.6992 -2.4710 0.9767
-2.9997 -4.1440 -2.3680 0.9777
-2.6174 -4.3937 -2.3673 0.9777
-2.2146 -4.6087 -2.3668 0.9777
-1.7944 -4.7871 -2.3664 0.9777
-0.9152 -5.0290 -2.3661 0.9777
0.4490 -5.0933 -2.3668 0.9777
0.9017 -5.0341 -2.3673 0.9777
1.3475 -4.9350 -2.3679 0.9777
2.2045 -4.6204 -2.3697 0.9777
2.6090 -4.4073 -2.3707 0.9777
3.1228 -4.3391 -2.4746 0.9767
3.4992 -4.0454 -2.4759 0.9767
3.8483 -3.7194 -2.4773 0.9767
4.4536 -2.9802 -2.4805 0.9767
4.7048 -2.5729 -2.4821 0.9766
4.9190 -2.1444 -2.4839 0.9766
5.0943 -1.6983 -2.4856 0.9766
5.2292 -1.2381 -2.4874 0.9766
5.3737 -0.2897 -2.4910 0.9766
5.2698 1.1457 -2.4963 0.9765
5.1500 1.6122 -2.4979 0.9765
4.9888 2.0665 -2.4995 0.9765
4.2708 3.3190 -2.5037 0.9764
3.8817 3.6160 -2.4556 0.9769
3.4665 3.8617 -2.4020 0.9774
1.4605 4.9859 -2.4049 0.9774
-0.8357 5.1256 -2.4039 0.9774
-2.1607 4.7168 -2.4015 0.9774
-2.5716 4.5033 -2.4005 0.9774
-3.4712 4.1422 -2.5016 0.9765
-4.1471 3.4554 -2.4986 0.9765
-4.4358 3.0698 -2.4970 0.9765
-4.6888 2.6601 -2.4953 0.9765
-5.3078 0.8500 -2.4882 0.9766
-5.3586 0.3729 -2.4864 0.9766
-5.1365 -1.5204 -2.4796 0.9767
-4.7787 -2.4059 -2.4765 0.9767
-3.1281 -4.0487 -2.3683 0.9777
-2.7537 -4.3103 -2.3676 0.9777
-3.1154 4.0374 -2.5015 0.9775
-3.4612 3.7414 -2.5001 0.9775
-3.7790 3.4158 -2.4987 0.9776
-4.7229 1.8739 -2.4924 0.9776
-4.8679 1.4442 -2.4907 0.9776
-5.0402 0.5555 -2.4873 0.9777
-5.0662 0.1037 -2.4856 0.9777
-5.0519 -0.3484 -2.4840 0.9777
-3.8770 -3.2263 -2.4741 0.9778
-3.5723 -3.5577 -2.4731 0.9778
-2.7618 -3.9615 -2.3688 0.9787
-2.3968 -4.1910 -2.3682 0.9787
-1.6135 -4.5487 -2.3674 0.9787
-1.2012 -4.6740 -2.3672 0.9787
-0.7795 -4.7625 -2.3672 0.9787
-0.3517 -4.8132 -2.3673 0.9787
0.0791 -4.8258 -2.3675 0.9787
0.5093 -4.8003 -2.3679 0.9787
1.7634 -4.4979 -2.3698 0.9787
2.1584 -4.3244 -2.3707 0.9787
4.2533 -2.7380 -2.4812 0.9777
4.6781 -1.9412 -2.4845 0.9777
4.9553 -1.0806 -2.4878 0.9777
5.0354 -0.6348 -2.4895 0.9776
5.0754 -0.1832 -2.4912 0.9776
5.0339 0.7224 -2.4946 0.9776
4.9526 1.1693 -2.4962 0.9776
4.8316 1.6074 -2.4977 0.9776
4.6717 2.0331 -2.4992 0.9776
3.9729 3.2023 -2.5030 0.9775
3.2049 3.7005 -2.4013 0.9784
2.8629 3.9729 -2.4021 0.9784
2.4979 4.2135 -2.4027 0.9784
1.7101 4.5920 -2.4036 0.9784
1.2938 4.7266 -2.4038 0.9784
-0.8740 4.8197 -2.4027 0.9784
-1.7154 4.5850 -2.4013 0.9784
-2.5341 4.2599 -2.4314 0.9782
-3.3432 3.8485 -2.5006 0.9775
-3.9693 3.1896 -2.4978 0.9776
-4.8216 1.5960 -2.4913 0.9776
-5.0216 0.7129 -2.4879 0.9777
-5.0617 0.2620 -2.4862 0.9777
-5.0615 -0.1904 -2.4845 0.9777
-4.9407 -1.0853 -2.4813 0.9777
-4.2396 -2.7383 -2.4756 0.9778
-3.9765 -3.1040 -2.4745 0.9778
-3.6822 -3.4448 -2.4734 0.9778
-2.8845 -3.8737 -2.3691 0.9787
-0.9279 -4.7358 -2.3672 0.9787
-0.5019 -4.7997 -2.3672 0.9787
-0.0718 -4.8258 -2.3674 0.9787
0.7871 -4.7634 -2.3682 0.9787
1.2092 -4.6754 -2.3688 0.9787
2.0220 -4.3891 -2.3704 0.9787
3.2510 -3.8625 -2.4764 0.9778
3.5845 -3.5591 -2.4778 0.9777
4.6141 -2.0860 -2.4839 0.9777
4.9179 -1.2346 -2.4872 0.9777
5.0660 -0.3417 -2.4906 0.9776
5.0797 0.1116 -2.4923 0.9776
5.0529 0.5646 -2.4940 0.9776
4.9856 1.0138 -2.4956 0.9776
4.7320 1.8858 -2.4987 0.9776
4.5475 2.3016 -2.5001 0.9775
4.3263 2.6995 -2.5014 0.9775
4.0703 3.0761 -2.5026 0.9775
3.7814 3.4284 -2.5037 0.9775
2.9969 3.8961 -2.4111 0.9783
2.6281 4.1330 -2.4025 0.9784
2.2495 4.3520 -2.4031 0.9784
1.0174 4.7939 -2.4039 0.9784
0.5857 4.8655 -2.4039 0.9784
-0.2880 4.8912 -2.4034 0.9784
-0.7230 4.8451 -2.4029 0.9784
-1.1520 4.7601 -2.4023 0.9784
-1.5715 4.6370 -2.4016 0.9784
-2.3685 4.2807 -2.3998 0.9784
-3.2220 3.9518 -2.5011 0.9775
-4.1461 2.9527 -2.4968 0.9776
-4.3901 2.5695 -2.4952 0.9776
-4.5988 2.1662 -2.4936 0.9776
-4.7705 1.7463 -2.4919 0.9776
-4.9039 1.3129 -2.4902 0.9776
-5.0522 0.4201 -2.4868 0.9777
-5.0661 -0.0322 -2.4851 0.9777
-5.0397 -0.4836 -2.4835 0.9777
-4.9733 -0.9306 -2.4819 0.9777
-4.7230 -1.7972 -2.4788 0.9777
-4.5413 -2.2101 -2.4774 0.9777
-4.3238 -2.6049 -2.4761 0.9778
-3.4752 -3.6518 -2.4728 0.9778
-2.6544 -4.0338 -2.3686 0.9787
-2.2835 -4.2535 -2.3681 0.9787
-1.4909 -4.5901 -2.3674 0.9787
-0.2225 -4.8210 -2.3673 0.9787
0.6378 -4.7852 -2.3680 0.9787
1.0623 -4.7104 -2.3686 0.9787
1.4787 -4.5982 -2.3693 0.9787
1.8836 -4.4495 -2.3701 0.9787
2.3016 -4.3175 -2.4000 0.9784
3.4708 -3.6686 -2.4773 0.9778
4.0721 -2.9970 -2.4802 0.9777
4.3259 -2.6235 -2.4817 0.9777
4.5457 -2.2287 -2.4833 0.9777
4.8758 -1.3874 -2.4866 0.9777
5.0516 -0.4997 -2.4900 0.9776
5.0669 0.4064 -2.4934 0.9776
4.9204 1.3019 -2.4966 0.9776
4.7876 1.7366 -2.4981 0.9776
4.4078 2.5625 -2.5010 0.9775
4.1637 2.9469 -2.5022 0.9775
3.5771 3.6430 -2.5044 0.9775
3.1048 3.7854 -2.4015 0.9784
2.3842 4.2793 -2.4029 0.9784
1.5864 4.6363 -2.4037 0.9784
1.1667 4.7597 -2.4039 0.9784
0.7375 4.8448 -2.4039 0.9784
-0.1350 4.8980 -2.4035 0.9784
-0.5713 4.8656 -2.4031 0.9784
-1.8375 4.5369 -2.4011 0.9784
-2.2340 4.3532 -2.4001 0.9784
-2.6988 4.2720 -2.4787 0.9777
-3.0975 4.0513 -2.5015 0.9775
-3.4447 3.7569 -2.5002 0.9775
-3.7639 3.4327 -2.4988 0.9776
-4.3087 2.7060 -2.4957 0.9776
-4.7147 1.8949 -2.4925 0.9776
-4.8616 1.4659 -2.4908 0.9776
-4.9696 1.0256 -2.4891 0.9776
-5.0659 0.1262 -2.4857 0.9777
-5.0536 -0.3260 -2.4840 0.9777
-3.5881 -3.5419 -2.4731 0.9778
-3.1877 -3.7649 -2.4198 0.9783
-2.7794 -3.9493 -2.3689 0.9787
-2.4154 -4.1804 -2.3683 0.9787
-2.0325 -4.3783 -2.3678 0.9787
-1.2220 -4.6687 -2.3672 0.9787
-0.8007 -4.7589 -2.3672 0.9787
-0.3730 -4.8116 -2.3673 0.9787
0.0576 -4.8261 -2.3675 0.9787
0.4880 -4.8025 -2.3679 0.9787
0.9146 -4.7409 -2.3684 0.9787
1.7434 -4.5056 -2.3698 0.9787
2.1391 -4.3338 -2.3707 0.9787
2.6272 -4.3062 -2.4744 0.9778
3.6792 -3.4623 -2.4782 0.9777
4.2409 -2.7568 -2.4812 0.9777
4.4728 -2.3691 -2.4827 0.9777
4.6693 -1.9620 -2.4844 0.9777
4.8289 -1.5387 -2.4861 0.9777
5.0369 0.7000 -2.4945 0.9776
4.9576 1.1473 -2.4961 0.9776
4.6805 2.0123 -2.4991 0.9776
4.2531 2.8149 -2.5018 0.9775
3.6886 3.5290 -2.5041 0.9775
3.2265 3.6922 -2.4052 0.9784
2.5165 4.2023 -2.4027 0.9784
2.1321 4.4110 -2.4032 0.9784
1.7305 4.5843 -2.4036 0.9784
0.8885 4.8195 -2.4039 0.9784
0.4551 4.8794 -2.4038 0.9784
-0.4190 4.8814 -2.4033 0.9784
-0.8525 4.8236 -2.4028 0.9784
-1.6951 4.5927 -2.4014 0.9784
-2.5080 4.2590 -2.4244 0.9782
-2.9699 4.1468 -2.5020 0.9775
-3.9552 3.2073 -2.4978 0.9776
-4.4566 2.4504 -2.4947 0.9776
-4.6543 2.0418 -2.4931 0.9776
-4.8146 1.6174 -2.4914 0.9776
-5.0185 0.7352 -2.4880 0.9777
-5.0624 -0.1679 -2.4846 0.9777
-5.0240 -0.6184 -2.4830 0.9777
-4.8280 -1.4993 -2.4798 0.9777
-4.4797 -2.3306 -2.4770 0.9778
-4.2518 -2.7195 -2.4757 0.9778
-3.3757 -3.7432 -2.4725 0.9778
-2.5451 -4.1032 -2.3685 0.9787
-2.1685 -4.3129 -2.3679 0.9787
-1.7749 -4.4884 -2.3675 0.9787
-1.3673 -4.6283 -2.3673 0.9787
-0.5232 -4.7975 -2.3672 0.9787
-0.0932 -4.8254 -2.3674 0.9787
0.3376 -4.8151 -2.3677 0.9787
0.7659 -4.7667 -2.3682 0.9787
1.6016 -4.5573 -2.3695 0.9787
2.0024 -4.3979 -2.3704 0.9787
2.4583 -4.3279 -2.4415 0.9781
3.5685 -3.5748 -2.4777 0.9777
3.8754 -3.2442 -2.4791 0.9777
4.1518 -2.8873 -2.4806 0.9777
4.3956 -2.5071 -2.4822 0.9777
4.7774 -1.6884 -2.4855 0.9777
4.9123 -1.2564 -2.4872 0.9777
5.0643 -0.3642 -2.4906 0.9776
4.5575 2.2813 -2.5000 0.9775
3.7965 3.4115 -2.5037 0.9775
3.4087 3.6631 -2.4545 0.9780
3.0025 3.8677 -2.4018 0.9784
2.6464 4.1213 -2.4025 0.9784
1.8728 4.5278 -2.4035 0.9784
1.4616 4.6773 -2.4037 0.9784
0.6074 4.8629 -2.4039 0.9784
0.1712 4.8973 -2.4037 0.9784
-0.2663 4.8924 -2.4034 0.9784
-0.7015 4.8483 -2.4030 0.9784
-1.1308 4.7652 -2.4024 0.9784
-1.9582 4.4855 -2.4008 0.9784
-2.3496 4.2912 -2.3998 0.9784
-3.2045 3.9662 -2.5011 0.9775
-3.5435 3.6626 -2.4998 0.9776
-4.5893 2.1867 -2.4936 0.9776
-5.0420 -0.4612 -2.4835 0.9777
-4.8736 -1.3480 -2.4804 0.9777
-4.7311 -1.7763 -2.4789 0.9777
-4.3354 -2.5858 -2.4762 0.9778
-4.0855 -2.9607 -2.4749 0.9778
-3.8034 -3.3118 -2.4738 0.9778
-3.4915 -3.6364 -2.4728 0.9778
-3.0377 -3.7893 -2.3823 0.9786
-2.6771 -4.0292 -2.3729 0.9787
-2.3023 -4.2433 -2.3681 0.9787
-1.0964 -4.6997 -2.3672 0.9787
-0.6728 -4.7787 -2.3672 0.9787
0.1870 -4.8230 -2.3676 0.9787
1.4582 -4.6046 -2.3692 0.9787
1.8734 -4.4808 -2.3823 0.9786
2.2765 -4.3166 -2.3938 0.9785
2.7421 -4.2347 -2.4747 0.9778
3.7713 -3.3630 -2.4786 0.9777
4.7212 -1.8365 -2.4849 0.9777
4.8695 -1.4090 -2.4866 0.9777
5.0492 -0.5221 -2.4900 0.9776
5.0791 -0.0697 -2.4917 0.9776
5.0173 0.8350 -2.4950 0.9776
4.9260 1.2800 -2.4965 0.9776
4.7951 1.7153 -2.4981 0.9776
4.6257 2.1374 -2.4995 0.9776
4.4190 2.5428 -2.5009 0.9775
4.1767 2.9283 -2.5022 0.9775
3.9007 3.2907 -2.5033 0.9775
3.1216 3.7715 -2.4015 0.9784
2.7736 4.0362 -2.4022 0.9784
2.4031 4.2686 -2.4029 0.9784
1.6070 4.6292 -2.4037 0.9784
1.1878 4.7545 -2.4039 0.9784
0.7590 4.8415 -2.4039 0.9784
-0.1133 4.8986 -2.4035 0.9784
-0.5497 4.8682 -2.4031 0.9784
-1.8174 4.5451 -2.4011 0.9784
-2.6707 4.2692 -2.4701 0.9778
-3.4280 3.7722 -2.5003 0.9775
-4.2967 2.7252 -2.4958 0.9776
-4.7064 1.9159 -2.4926 0.9776
-4.9652 1.0478 -2.4892 0.9776
-5.0354 0.6003 -2.4875 0.9777
-5.0654 0.1487 -2.4858 0.9777
-5.0551 -0.3035 -2.4841 0.9777
-4.9144 -1.1953 -2.4809 0.9777
-4.7853 -1.6279 -2.4794 0.9777
-4.1767 -2.8321 -2.4753 0.9778
-3.9056 -3.1918 -2.4742 0.9778
-3.6039 -3.5260 -2.4732 0.9778
-2.7970 -3.9370 -2.3689 0.9787
-2.4340 -4.1697 -2.3683 0.9787
-2.0520 -4.3692 -2.3678 0.9787
-1.6538 -4.5342 -2.3675 0.9787
-1.2427 -4.6632 -2.3672 0.9787
-0.3944 -4.8098 -2.3673 0.9787
0.8935 -4.7448 -2.3683 0.9787
1.7233 -4.5132 -2.3698 0.9787
2.1198 -4.3432 -2.3706 0.9787
3.9616 -3.1397 -2.4796 0.9777
4.6604 -1.9826 -2.4843 0.9777
4.9452 -1.1246 -2.4877 0.9777
5.0733 -0.2283 -2.4911 0.9776
5.0398 0.6777 -2.4944 0.9776
4.8454 1.5643 -2.4975 0.9776
4.4955 2.4031 -2.5004 0.9775
4.2654 2.7959 -2.5017 0.9775
2.8980 3.9472 -2.4020 0.9784
2.1517 4.4014 -2.4032 0.9784
1.3358 4.7149 -2.4038 0.9784
0.9099 4.8155 -2.4039 0.9784
0.0398 4.9000 -2.4036 0.9784
-0.8311 4.8274 -2.4028 0.9784
-1.2581 4.7328 -2.4022 0.9784
-2.4820 4.2580 -2.4176 0.9783
-3.3091 3.8782 -2.5007 0.9775
-4.4458 2.4703 -2.4948 0.9776
-4.6453 2.0625 -2.4931 0.9776
-4.8075 1.6389 -2.4915 0.9776
-5.0595 0.3070 -2.4864 0.9777
-5.0268 -0.5961 -2.4831 0.9777
-4.9504 -1.0414 -2.4815 0.9777
-4.6809 -1.9021 -2.4785 0.9777
-4.0041 -3.0687 -2.4746 0.9778
-3.3923 -3.7282 -2.4725 0.9778
-2.9189 -3.8480 -2.3692 0.9787
-2.5633 -4.0919 -2.3685 0.9787
-2.1877 -4.3033 -2.3680 0.9787
-0.1146 -4.8249 -2.3674 0.9787
0.3162 -4.8165 -2.3677 0.9787
1.1675 -4.6858 -2.3687 0.9787
1.5813 -4.5643 -2.3695 0.9787
2.8550 -4.1603 -2.4751 0.9778
3.5525 -3.5905 -2.4776 0.9777
3.8608 -3.2613 -2.4790 0.9777
4.3843 -2.5265 -2.4821 0.9777
4.5951 -2.1268 -2.4837 0.9777
4.7696 -1.7096 -2.4854 0.9777
5.0625 -0.3866 -2.4905 0.9776
5.0802 0.0665 -2.4922 0.9776
4.9941 0.9694 -2.4954 0.9776
4.8908 1.4118 -2.4970 0.9776
4.7482 1.8436 -2.4985 0.9776
4.5675 2.2610 -2.4999 0.9775
4.0973 3.0397 -2.5025 0.9775
3.8116 3.3946 -2.5036 0.9775
3.4366 3.6603 -2.4628 0.9779
3.0196 3.8542 -2.4017 0.9784
2.2880 4.3317 -2.4030 0.9784
1.8928 4.5194 -2.4034 0.9784
-0.6799 4.8514 -2.4030 0.9784
-1.1096 4.7703 -2.4024 0.9784
-1.9383 4.4943 -2.4008 0.9784
-3.1869 3.9805 -2.5012 0.9775
-3.5273 3.6784 -2.4999 0.9776
-3.8391 3.3471 -2.4984 0.9776
-4.1199 2.9896 -2.4969 0.9776
-4.9905 0.9141 -2.4887 0.9776
-5.0487 0.4650 -2.4870 0.9777
-4.8797 -1.3264 -2.4805 0.9777
-4.3470 -2.5665 -2.4762 0.9778
-3.8182 -3.2950 -2.4739 0.9778
-2.7005 -4.0256 -2.3778 0.9786
-2.3212 -4.2331 -2.3681 0.9787
-0.6940 -4.7757 -2.3672 0.9787
1.0204 -4.7195 -2.3685 0.9787
1.4377 -4.6110 -2.3692 0.9787
1.8496 -4.4797 -2.3773 0.9786
3.0926 -3.9889 -2.4758 0.9778
3.4379 -3.6991 -2.4771 0.9778
3.7562 -3.3796 -2.4785 0.9777
4.3022 -2.6617 -2.4816 0.9777
5.0699 0.3614 -2.4932 0.9776
4.8025 1.6939 -2.4980 0.9776
4.1896 2.9097 -2.5021 0.9775
3.9152 3.2733 -2.5033 0.9775
3.1382 3.7576 -2.4014 0.9784
2.7915 4.0238 -2.4022 0.9784
0.7805 4.8381 -2.4039 0.9784
0.3459 4.8883 -2.4038 0.9784
-0.0915 4.8991 -2.4035 0.9784
-2.1953 4.3731 -2.4002 0.9784
-2.6426 4.2664 -2.4617 0.9779
-3.0615 4.0788 -2.5016 0.9775
-3.4113 3.7875 -2.5003 0.9775
-3.7335 3.4662 -2.4989 0.9776
-4.8488 1.5091 -2.4910 0.9776
-4.9606 1.0698 -2.4893 0.9776
-5.0329 0.6227 -2.4876 0.9777
-4.4259 -2.4299 -2.4767 0.9778
-4.1894 -2.8136 -2.4754 0.9778
-3.9198 -3.1745 -2.4742 0.9778
-3.6196 -3.5100 -2.4732 0.9778
-2.4525 -4.1589 -2.3683 0.9787
-2.0714 -4.3601 -2.3678 0.9787
-1.2634 -4.6577 -2.3673 0.9787
0.0148 -4.8264 -2.3675 0.9787
0.8724 -4.7487 -2.3683 0.9787
1.2928 -4.6532 -2.3690 0.9787
2.1004 -4.3525 -2.3706 0.9787
2.5888 -4.3291 -2.4743 0.9778
2.9660 -4.0829 -2.4754 0.9778
3.3200 -3.8040 -2.4767 0.9778
3.6481 -3.4946 -2.4780 0.9777
4.6514 -2.0032 -2.4842 0.9777
5.0776 0.2027 -2.4927 0.9776
4.5060 2.3830 -2.5004 0.9775
4.0149 3.1489 -2.5029 0.9775
3.7197 3.4960 -2.5040 0.9775
2.9155 3.9342 -2.4020 0.9784
2.5537 4.1797 -2.4026 0.9784
2.1712 4.3918 -2.4032 0.9784
0.9313 4.8113 -2.4039 0.9784
0.4984 4.8752 -2.4038 0.9784
-0.3756 4.8851 -2.4033 0.9784
-1.6542 4.6077 -2.4014 0.9784
-2.0578 4.4402 -2.4006 0.9784
-3.2919 3.8930 -2.5008 0.9775
-4.8004 1.6603 -2.4916 0.9776
-5.0121 0.7798 -2.4882 0.9777
-5.0640 -0.1230 -2.4848 0.9777
-5.0296 -0.5738 -2.4831 0.9777
-4.5004 -2.2908 -2.4771 0.9778
-4.2760 -2.6817 -2.4758 0.9778
-4.0178 -3.0510 -2.4746 0.9778
-3.7280 -3.3957 -2.4736 0.9778
-2.9360 -3.8351 -2.3692 0.9787
-2.5815 -4.0805 -2.3685 0.9787
-1.4084 -4.6160 -2.3673 0.9787
-0.9910 -4.7230 -2.3672 0.9787
-0.1360 -4.8243 -2.3674 0.9787
0.2948 -4.8178 -2.3677 0.9787
0.7235 -4.7732 -2.3681 0.9787
1.1467 -4.6909 -2.3687 0.9787
1.5609 -4.5712 -2.3694 0.9787
1.9632 -4.4154 -2.3703 0.9787
3.1989 -3.9052 -2.4762 0.9778
3.5364 -3.6062 -2.4776 0.9777
4.1257 -2.9239 -2.4805 0.9777
4.5855 -2.1471 -2.4836 0.9777
4.7619 -1.7307 -2.4853 0.9777
5.0803 0.0439 -2.4921 0.9776
4.9982 0.9471 -2.4954 0.9776
4.8969 1.3900 -2.4969 0.9776
4.7562 1.8224 -2.4984 0.9776
4.5774 2.2406 -2.4999 0.9776
3.8265 3.3775 -2.5036 0.9775
2.6829 4.0975 -2.4024 0.9784
1.9129 4.5109 -2.4034 0.9784
0.6505 4.8573 -2.4039 0.9784
0.2147 4.8957 -2.4037 0.9784
-0.6584 4.8544 -2.4030 0.9784
-1.0885 4.7752 -2.4024 0.9784
-1.5096 4.6577 -2.4017 0.9784
-2.8017 4.2635 -2.5025 0.9775
-3.5111 3.6941 -2.4999 0.9775
-3.8244 3.3643 -2.4985 0.9776
-4.1067 3.0079 -2.4970 0.9776
-4.3559 2.6280 -2.4954 0.9776
-4.7473 1.8099 -2.4921 0.9776
-4.9865 0.9363 -2.4888 0.9776
-5.0462 -0.4165 -2.4837 0.9777
-4.9857 -0.8643 -2.4821 0.9777
-4.8857 -1.3047 -2.4805 0.9777
-4.7470 -1.7343 -2.4790 0.9777
-4.5707 -2.1495 -2.4776 0.9777
-4.3584 -2.5473 -2.4763 0.9778
-3.8329 -3.2780 -2.4739 0.9778
-3.5237 -3.6054 -2.4729 0.9778
-3.0869 -3.7813 -2.3944 0.9785
-2.7080 -3.9982 -2.3687 0.9787
-2.3400 -4.2228 -2.3682 0.9787
-1.9537 -4.4138 -2.3677 0.9787
-1.1381 -4.6898 -2.3672 0.9787
-0.7152 -4.7725 -2.3672 0.9787
0.5740 -4.7932 -2.3680 0.9787
1.8259 -4.4786 -2.3724 0.9787
3.0748 -4.0025 -2.4758 0.9778
3.4213 -3.7142 -2.4771 0.9778
4.0315 -3.0508 -2.4799 0.9777
4.2902 -2.6807 -2.4815 0.9777
4.7044 -1.8782 -2.4847 0.9777
4.8564 -1.4521 -2.4864 0.9777
4.9700 -1.0138 -2.4881 0.9777
5.0714 0.3388 -2.4932 0.9776
5.0242 0.7903 -2.4948 0.9776
4.9369 1.2361 -2.4964 0.9776
4.6442 2.0961 -2.4994 0.9776
4.2024 2.8910 -2.5020 0.9775
3.9296 3.2558 -2.5032 0.9775
3.1548 3.7435 -2.4014 0.9784
2.0528 4.4487 -2.4033 0.9784
1.6481 4.6147 -2.4036 0.9784
1.2300 4.7437 -2.4038 0.9784
0.3675 4.8867 -2.4038 0.9784
-0.9388 4.8073 -2.4026 0.9784
-1.7770 4.5612 -2.4012 0.9784
-2.6148 4.2637 -2.4534 0.9780
-3.3946 3.8027 -2.5004 0.9775
-4.0116 3.1355 -2.4975 0.9776
-4.4991 2.3698 -2.4944 0.9776
-4.8422 1.5307 -2.4910 0.9776
-4.7998 -1.5854 -2.4795 0.9777
-4.6366 -2.0061 -2.4781 0.9777
-4.4367 -2.4103 -2.4767 0.9778
-3.6352 -3.4940 -2.4733 0.9778
-2.4710 -4.1479 -2.3683 0.9787
-2.0908 -4.3509 -2.3678 0.9787
-1.6940 -4.5194 -2.3675 0.9787
-1.2841 -4.6520 -2.3673 0.9787
-0.8640 -4.7478 -2.3672 0.9787
-0.4371 -4.8061 -2.3672 0.9787
-0.0067 -4.8264 -2.3675 0.9787
0.4238 -4.8084 -2.3678 0.9787
0.8513 -4.7525 -2.3683 0.9787
2.0811 -4.3617 -2.3705 0.9787
3.3030 -3.8186 -2.4766 0.9778
3.6324 -3.5107 -2.4780 0.9777
3.9334 -3.1746 -2.4794 0.9777
4.4404 -2.4282 -2.4825 0.9777
4.9347 -1.1684 -2.4875 0.9777
5.0226 -0.7240 -2.4892 0.9776
5.0707 -0.2734 -2.4909 0.9776
5.0783 0.1802 -2.4926 0.9776
5.0453 0.6328 -2.4942 0.9776
4.8587 1.5211 -2.4974 0.9776
4.7065 1.9496 -2.4989 0.9776
4.2899 2.7578 -2.5016 0.9775
3.3032 3.6797 -2.4255 0.9782
2.1907 4.3821 -2.4031 0.9784
1.7913 4.5608 -2.4035 0.9784
0.9527 4.8072 -2.4039 0.9784
0.0834 4.8995 -2.4037 0.9784
-1.2160 4.7439 -2.4022 0.9784
-2.4305 4.2561 -2.4041 0.9784
-3.9125 3.2600 -2.4981 0.9776
-4.1851 2.8963 -2.4965 0.9776
-4.7931 1.6816 -2.4916 0.9776
-4.9207 1.2466 -2.4899 0.9776
-5.0088 0.8021 -2.4882 0.9777
-5.0647 -0.1004 -2.4849 0.9777
-5.0323 -0.5514 -2.4832 0.9777
-4.9598 -0.9974 -2.4816 0.9777
-4.8480 -1.4350 -2.4801 0.9777
-4.5107 -2.2709 -2.4772 0.9778
-4.2879 -2.6628 -2.4759 0.9778
-4.0314 -3.0331 -2.4747 0.9778
-3.4254 -3.6981 -2.4726 0.9778
-2.5939 4.0657 -2.5019 0.9785
-3.2719 3.5367 -2.4995 0.9785
-3.5724 3.2291 -2.4982 0.9785
-4.2922 2.1643 -2.4938 0.9786
-4.4653 1.7717 -2.4922 0.9786
-4.6026 1.3655 -2.4906 0.9786
-4.7658 0.5253 -2.4874 0.9786
-4.7906 0.0980 -2.4858 0.9786
-4.7772 -0.3295 -2.4842 0.9787
-4.7258 -0.7538 -2.4827 0.9787
-4.6370 -1.1716 -2.4812 0.9787
-4.3502 -1.9746 -2.4784 0.9787
-3.9262 -2.7134 -2.4759 0.9787
-3.3789 -3.3651 -2.4739 0.9787
-2.6621 -3.8185 -2.4148 0.9792
-2.2671 -3.9643 -2.3692 0.9796
-1.5262 -4.3027 -2.3684 0.9796
-1.1363 -4.4213 -2.3682 0.9796
-0.3326 -4.5529 -2.3683 0.9796
0.4817 -4.5407 -2.3688 0.9796
0.8850 -4.4805 -2.3693 0.9796
1.2814 -4.3849 -2.3699 0.9796
2.1299 -4.2672 -2.4742 0.9787
2.5030 -4.0619 -2.4752 0.9787
2.8566 -3.8242 -2.4763 0.9787
3.1879 -3.5558 -2.4775 0.9787
3.4942 -3.2591 -2.4788 0.9787
3.7731 -2.9360 -2.4802 0.9787
4.2397 -2.2216 -2.4831 0.9787
4.4237 -1.8357 -2.4847 0.9786
4.6855 -1.0218 -2.4879 0.9786
4.7610 -0.6002 -2.4895 0.9786
4.7591 0.6830 -2.4942 0.9786
4.6821 1.1054 -2.4957 0.9786
4.4162 1.9219 -2.4986 0.9785
3.4717 3.3512 -2.5033 0.9785
2.3609 3.9825 -2.4018 0.9794
1.9967 4.1780 -2.4023 0.9793
1.2229 4.4673 -2.4028 0.9793
0.4096 4.6135 -2.4028 0.9793
-0.4165 4.6118 -2.4023 0.9793
-0.8260 4.5554 -2.4018 0.9794
-1.6214 4.3337 -2.4004 0.9794
-3.4704 3.3398 -2.4986 0.9785
-4.2234 2.2978 -2.4943 0.9786
-4.5587 1.5090 -2.4912 0.9786
-4.7863 -0.1801 -2.4848 0.9786
-4.7481 -0.6059 -2.4832 0.9787
-4.6723 -1.0263 -2.4817 0.9787
-4.5595 -1.4381 -2.4802 0.9787
-4.2268 -2.2230 -2.4776 0.9787
-4.0097 -2.5899 -2.4763 0.9787
-3.7611 -2.9359 -2.4752 0.9787
-2.3901 -3.8918 -2.3693 0.9796
-1.6600 -4.2530 -2.3685 0.9796
-0.8778 -4.4797 -2.3682 0.9796
1.1437 -4.4224 -2.3697 0.9796
1.5340 -4.3040 -2.3704 0.9796
1.9714 -4.2794 -2.4443 0.9790
2.3746 -4.1375 -2.4748 0.9787
3.0747 -3.6531 -2.4771 0.9787
3.6787 -3.0519 -2.4797 0.9787
4.1673 -2.3525 -2.4826 0.9787
4.6502 -1.1674 -2.4873 0.9786
4.7389 -0.7485 -2.4889 0.9786
4.7899 -0.3230 -2.4905 0.9786
4.7771 0.5338 -2.4937 0.9786
4.6118 1.3758 -2.4967 0.9785
4.2987 2.1757 -2.4994 0.9785
4.0896 2.5518 -2.5007 0.9785
3.2722 3.5479 -2.5038 0.9785
2.4840 3.9064 -2.4016 0.9794
2.1261 4.1133 -2.4021 0.9794
0.9616 4.5309 -2.4029 0.9793
0.1412 4.6293 -2.4027 0.9793
-0.2722 4.6229 -2.4024 0.9793
-1.0888 4.4991 -2.4014 0.9794
-1.4853 4.3828 -2.4007 0.9794
-1.8697 4.2314 -2.3999 0.9794
-2.7016 3.9942 -2.5016 0.9785
-3.3650 3.4472 -2.4991 0.9785
-3.6571 3.1316 -2.4978 0.9785
-4.3479 2.0480 -2.4933 0.9786
-4.6366 1.2413 -2.4901 0.9786
-4.7773 0.3973 -2.4869 0.9786
-4.7905 -0.0304 -2.4853 0.9786
-4.0894 -2.4637 -2.4768 0.9787
-3.8516 -2.8173 -2.4756 0.9787
-3.5834 -3.1483 -2.4746 0.9787
-3.2871 -3.4541 -2.4736 0.9787
-1.7922 -4.1993 -2.3686 0.9796
-1.0173 -4.4501 -2.3682 0.9796
-0.2104 -4.5603 -2.3683 0.9796
1.0049 -4.4555 -2.3695 0.9796
2.2438 -4.2091 -2.4745 0.9787
2.9586 -3.7467 -2.4767 0.9787
3.2826 -3.4697 -2.4779 0.9787
4.6104 -1.3119 -2.4867 0.9786
4.7121 -0.8960 -2.4884 0.9786
4.7400 0.8105 -2.4947 0.9786
4.5259 1.6417 -2.4976 0.9785
4.3638 2.0400 -2.4990 0.9785
3.9358 2.7856 -2.5015 0.9785
3.6733 3.1269 -2.5026 0.9785
2.6046 3.8266 -2.4014 0.9794
1.8840 4.2302 -2.4024 0.9793
-0.1276 4.6293 -2.4025 0.9793
-1.7368 4.2883 -2.4002 0.9794
-2.1649 4.2188 -2.4600 0.9789
-3.8312 2.9131 -2.4968 0.9785
-4.4575 1.7916 -2.4923 0.9786
-4.5966 1.3859 -2.4907 0.9786
-4.6989 0.9698 -2.4891 0.9786
-4.7903 0.1193 -2.4859 0.9786
-4.7788 -0.3082 -2.4843 0.9787
-4.7293 -0.7328 -2.4827 0.9787
-4.3590 -1.9553 -2.4785 0.9787
-4.1651 -2.3351 -2.4772 0.9787
-3.9383 -2.6960 -2.4760 0.9787
-3.6805 -3.0353 -2.4749 0.9787
-2.6849 -3.8151 -2.4202 0.9792
-1.9226 -4.1415 -2.3687 0.9796
-1.1559 -4.4162 -2.3682 0.9796
-0.3529 -4.5514 -2.3682 0.9796
0.4615 -4.5427 -2.3688 0.9796
0.8651 -4.4844 -2.3693 0.9796
1.2619 -4.3905 -2.3699 0.9796
1.6490 -4.2617 -2.3706 0.9796
2.8395 -3.8367 -2.4762 0.9787
3.1720 -3.5699 -2.4774 0.9787
3.4796 -3.2744 -2.4787 0.9787
3.7599 -2.9527 -2.4801 0.9787
4.2297 -2.2403 -2.4831 0.9787
4.5662 -1.4550 -2.4862 0.9786
4.7582 -0.6213 -2.4894 0.9786
3.7686 3.0102 -2.5022 0.9785
3.1762 3.6347 -2.5041 0.9785
2.3785 3.9719 -2.4017 0.9794
2.0152 4.1691 -2.4022 0.9793
1.6355 4.3328 -2.4026 0.9793
0.0171 4.6313 -2.4026 0.9793
-0.8058 4.5591 -2.4018 0.9794
-1.2089 4.4679 -2.4012 0.9794
-2.4475 4.1564 -2.5023 0.9785
-2.8073 3.9198 -2.5012 0.9785
-3.1442 3.6520 -2.5000 0.9785
-3.4556 3.3552 -2.4987 0.9785
-4.2133 2.3166 -2.4944 0.9786
-4.5521 1.5292 -2.4912 0.9786
-4.7453 0.6952 -2.4880 0.9786
-4.7852 0.2690 -2.4864 0.9786
-4.7871 -0.1588 -2.4848 0.9786
-4.7509 -0.5848 -2.4833 0.9787
-4.5660 -1.4179 -2.4803 0.9787
-4.4188 -1.8185 -2.4789 0.9787
-4.0213 -2.5721 -2.4764 0.9787
-2.0566 -4.0905 -2.3752 0.9796
-1.6789 -4.2456 -2.3685 0.9796
-0.0881 -4.5644 -2.3684 0.9796
0.3194 -4.5547 -2.3687 0.9796
1.1240 -4.4273 -2.3697 0.9796
1.9473 -4.2770 -2.4380 0.9790
3.6651 -3.0681 -2.4796 0.9787
3.9263 -2.7305 -2.4810 0.9787
4.7882 -0.3443 -2.4904 0.9786
4.8029 0.0842 -2.4920 0.9786
1.3814 4.4207 -2.4027 0.9793
0.9817 4.5266 -2.4029 0.9793
0.1618 4.6286 -2.4027 0.9793
-0.2517 4.6241 -2.4024 0.9793
-1.0688 4.5040 -2.4014 0.9794
-2.3168 4.2315 -2.5027 0.9785
-2.6839 4.0062 -2.5016 0.9785
-3.0291 3.7491 -2.5004 0.9785
-3.3497 3.4622 -2.4992 0.9785
-3.6432 3.1479 -2.4978 0.9785
-3.9072 2.8088 -2.4964 0.9785
-4.5031 1.6711 -2.4918 0.9786
-4.7223 0.8433 -2.4886 0.9786
-4.7756 0.4185 -2.4870 0.9786
-4.7908 -0.0091 -2.4854 0.9786
-4.7071 -0.8591 -2.4823 0.9787
-4.6090 -1.2748 -2.4808 0.9787
-4.3044 -2.0712 -2.4781 0.9787
-3.8641 -2.8003 -2.4757 0.9787
-3.3024 -3.4395 -2.4737 0.9787
-2.9814 -3.7191 -2.4728 0.9787
-2.5488 -3.8362 -2.3894 0.9795
-2.1778 -4.0138 -2.3690 0.9796
-1.0371 -4.4455 -2.3682 0.9796
-0.6364 -4.5203 -2.3682 0.9796
-0.2307 -4.5593 -2.3683 0.9796
0.1769 -4.5622 -2.3686 0.9796
0.5832 -4.5290 -2.3689 0.9796
2.2250 -4.2189 -2.4744 0.9787
2.5935 -4.0053 -2.4755 0.9787
3.8383 -2.8513 -2.4805 0.9787
4.6045 -1.3323 -2.4867 0.9786
4.7079 -0.9169 -2.4883 0.9786
4.7434 0.7894 -2.4946 0.9786
4.3727 2.0205 -2.4989 0.9785
3.6870 3.1105 -2.5025 0.9785
3.3962 3.4283 -2.5035 0.9785
3.0604 3.6977 -2.4901 0.9786
1.5189 4.3753 -2.4027 0.9793
0.3064 4.6214 -2.4028 0.9793
-0.1071 4.6299 -2.4025 0.9793
-0.9276 4.5355 -2.4017 0.9794
-1.3282 4.4335 -2.4010 0.9794
-1.7177 4.2960 -2.4002 0.9794
-2.1401 4.2164 -2.4530 0.9789
-2.5578 4.0888 -2.5020 0.9785
-3.5437 3.2609 -2.4983 0.9785
-3.8183 2.9301 -2.4969 0.9785
-4.4497 1.8114 -2.4923 0.9786
-4.5906 1.4064 -2.4908 0.9786
-4.6947 0.9907 -2.4891 0.9786
-4.7898 0.1406 -2.4859 0.9786
-4.7803 -0.2870 -2.4844 0.9787
-4.7327 -0.7118 -2.4828 0.9787
-4.3678 -1.9360 -2.4785 0.9787
-3.0966 -3.6246 -2.4731 0.9787
-2.7087 -3.8127 -2.4263 0.9791
-2.3023 -3.9441 -2.3692 0.9796
-1.9410 -4.1329 -2.3687 0.9796
-1.5644 -4.2890 -2.3684 0.9796
-1.1755 -4.4110 -2.3682 0.9796
-0.7774 -4.4982 -2.3682 0.9796
0.0342 -4.5653 -2.3684 0.9796
0.8452 -4.4881 -2.3693 0.9796
1.2488 -4.4185 -2.3820 0.9795
1.6300 -4.2689 -2.3706 0.9796
3.9988 -2.6248 -2.4815 0.9787
4.2196 -2.2590 -2.4830 0.9787
4.5595 -1.4752 -2.4861 0.9786
4.6760 -1.0633 -2.4877 0.9786
4.7999 0.2130 -2.4925 0.9786
4.7647 0.6407 -2.4941 0.9786
4.6914 1.0637 -2.4956 0.9786
4.4329 1.8825 -2.4985 0.9785
4.0320 2.6429 -2.5010 0.9785
3.1923 3.6205 -2.5041 0.9785
2.7457 3.7397 -2.4068 0.9793
2.3961 3.9612 -2.4017 0.9794
0.0376 4.6312 -2.4026 0.9793
-1.5851 4.3543 -2.4040 0.9793
-1.9734 4.2088 -2.4115 0.9793
-2.4291 4.1673 -2.5024 0.9785
-2.7899 3.9323 -2.5013 0.9785
-3.7256 3.0486 -2.4974 0.9785
-3.9804 2.7026 -2.4960 0.9786
-4.2030 2.3354 -2.4944 0.9786
-4.6625 1.1372 -2.4897 0.9786
-4.7422 0.7163 -2.4881 0.9786
-4.7879 -0.1375 -2.4849 0.9786
-4.7536 -0.5637 -2.4834 0.9787
-4.6815 -0.9848 -2.4818 0.9787
-4.4270 -1.7989 -2.4790 0.9787
-4.0328 -2.5543 -2.4765 0.9787
-3.7872 -2.9025 -2.4753 0.9787
-3.2087 -3.5264 -2.4734 0.9787
-2.4246 -3.8705 -2.3694 0.9796
-1.6977 -4.2382 -2.3685 0.9796
-0.9175 -4.4717 -2.3682 0.9796
0.2991 -4.5560 -2.3687 0.9796
1.4957 -4.3173 -2.3703 0.9796
3.0420 -3.6801 -2.4770 0.9787
4.5102 -1.6166 -2.4856 0.9786
4.6394 -1.2086 -2.4871 0.9786
4.7318 -0.7905 -2.4888 0.9786
4.7865 -0.3655 -2.4904 0.9786
4.7814 0.4913 -2.4935 0.9786
4.3177 2.1373 -2.4993 0.9785
4.1119 2.5152 -2.5006 0.9785
3.8730 2.8733 -2.5017 0.9785
3.3035 3.5185 -2.5038 0.9785
1.7890 4.2715 -2.4025 0.9793
-0.2311 4.6252 -2.4024 0.9793
-0.6426 4.5853 -2.4020 0.9794
-1.0488 4.5087 -2.4015 0.9794
-2.2924 4.2314 -2.4966 0.9785
