ply
format ascii 1.0
element vertex 1594
property float32 x
property float32 y
property float32 z
property float32 I
end_header
6.8387 -1.2364 -2.4852 0.9709
6.9430 0.6201 -2.4928 0.9708
6.5502 2.4432 -2.5000 0.9707
6.0505 2.8954 -2.3987 0.9719
5.7731 3.4265 -2.4008 0.9719
5.4489 3.9310 -2.4027 0.9719
4.6706 4.8437 -2.4062 0.9718
4.2227 5.2443 -2.4078 0.9718
2.1259 6.4011 -2.4120 0.9718
0.9550 6.6794 -2.4129 0.9717
0.3555 6.7382 -2.4130 0.9717
-0.2469 6.7428 -2.4129 0.9717
-2.5865 6.2239 -2.4103 0.9718
-3.6474 5.6594 -2.4078 0.9718
-4.6039 4.9309 -2.4125 0.9717
-5.2213 4.6761 -2.5065 0.9707
-5.9590 3.6678 -2.5023 0.9707
-6.5038 2.5459 -2.4977 0.9708
-6.6984 1.9538 -2.4952 0.9708
-6.8392 1.3471 -2.4927 0.9708
-6.9251 0.7310 -2.4902 0.9709
-6.9556 0.1103 -2.4877 0.9709
-6.9308 -0.5100 -2.4852 0.9709
-6.7167 -1.7299 -2.4803 0.9710
-5.7536 -3.2945 -2.3710 0.9722
-5.4324 -3.7914 -2.3690 0.9723
-3.7535 -5.4372 -2.3627 0.9723
-3.2520 -5.7476 -2.3616 0.9723
-2.7253 -6.0123 -2.3606 0.9723
2.4384 -6.1361 -2.3612 0.9723
2.9773 -5.8969 -2.3623 0.9723
3.4933 -5.6108 -2.3636 0.9723
3.9822 -5.2801 -2.3650 0.9723
4.6325 -5.1196 -2.4691 0.9711
5.0745 -4.6895 -2.4709 0.9711
6.1506 -3.1868 -2.4772 0.9710
6.9035 -0.8380 -2.4869 0.9709
6.9577 -0.2191 -2.4894 0.9709
6.9566 0.4027 -2.4919 0.9708
6.6212 2.2367 -2.4992 0.9707
6.2103 2.7367 -2.4269 0.9716
5.8756 3.2435 -2.4000 0.9719
5.5676 3.7577 -2.4020 0.9719
5.2143 4.2427 -2.4039 0.9718
4.8186 4.6943 -2.4057 0.9718
2.8790 6.0962 -2.4109 0.9718
1.7511 6.5147 -2.4124 0.9717
1.1632 6.6460 -2.4128 0.9717
0.5658 6.7238 -2.4130 0.9717
-0.0361 6.7474 -2.4129 0.9717
-1.2340 6.6316 -2.4122 0.9718
-1.8201 6.4932 -2.4115 0.9718
-3.4695 5.7718 -2.4083 0.9718
-3.6570 5.0100 -2.2181 0.9740
-4.4341 5.0570 -2.4052 0.9718
-5.0546 4.8198 -2.4976 0.9708
-5.8433 3.8534 -2.5031 0.9707
-6.9513 0.3277 -2.4886 0.9709
-6.7697 -1.5197 -2.4812 0.9710
-6.6009 -2.1155 -2.4788 0.9710
-6.3800 -2.6933 -2.4765 0.9710
-4.8108 -4.5424 -2.3661 0.9723
-4.3836 -4.9502 -2.3646 0.9723
-3.4305 -5.6441 -2.3620 0.9723
-2.9122 -5.9250 -2.3609 0.9723
-2.3713 -6.1590 -2.3601 0.9724
-1.8120 -6.3442 -2.3595 0.9724
-1.2387 -6.4794 -2.3590 0.9724
-0.0677 -6.5958 -2.3588 0.9724
1.1056 -6.5046 -2.3594 0.9724
1.6818 -6.3817 -2.3601 0.9724
2.2451 -6.2084 -2.3609 0.9723
2.7911 -5.9860 -2.3619 0.9723
5.7158 -3.8988 -2.4742 0.9710
6.7435 -1.6600 -2.4835 0.9709
6.8715 -1.0529 -2.4860 0.9709
6.9260 0.8063 -2.4935 0.9708
6.8332 1.4222 -2.4960 0.9708
4.9617 4.5403 -2.4051 0.9718
4.5400 4.9681 -2.4067 0.9718
3.0677 6.0024 -2.4106 0.9718
0.1747 6.7453 -2.4130 0.9717
-1.0263 6.6674 -2.4124 0.9717
-1.6165 6.5476 -2.4118 0.9718
-2.1933 6.3752 -2.4110 0.9718
-4.2750 5.1944 -2.4057 0.9718
-4.7179 4.7889 -2.4040 0.9718
-5.7218 4.0353 -2.5038 0.9707
-6.0536 3.5058 -2.5016 0.9707
-6.3363 2.9491 -2.4993 0.9707
-6.5678 2.3699 -2.4969 0.9708
-6.7464 1.7729 -2.4945 0.9708
-6.8707 1.1630 -2.4920 0.9708
-6.9401 0.5450 -2.4895 0.9709
-6.9125 -0.6954 -2.4845 0.9709
-6.8162 -1.3079 -2.4820 0.9709
-6.2094 -3.0572 -2.4751 0.9710
-4.9516 -4.3910 -2.3667 0.9723
-4.0874 -5.1942 -2.3636 0.9723
-3.0963 -5.8320 -2.3613 0.9723
-2.5629 -6.0826 -2.3604 0.9724
-1.4406 -6.4379 -2.3592 0.9724
-0.2738 -6.5904 -2.3588 0.9724
0.3152 -6.5889 -2.3589 0.9724
2.0497 -6.2747 -2.3606 0.9723
4.7691 -4.9946 -2.4696 0.9711
5.1996 -4.5528 -2.4715 0.9711
5.5895 -4.0742 -2.4735 0.9710
5.9357 -3.5625 -2.4756 0.9710
6.4863 -2.4557 -2.4802 0.9710
6.8329 -1.2667 -2.4851 0.9709
6.9256 -0.6528 -2.4876 0.9709
6.9454 0.5893 -2.4926 0.9708
5.4661 3.9066 -2.4026 0.9719
-0.8175 6.6967 -2.4126 0.9717
-1.4113 6.5956 -2.4120 0.9718
-3.1034 5.9796 -2.4092 0.9718
-6.2431 3.1467 -2.5001 0.9707
-6.6900 1.9836 -2.4953 0.9708
-6.8334 1.3776 -2.4929 0.9708
-6.9221 0.7618 -2.4904 0.9709
-6.8561 -1.0947 -2.4829 0.9709
-6.7246 -1.7002 -2.4804 0.9710
-5.7684 -3.2690 -2.3711 0.9722
-5.4494 -3.7674 -2.3691 0.9722
-3.2776 -5.7332 -2.3616 0.9723
-2.7520 -6.0003 -2.3607 0.9723
-2.2051 -6.2198 -2.3599 0.9724
-1.0645 -6.5101 -2.3590 0.9724
-0.4796 -6.5787 -2.3588 0.9724
3.4682 -5.6261 -2.3635 0.9723
4.6096 -5.1399 -2.4690 0.9711
6.4043 -2.6563 -2.4794 0.9710
6.7876 -1.4790 -2.4842 0.9709
6.8993 -0.8686 -2.4867 0.9709
6.9563 -0.2500 -2.4892 0.9709
6.9579 0.3718 -2.4918 0.9708
6.7946 1.6054 -2.4967 0.9708
6.6307 2.2071 -2.4991 0.9707
6.2578 2.7246 -2.4407 0.9714
4.8392 4.6727 -2.4056 0.9718
3.4355 5.7973 -2.4098 0.9718
2.3526 6.3204 -2.4117 0.9718
1.7799 6.5068 -2.4123 0.9717
-0.0062 6.7475 -2.4129 0.9717
-0.6079 6.7193 -2.4127 0.9717
-2.3632 6.3134 -2.4107 0.9718
-4.9993 4.8096 -2.4808 0.9710
-6.1437 3.3413 -2.5009 0.9707
-6.4113 2.7774 -2.4986 0.9708
-6.6270 2.1924 -2.4962 0.9708
-6.8974 0.9781 -2.4912 0.9708
-6.9501 0.3586 -2.4887 0.9709
-6.7767 -1.4897 -2.4813 0.9710
-6.6105 -2.0863 -2.4789 0.9710
-5.5660 -3.5963 -2.3698 0.9722
-4.4057 -4.9308 -2.3646 0.9723
-3.9460 -5.3010 -2.3632 0.9723
-2.9385 -5.9121 -2.3610 0.9723
-1.8401 -6.3362 -2.3595 0.9724
-1.2674 -6.4739 -2.3591 0.9724
-0.6849 -6.5605 -2.3588 0.9724
-0.0970 -6.5954 -2.3588 0.9724
0.4917 -6.5783 -2.3590 0.9724
1.0767 -6.5094 -2.3594 0.9724
1.6534 -6.3890 -2.3600 0.9724
2.2175 -6.2182 -2.3608 0.9723
5.3210 -4.4129 -2.4721 0.9711
5.6982 -3.9239 -2.4741 0.9710
6.0308 -3.4030 -2.4763 0.9710
6.3161 -2.8542 -2.4786 0.9710
6.9292 0.7755 -2.4934 0.9708
5.9855 3.0307 -2.3992 0.9719
5.6962 3.5555 -2.4013 0.9719
4.1049 5.3382 -2.4081 0.9718
3.6143 5.6862 -2.4094 0.9718
0.8054 6.6992 -2.4129 0.9717
0.2046 6.7445 -2.4130 0.9717
-0.3977 6.7354 -2.4128 0.9717
-2.1651 6.3850 -2.4110 0.9718
-2.7248 6.1638 -2.4100 0.9718
-3.2621 5.8933 -2.4088 0.9718
-3.5164 5.1971 -2.2440 0.9737
-4.2521 5.2135 -2.4058 0.9718
-5.3235 4.5573 -2.5060 0.9707
-6.0382 3.5328 -2.5017 0.9707
-6.5575 2.3992 -2.4970 0.9708
-6.8658 1.1935 -2.4921 0.9708
-6.9546 -0.0453 -2.4871 0.9709
-6.8223 -1.2777 -2.4821 0.9709
-6.6747 -1.8793 -2.4797 0.9710
-6.4744 -2.4649 -2.4774 0.9710
-5.6773 -3.4216 -2.3705 0.9722
-5.3451 -3.9112 -2.3685 0.9723
-4.5586 -4.7918 -2.3652 0.9723
-3.6304 -5.5191 -2.3624 0.9723
-3.1222 -5.8183 -2.3613 0.9723
-2.5898 -6.0712 -2.3604 0.9723
-0.8896 -6.5361 -2.3589 0.9724
0.8728 -6.5394 -2.3593 0.9724
1.4529 -6.4369 -2.3598 0.9724
2.0218 -6.2837 -2.3605 0.9723
3.1089 -5.8296 -2.3626 0.9723
3.6184 -5.5321 -2.3639 0.9723
5.5712 -4.0988 -2.4734 0.9710
6.4751 -2.4844 -2.4801 0.9710
6.6773 -1.8988 -2.4825 0.9709
6.9627 -0.0635 -2.4900 0.9709
6.9476 0.5584 -2.4925 0.9708
6.7511 1.7875 -2.4974 0.9708
6.5710 2.3848 -2.4998 0.9707
6.0754 2.8413 -2.3985 0.9719
5.4832 3.8822 -2.4025 0.9719
4.2688 5.2063 -2.4076 0.9718
3.2793 5.8881 -2.4102 0.9718
2.7422 6.1596 -2.4112 0.9718
2.1825 6.3818 -2.4119 0.9718
1.6050 6.5525 -2.4125 0.9717
1.0143 6.6705 -2.4128 0.9717
-1.3820 6.6019 -2.4121 0.9718
-1.9647 6.4503 -2.4113 0.9718
-3.5972 5.6919 -2.4079 0.9718
-4.0880 5.3450 -2.4064 0.9718
-5.1800 4.7227 -2.5067 0.9707
-5.5761 4.2384 -2.5047 0.9707
-6.2293 3.1745 -2.5003 0.9707
-6.4815 2.6038 -2.4979 0.9708
-6.6814 2.0133 -2.4955 0.9708
-6.9551 0.1721 -2.4880 0.9709
-6.9357 -0.4485 -2.4855 0.9709
-6.8612 -1.0643 -2.4830 0.9709
-6.7324 -1.6704 -2.4806 0.9710
-6.5504 -2.2621 -2.4782 0.9710
-6.3167 -2.8347 -2.4759 0.9710
-5.4662 -3.7433 -2.3692 0.9722
-5.1067 -4.2127 -2.3674 0.9723
-3.8018 -5.4040 -2.3628 0.9723
-2.7787 -5.9881 -2.3607 0.9723
-1.6695 -6.3828 -2.3593 0.9724
-1.0934 -6.5053 -2.3590 0.9724
0.0799 -6.5958 -2.3589 0.9724
0.6679 -6.5630 -2.3591 0.9724
1.2509 -6.4786 -2.3596 0.9724
1.8243 -6.3430 -2.3603 0.9724
3.4431 -5.6413 -2.3634 0.9723
3.9350 -5.3149 -2.3649 0.9723
5.0322 -4.7340 -2.4707 0.9711
5.4388 -4.2697 -2.4727 0.9711
6.1215 -3.2410 -2.4770 0.9710
6.3921 -2.6846 -2.4793 0.9710
6.9548 -0.2809 -2.4891 0.9709
6.8014 1.5751 -2.4966 0.9708
6.6402 2.1776 -2.4990 0.9708
5.9037 3.1909 -2.3998 0.9719
5.2514 4.1959 -2.4038 0.9718
4.8597 4.6510 -2.4055 0.9718
-1.1752 6.6424 -2.4123 0.9718
-1.7624 6.5093 -2.4116 0.9718
-3.4183 5.8027 -2.4084 0.9718
-3.5797 4.9966 -2.1981 0.9742
-4.9448 4.7996 -2.4643 0.9712
-6.7827 1.6212 -2.4939 0.9708
-6.8933 1.0087 -2.4914 0.9708
-6.9488 0.3895 -2.4888 0.9709
-6.9488 -0.2317 -2.4863 0.9709
-6.8935 -0.8497 -2.4838 0.9709
-6.7836 -1.4597 -2.4814 0.9710
-6.0921 -3.1708 -2.4560 0.9712
-5.5821 -3.5717 -2.3699 0.9722
-4.4277 -4.9114 -2.3647 0.9723
-3.9696 -5.2836 -2.3633 0.9723
-3.4807 -5.6137 -2.3621 0.9723
-2.9648 -5.8991 -2.3610 0.9723
-2.4259 -6.1379 -2.3602 0.9724
-1.8683 -6.3280 -2.3595 0.9724
-1.2962 -6.4683 -2.3591 0.9724
-0.1262 -6.5949 -2.3588 0.9724
0.4625 -6.5804 -2.3590 0.9724
1.0478 -6.5140 -2.3594 0.9724
1.6250 -6.3962 -2.3600 0.9724
2.1898 -6.2279 -2.3608 0.9723
2.7378 -6.0103 -2.3618 0.9723
3.7661 -5.4341 -2.3643 0.9723
4.2548 -5.0992 -2.3749 0.9722
4.8806 -4.8876 -2.4700 0.9711
5.6804 -3.9490 -2.4740 0.9710
6.3030 -2.8821 -2.4785 0.9710
6.7278 -1.7196 -2.4832 0.9709
6.9402 -0.4979 -2.4882 0.9709
6.7027 1.9684 -2.4982 0.9708
6.5065 2.5608 -2.5005 0.9707
5.7117 3.5301 -2.4012 0.9719
5.3784 4.0287 -2.4031 0.9719
4.1284 5.3198 -2.4081 0.9718
2.5763 6.2316 -2.4114 0.9718
2.0108 6.4385 -2.4121 0.9718
0.2346 6.7435 -2.4130 0.9717
-0.3678 6.7371 -2.4128 0.9717
-0.9671 6.6764 -2.4124 0.9717
-1.5584 6.5619 -2.4119 0.9718
-2.1368 6.3947 -2.4111 0.9718
-3.2359 5.9079 -2.4089 0.9718
-3.5088 5.2358 -2.2539 0.9736
-4.2290 5.2324 -2.4059 0.9718
-4.6755 4.8310 -2.4042 0.9718
-6.3104 3.0056 -2.4996 0.9707
-6.7310 1.8329 -2.4947 0.9708
-6.8608 1.2240 -2.4922 0.9708
-6.9191 -0.6341 -2.4847 0.9709
-6.8282 -1.2475 -2.4822 0.9709
-5.6927 -3.3965 -2.3706 0.9722
-5.3627 -3.8876 -2.3686 0.9723
-4.9907 -4.3472 -2.3669 0.9723
-4.5800 -4.7717 -2.3652 0.9723
-3.6550 -5.5031 -2.3625 0.9723
-2.0653 -6.2671 -2.3597 0.9724
-0.3322 -6.5877 -2.3588 0.9724
0.2567 -6.5914 -2.3589 0.9724
0.8437 -6.5431 -2.3592 0.9724
1.4242 -6.4432 -2.3598 0.9724
4.0768 -5.2085 -2.3653 0.9723
5.1586 -4.5985 -2.4713 0.9711
5.5527 -4.1233 -2.4733 0.9710
6.2079 -3.0766 -2.4777 0.9710
6.4637 -2.5130 -2.4800 0.9710
6.8207 -1.3272 -2.4849 0.9709
6.9188 -0.7142 -2.4874 0.9709
6.9620 -0.0943 -2.4899 0.9709
6.8818 1.1464 -2.4949 0.9708
6.0877 2.8142 -2.3983 0.9719
5.8175 3.3489 -2.4005 0.9719
5.5002 3.8576 -2.4024 0.9719
5.1381 4.3362 -2.4043 0.9718
4.7342 4.7806 -2.4060 0.9718
3.3053 5.8734 -2.4101 0.9718
2.2108 6.3719 -2.4119 0.9718
1.6340 6.5453 -2.4125 0.9717
0.4452 6.7329 -2.4130 0.9717
-0.7580 6.7038 -2.4126 0.9717
-3.0503 6.0072 -2.4093 0.9718
-3.8177 5.0378 -2.2604 0.9735
-4.5235 4.9760 -2.4048 0.9718
-6.2155 3.2023 -2.5004 0.9707
-6.4702 2.6326 -2.4980 0.9708
-6.6728 2.0431 -2.4956 0.9708
-6.8216 1.4383 -2.4931 0.9708
-6.9158 0.8233 -2.4906 0.9708
-6.9546 0.2030 -2.4881 0.9709
-6.5606 -2.2331 -2.4783 0.9710
-5.4830 -3.7192 -2.3693 0.9722
-5.1255 -4.1902 -2.3675 0.9723
-2.8053 -5.9758 -2.3607 0.9723
-0.5379 -6.5741 -2.3588 0.9724
0.0506 -6.5960 -2.3589 0.9724
1.2222 -6.4840 -2.3596 0.9724
1.7961 -6.3509 -2.3602 0.9724
2.3563 -6.1677 -2.3611 0.9723
3.4180 -5.6564 -2.3634 0.9723
3.9112 -5.3321 -2.3648 0.9723
5.4196 -4.2936 -2.4726 0.9711
5.7858 -3.7963 -2.4747 0.9710
6.1068 -3.2680 -2.4769 0.9710
6.9531 -0.3117 -2.4890 0.9709
-2.8428 -5.4711 -2.3628 0.9739
-1.2919 -6.0237 -2.3609 0.9740
-0.7494 -6.1143 -2.3606 0.9740
-0.2010 -6.1566 -2.3606 0.9740
0.3489 -6.1504 -2.3607 0.9740
1.4367 -5.9927 -2.3616 0.9739
2.4804 -5.6460 -2.3632 0.9739
2.9754 -5.4047 -2.3643 0.9739
4.4942 -4.6238 -2.4710 0.9728
5.5708 -3.2766 -2.4767 0.9727
6.3877 -1.1256 -2.4856 0.9726
6.4687 -0.5519 -2.4879 0.9726
6.4760 0.6074 -2.4926 0.9725
5.8006 2.8075 -2.4696 0.9728
5.3710 3.2201 -2.3998 0.9735
4.3360 4.5368 -2.4049 0.9735
2.9848 5.5314 -2.4087 0.9734
1.9558 5.9777 -2.4102 0.9734
0.8629 6.2321 -2.4110 0.9734
0.3036 6.2845 -2.4111 0.9734
-1.3705 6.1382 -2.4102 0.9734
-1.9120 5.9897 -2.4095 0.9734
-2.4377 5.7931 -2.4086 0.9734
-3.4249 5.2627 -2.4062 0.9735
-3.8783 4.9333 -2.4048 0.9735
-4.4317 4.7044 -2.4768 0.9727
-4.8892 4.3397 -2.5052 0.9724
-5.5737 3.3966 -2.5013 0.9724
-5.8494 2.8835 -2.4992 0.9725
-6.2574 1.7950 -2.4947 0.9725
-6.4647 0.6534 -2.4900 0.9726
-6.4911 0.0741 -2.4877 0.9726
-6.2617 -1.6424 -2.4808 0.9727
-6.0849 -2.1925 -2.4786 0.9727
-5.8601 -2.7241 -2.4765 0.9727
-5.0732 -3.5744 -2.3782 0.9738
-4.7145 -3.9959 -2.3683 0.9739
-4.3364 -4.3976 -2.3668 0.9739
-3.9246 -4.7641 -2.3654 0.9739
-0.9401 -6.0880 -2.3607 0.9740
-0.3933 -6.1473 -2.3606 0.9740
0.1566 -6.1581 -2.3606 0.9740
1.2487 -6.0341 -2.3614 0.9739
1.7824 -5.9003 -2.3620 0.9739
2.3024 -5.7199 -2.3629 0.9739
2.8046 -5.4941 -2.3639 0.9739
3.8118 -5.0077 -2.4118 0.9734
4.3465 -4.7609 -2.4704 0.9728
4.7572 -4.3573 -2.4722 0.9727
5.1307 -3.9185 -2.4740 0.9727
5.4641 -3.4480 -2.4760 0.9727
5.7547 -2.9494 -2.4781 0.9727
6.0001 -2.4264 -2.4802 0.9727
6.3473 -1.3242 -2.4848 0.9726
6.4938 -0.1757 -2.4894 0.9726
6.3262 1.5541 -2.4964 0.9725
5.4862 3.0603 -2.4074 0.9734
5.1777 3.5282 -2.4010 0.9735
4.0670 4.7826 -2.4059 0.9735
2.6595 5.6967 -2.4093 0.9734
2.1414 5.9131 -2.4100 0.9734
1.6059 6.0820 -2.4106 0.9734
0.4998 6.2719 -2.4111 0.9734
-0.0616 6.2914 -2.4111 0.9734
-0.6225 6.2602 -2.4108 0.9734
-2.2558 5.8673 -2.4089 0.9734
-2.7689 5.6403 -2.4079 0.9734
-4.7524 4.4915 -2.5059 0.9724
-5.1303 4.0467 -2.5040 0.9724
-6.0034 2.5377 -2.4977 0.9725
-6.2002 1.9903 -2.4955 0.9725
-6.3472 1.4280 -2.4932 0.9725
-6.4877 0.2770 -2.4885 0.9726
-6.4805 -0.3025 -2.4861 0.9726
-6.4217 -0.8785 -2.4838 0.9726
-6.3119 -1.4464 -2.4816 0.9726
-6.1523 -2.0019 -2.4793 0.9727
-5.9441 -2.5404 -2.4772 0.9727
-5.6891 -3.0580 -2.4752 0.9727
-4.4727 -4.2609 -2.3673 0.9739
-3.6403 -4.9821 -2.3646 0.9739
-3.1799 -5.2844 -2.3635 0.9739
-2.1888 -5.7611 -2.3617 0.9739
-0.5851 -6.1321 -2.3606 0.9740
-0.0358 -6.1598 -2.3606 0.9740
1.5970 -5.9525 -2.3618 0.9739
2.1222 -5.7882 -2.3626 0.9739
2.6311 -5.5782 -2.3635 0.9739
4.1947 -4.8932 -2.4699 0.9728
4.6175 -4.5027 -2.4715 0.9728
5.6581 -3.1268 -2.4773 0.9727
6.4830 -0.3784 -2.4886 0.9726
6.3697 1.3553 -2.4956 0.9725
6.2290 1.9197 -2.4979 0.9725
6.0382 2.4698 -2.5000 0.9724
5.2840 3.3637 -2.4004 0.9735
4.2136 4.6523 -2.4054 0.9735
1.2504 6.1656 -2.4109 0.9734
-0.9846 6.2128 -2.4106 0.9734
-1.5344 6.0987 -2.4100 0.9734
-2.0716 5.9357 -2.4092 0.9734
-3.0906 5.4683 -2.4071 0.9735
-3.5261 5.1130 -2.3801 0.9737
-4.0084 4.8266 -2.4043 0.9735
-4.6109 4.6390 -2.5065 0.9724
-5.6613 3.2451 -2.5007 0.9724
-5.9230 2.7249 -2.4985 0.9725
-6.3015 1.6262 -2.4940 0.9725
-6.4155 1.0566 -2.4917 0.9725
-6.4889 -0.0998 -2.4870 0.9726
-6.4481 -0.6776 -2.4846 0.9726
-6.3561 -1.2489 -2.4823 0.9726
-6.2137 -1.8092 -2.4801 0.9727
-5.7835 -2.8796 -2.4759 0.9727
-5.3744 -3.3045 -2.4178 0.9733
-4.9573 -3.6954 -2.3695 0.9739
-4.6048 -4.1200 -2.3679 0.9739
-3.7949 -4.8668 -2.3650 0.9739
-3.3440 -5.1833 -2.3638 0.9739
-1.3186 -6.0179 -2.3609 0.9740
-0.7765 -6.1109 -2.3606 0.9740
0.3216 -6.1518 -2.3607 0.9740
2.4552 -5.6568 -2.3632 0.9739
2.9513 -5.4177 -2.3642 0.9739
3.4354 -5.1519 -2.3730 0.9738
4.0388 -5.0208 -2.4693 0.9728
5.2351 -3.7804 -2.4746 0.9727
5.8332 -2.7948 -2.4787 0.9727
6.0646 -2.2654 -2.4809 0.9726
6.2481 -1.7170 -2.4832 0.9726
6.3823 -1.1539 -2.4855 0.9726
6.4659 -0.5805 -2.4878 0.9726
6.4783 0.5786 -2.4925 0.9725
6.4068 1.1552 -2.4948 0.9725
6.2840 1.7236 -2.4971 0.9725
6.1106 2.2793 -2.4993 0.9724
5.8483 2.7986 -2.4846 0.9726
5.3850 3.1961 -2.3997 0.9735
5.0823 3.6665 -2.4016 0.9735
4.7384 4.1082 -2.4033 0.9735
3.9380 4.8908 -2.4063 0.9735
3.4879 5.2253 -2.4075 0.9734
3.0093 5.5180 -2.4086 0.9734
1.4423 6.1232 -2.4107 0.9734
0.3315 6.2831 -2.4111 0.9734
-0.2303 6.2873 -2.4110 0.9734
-1.8854 5.9982 -2.4095 0.9734
-2.4120 5.8040 -2.4086 0.9734
-3.4015 5.2779 -2.4063 0.9735
-4.3843 4.6957 -2.4619 0.9729
-5.8368 2.9095 -2.4993 0.9724
-6.2496 1.8229 -2.4948 0.9725
-6.4682 -0.4760 -2.4854 0.9726
-6.2692 -1.6147 -2.4809 0.9726
-6.0948 -2.1655 -2.4787 0.9727
-5.0717 -3.5397 -2.3701 0.9739
-3.9458 -4.7467 -2.3655 0.9739
-3.0367 -5.3671 -2.3632 0.9739
-2.5449 -5.6144 -2.3623 0.9739
-2.0334 -5.8173 -2.3616 0.9739
-1.5061 -5.9741 -2.3610 0.9740
-0.9671 -6.0838 -2.3607 0.9740
-0.4205 -6.1455 -2.3606 0.9740
0.6782 -6.1233 -2.3609 0.9740
1.7562 -5.9081 -2.3620 0.9739
2.2769 -5.7299 -2.3628 0.9739
2.7801 -5.5064 -2.3638 0.9739
3.2618 -5.2391 -2.3650 0.9739
4.7376 -4.3782 -2.4721 0.9727
5.7413 -2.9748 -2.4780 0.9727
6.4425 -0.7820 -2.4870 0.9726
6.3328 1.5260 -2.4963 0.9725
4.8633 3.9571 -2.4027 0.9735
4.4940 4.3781 -2.4043 0.9735
3.6488 5.1128 -2.4071 0.9735
2.6847 5.6848 -2.4092 0.9734
2.1676 5.9035 -2.4100 0.9734
1.6328 6.0747 -2.4106 0.9734
-0.0337 6.2916 -2.4111 0.9734
-0.5947 6.2629 -2.4109 0.9734
-1.6972 6.0549 -2.4098 0.9734
-3.2356 5.3827 -2.4067 0.9735
-3.6509 5.0015 -2.3730 0.9738
-4.1355 4.7165 -2.4038 0.9735
-5.4507 3.5945 -2.5021 0.9724
-5.7447 3.0914 -2.5000 0.9724
-6.1916 2.0179 -2.4956 0.9725
-6.4396 0.8840 -2.4909 0.9725
-6.4820 -0.2737 -2.4863 0.9726
-6.4258 -0.8500 -2.4839 0.9726
-6.3186 -1.4185 -2.4817 0.9726
-6.1614 -1.9746 -2.4795 0.9727
-5.9556 -2.5141 -2.4773 0.9727
-5.1811 -3.3803 -2.3707 0.9738
-4.4918 -4.2412 -2.3674 0.9739
-2.2144 -5.7514 -2.3618 0.9739
-1.6921 -5.9246 -2.3612 0.9740
-0.0632 -6.1596 -2.3606 0.9740
1.0324 -6.0743 -2.3612 0.9740
1.5705 -5.9595 -2.3618 0.9739
2.0965 -5.7975 -2.3625 0.9739
2.6063 -5.5896 -2.3635 0.9739
4.1728 -4.9117 -2.4698 0.9728
5.3359 -3.6396 -2.4752 0.9727
5.6439 -3.1518 -2.4772 0.9727
6.2937 -1.5493 -2.4838 0.9726
6.4975 0.1727 -2.4908 0.9725
6.4623 0.7523 -2.4932 0.9725
6.3753 1.3269 -2.4955 0.9725
6.2372 1.8920 -2.4977 0.9725
6.0489 2.4429 -2.4999 0.9724
5.5837 2.8585 -2.4039 0.9735
5.2987 3.3402 -2.4003 0.9735
4.9834 3.8023 -2.4021 0.9735
4.2341 4.6334 -2.4053 0.9735
3.3471 5.3176 -2.4079 0.9734
2.8606 5.5974 -2.4089 0.9734
1.8217 6.0203 -2.4104 0.9734
0.1629 6.2897 -2.4111 0.9734
-0.3987 6.2787 -2.4110 0.9734
-1.5074 6.1056 -2.4100 0.9734
-2.0453 5.9449 -2.4093 0.9734
-3.5186 5.1509 -2.3905 0.9736
-3.9871 4.8445 -2.4044 0.9735
-6.2945 1.6542 -2.4941 0.9725
-6.4110 1.0852 -2.4918 0.9725
-6.4896 -0.0711 -2.4871 0.9726
-6.4513 -0.6490 -2.4847 0.9726
-6.3618 -1.2207 -2.4825 0.9726
-6.2220 -1.7817 -2.4802 0.9727
-5.4147 -3.2962 -2.4293 0.9732
-4.6231 -4.0997 -2.3679 0.9739
-4.2364 -4.4928 -2.3664 0.9739
-3.8165 -4.8500 -2.3651 0.9739
-3.3671 -5.1685 -2.3639 0.9739
-2.8914 -5.4459 -2.3629 0.9739
-2.3933 -5.6801 -2.3620 0.9739
-1.8765 -5.8693 -2.3614 0.9739
-1.3453 -6.0121 -2.3609 0.9740
-0.8036 -6.1074 -2.3606 0.9740
0.2943 -6.1531 -2.3607 0.9740
1.9141 -5.8595 -2.3622 0.9739
2.4300 -5.6675 -2.3631 0.9739
2.9271 -5.4306 -2.3642 0.9739
4.0164 -5.0386 -2.4693 0.9728
4.8543 -4.2505 -2.4726 0.9727
5.8205 -2.8205 -2.4786 0.9727
6.2402 -1.7446 -2.4830 0.9726
6.4976 -0.0304 -2.4900 0.9726
6.4116 1.1267 -2.4947 0.9725
6.2913 1.6956 -2.4970 0.9725
6.1204 2.2520 -2.4992 0.9725
5.8965 2.7896 -2.4998 0.9724
5.3989 3.1721 -2.3996 0.9735
4.3759 4.4978 -2.4048 0.9735
3.9596 4.8731 -2.4062 0.9735
3.5110 5.2096 -2.4075 0.9734
3.0337 5.5045 -2.4086 0.9734
2.0088 5.9599 -2.4102 0.9734
-0.2023 6.2883 -2.4110 0.9734
-1.3160 6.1503 -2.4102 0.9734
-2.3862 5.8148 -2.4087 0.9734
-3.8346 4.9678 -2.4049 0.9735
-4.3389 4.6886 -2.4481 0.9730
-5.8241 2.9355 -2.4994 0.9724
-6.0573 2.4022 -2.4972 0.9725
-6.4593 0.7109 -2.4902 0.9725
-6.4908 0.1318 -2.4879 0.9726
-6.4706 -0.4472 -2.4856 0.9726
-5.8845 -2.6722 -2.4767 0.9727
-5.6181 -3.1838 -2.4747 0.9727
-5.0875 -3.5172 -2.3702 0.9739
-4.7501 -3.9542 -2.3685 0.9739
-4.3756 -4.3592 -2.3669 0.9739
-3.5275 -5.0616 -2.3643 0.9739
-3.0605 -5.3536 -2.3632 0.9739
-2.0592 -5.8083 -2.3616 0.9739
-0.4479 -6.1436 -2.3606 0.9740
0.6510 -6.1262 -2.3609 0.9740
1.1950 -6.0448 -2.3613 0.9740
2.2514 -5.7399 -2.3628 0.9739
3.2384 -5.2534 -2.3650 0.9739
4.3038 -4.7990 -2.4703 0.9728
5.4329 -3.4961 -2.4758 0.9727
5.7278 -3.0001 -2.4779 0.9727
5.9778 -2.4794 -2.4800 0.9727
6.1806 -1.9381 -2.4822 0.9726
6.3347 -1.3804 -2.4845 0.9726
6.3392 1.4978 -2.4962 0.9725
6.1859 2.0591 -2.4984 0.9725
5.4939 3.0010 -2.3990 0.9735
5.2084 3.4818 -2.4009 0.9735
4.8807 3.9354 -2.4026 0.9735
4.5133 4.3579 -2.4042 0.9735
4.1091 4.7461 -2.4057 0.9735
3.2037 5.4062 -2.4082 0.9734
2.7098 5.6727 -2.4092 0.9734
1.1121 6.1922 -2.4109 0.9734
-0.0058 6.2917 -2.4111 0.9734
-1.1233 6.1889 -2.4104 0.9734
-1.6704 6.0624 -2.4098 0.9734
-2.2037 5.8873 -2.4090 0.9734
-3.2117 5.3971 -2.4068 0.9735
-5.0945 4.0924 -2.5042 0.9724
-5.9812 2.5911 -2.4979 0.9725
-6.1829 2.0454 -2.4957 0.9725
-6.4835 -0.2449 -2.4864 0.9726
-6.4298 -0.8215 -2.4841 0.9726
-6.3251 -1.3904 -2.4818 0.9726
-6.1703 -1.9473 -2.4796 0.9727
-5.9669 -2.4878 -2.4774 0.9727
-5.7165 -3.0076 -2.4754 0.9727
-4.5107 -4.2213 -2.3675 0.9739
-3.6845 -4.9498 -2.3647 0.9739
-3.2268 -5.2562 -2.3636 0.9739
-2.7440 -5.5208 -2.3626 0.9739
-2.2399 -5.7416 -2.3618 0.9739
-1.1836 -6.0457 -2.3608 0.9740
-0.0906 -6.1592 -2.3606 0.9740
0.4592 -6.1432 -2.3608 0.9740
1.5440 -5.9663 -2.3617 0.9739
3.5391 -5.0584 -2.3658 0.9739
4.5771 -4.5431 -2.4714 0.9728
4.9676 -4.1198 -2.4732 0.9727
6.1151 -2.1296 -2.4815 0.9726
6.2865 -1.5771 -2.4837 0.9726
6.4787 -0.4359 -2.4884 0.9726
6.4653 0.7236 -2.4931 0.9725
6.3809 1.2985 -2.4954 0.9725
6.2452 1.8642 -2.4976 0.9725
6.0594 2.4159 -2.4998 0.9724
5.6247 2.8480 -2.4160 0.9734
5.3132 3.3165 -2.4002 0.9735
5.0000 3.7800 -2.4020 0.9735
3.3705 5.3026 -2.4078 0.9734
2.8854 5.5845 -2.4089 0.9734
1.3050 6.1541 -2.4108 0.9734
0.7510 6.2467 -2.4111 0.9734
-0.3708 6.2804 -2.4110 0.9734
-0.9294 6.2214 -2.4106 0.9734
-2.0189 5.9540 -2.4093 0.9734
-2.5410 5.7480 -2.4084 0.9734
-3.0421 5.4958 -2.4072 0.9735
-3.5111 5.1892 -2.4010 0.9735
-4.5699 4.6801 -2.5067 0.9724
-5.3207 3.7879 -2.5029 0.9724
-5.8991 2.7776 -2.4987 0.9725
-6.1179 2.2383 -2.4965 0.9725
-6.2874 1.6822 -2.4942 0.9725
-6.4064 1.1137 -2.4919 0.9725
-6.4901 -0.0423 -2.4872 0.9726
-6.4544 -0.6204 -2.4849 0.9726
-6.2301 -1.7542 -2.4803 0.9727
-4.9903 -3.6516 -2.3697 0.9739
-4.2564 -4.4741 -2.3665 0.9739
-3.3900 -5.1536 -2.3639 0.9739
-1.9026 -5.8609 -2.3614 0.9739
-0.8307 -6.1038 -2.3607 0.9740
-0.2829 -6.1534 -2.3606 0.9740
0.8150 -6.1068 -2.3610 0.9740
1.8880 -5.8678 -2.3622 0.9739
2.4048 -5.6781 -2.3631 0.9739
2.9029 -5.4435 -2.3641 0.9739
3.3787 -5.1655 -2.3653 0.9739
3.9795 -5.0379 -2.4603 0.9729
4.8353 -4.2719 -2.4725 0.9727
5.5260 -3.3500 -2.4764 0.9727
6.0437 -2.3189 -2.4807 0.9727
6.3712 -1.2104 -2.4852 0.9726
6.4971 -0.0592 -2.4899 0.9726
6.4163 1.0982 -2.4946 0.9725
6.1301 2.2247 -2.4991 0.9725
5.4127 3.1480 -2.3996 0.9735
5.1143 3.6210 -2.4014 0.9735
4.7744 4.0656 -2.4031 0.9735
4.3956 4.4783 -2.4047 0.9735
3.9811 4.8554 -2.4061 0.9735
3.5340 5.1938 -2.4074 0.9734
3.0580 5.4908 -2.4085 0.9734
2.5571 5.7439 -2.4094 0.9734
2.0352 5.9509 -2.4102 0.9734
1.4966 6.1100 -2.4107 0.9734
0.9458 6.2200 -2.4110 0.9734
0.3872 6.2799 -2.4111 0.9734
-0.1744 6.2892 -2.4110 0.9734
-1.2887 6.1561 -2.4103 0.9734
-1.8321 6.0149 -2.4096 0.9734
-2.3605 5.8254 -2.4087 0.9734
-3.8126 4.9849 -2.4050 0.9735
-5.2012 3.9534 -2.5036 0.9724
-6.2338 1.8785 -2.4950 0.9725
-6.4728 -0.4186 -2.4857 0.9726
-6.4037 -0.9933 -2.4834 0.9726
-6.2838 -1.5591 -2.4811 0.9726
-6.1143 -2.1115 -2.4789 0.9727
-5.8966 -2.6462 -2.4768 0.9727
-4.3951 -4.3399 -2.3670 0.9739
-3.5500 -5.0461 -2.3643 0.9739
-3.0844 -5.3401 -2.3633 0.9739
-2.5947 -5.5918 -2.3623 0.9739
-2.0850 -5.7991 -2.3616 0.9739
-1.5591 -5.9606 -2.3611 0.9740
-0.4751 -6.1415 -2.3606 0.9740
0.0746 -6.1595 -2.3606 0.9740
1.1682 -6.0500 -2.3613 0.9740
1.7036 -5.9233 -2.3619 0.9739
3.2150 -5.2676 -2.3649 0.9739
3.6976 -4.9944 -2.3814 0.9737
4.2823 -4.8179 -2.4702 0.9728
5.0775 -3.9860 -2.4737 0.9727
6.1717 -1.9654 -2.4821 0.9726
6.3283 -1.4084 -2.4844 0.9726
6.4936 0.3181 -2.4914 0.9725
6.4454 0.8969 -2.4938 0.9725
5.5069 2.9765 -2.3989 0.9735
5.2236 3.4585 -2.4008 0.9735
4.5324 4.3377 -2.4042 0.9735
3.6939 5.0800 -2.4070 0.9735
3.2276 5.3918 -2.4082 0.9734
2.7350 5.6605 -2.4091 0.9734
0.5833 6.2647 -2.4111 0.9734
-0.5391 6.2680 -2.4109 0.9734
-1.6435 6.0699 -2.4098 0.9734
-2.6938 5.6770 -2.4080 0.9734
-3.1879 5.4115 -2.4069 0.9735
-3.5738 4.9882 -2.3515 0.9741
-4.0938 4.7533 -2.4040 0.9735
-4.6927 4.5549 -2.5062 0.9724
-5.0765 4.1151 -2.5043 0.9724
-5.7176 3.1425 -2.5002 0.9724
-5.9699 2.6178 -2.4981 0.9725
-6.3285 1.5126 -2.4935 0.9725
-5.2243 -3.3428 -2.3768 0.9738
-4.8895 -3.7832 -2.3692 0.9739
-3.7066 -4.9335 -2.3648 0.9739
-2.7686 -5.5087 -2.3626 0.9739
-2.2654 -5.7317 -2.3618 0.9739
-1.7447 -5.9094 -2.3612 0.9740
-1.2104 -6.0404 -2.3608 0.9740
-0.6668 -6.1237 -2.3606 0.9740
0.4319 -6.1452 -2.3608 0.9740
0.9785 -6.0831 -2.3611 0.9740
4.1288 -4.9482 -2.4696 0.9728
4.5567 -4.5633 -2.4713 0.9728
4.9491 -4.1417 -2.4731 0.9727
6.1054 -2.1566 -2.4813 0.9726
6.4032 -1.0395 -2.4859 0.9726
6.4982 0.1150 -2.4906 0.9725
6.4681 0.6948 -2.4930 0.9725
6.3863 1.2701 -2.4953 0.9725
6.2532 1.8363 -2.4975 0.9725
5.6660 2.8374 -2.4283 0.9732
5.0166 3.7576 -2.4019 0.9735
4.6646 4.1930 -2.4036 0.9735
4.2748 4.5954 -2.4052 0.9735
3.8501 4.9612 -2.4065 0.9735
3.3940 5.2875 -2.4078 0.9734
2.9101 5.5715 -2.4088 0.9734
2.4024 5.8110 -2.4097 0.9734
1.8751 6.0037 -2.4103 0.9734
1.3323 6.1483 -2.4108 0.9734
-0.9018 6.2255 -2.4106 0.9734
-3.0178 5.5095 -2.4073 0.9734
-3.4952 5.2155 -2.4060 0.9735
-4.5492 4.7004 -2.5068 0.9724
-4.9468 4.2729 -2.5050 0.9724
-5.8870 2.8039 -2.4988 0.9725
-6.4905 -0.0134 -2.4873 0.9726
-6.3730 -1.1643 -2.4827 0.9726
-6.0539 -2.2741 -2.4783 0.9727
-5.8221 -2.8026 -2.4762 0.9727
-5.4987 -3.2808 -2.4538 0.9729
-4.6597 -4.0587 -2.3681 0.9739
-3.8597 -4.8162 -2.3652 0.9739
-2.4437 -5.6588 -2.3621 0.9739
-1.9286 -5.8525 -2.3614 0.9739
-1.3987 -6.0000 -2.3610 0.9740
-0.8578 -6.1001 -2.3607 0.9740
0.2397 -6.1555 -2.3607 0.9740
0.7879 -6.1103 -2.3610 0.9740
1.8619 -5.8760 -2.3622 0.9739
2.3795 -5.6886 -2.3630 0.9739
3.3556 -5.1803 -2.3653 0.9739
4.4108 -4.7023 -2.4707 0.9728
4.8161 -4.2932 -2.4724 0.9727
5.1837 -3.8493 -2.4743 0.9727
6.0331 -2.3456 -2.4806 0.9727
6.2239 -1.7998 -2.4828 0.9726
6.3655 -1.2386 -2.4851 0.9726
6.4846 0.4922 -2.4921 0.9725
6.3055 1.6396 -2.4967 0.9725
4.7923 4.0443 -2.4030 0.9735
4.4153 4.4586 -2.4046 0.9735
2.0616 5.9417 -2.4101 0.9734
1.5237 6.1033 -2.4107 0.9734
0.4151 6.2781 -2.4111 0.9734
-0.7069 6.2511 -2.4108 0.9734
-1.2614 6.1618 -2.4103 0.9734
-1.8054 6.0231 -2.4096 0.9734
-2.8446 5.6020 -2.4077 0.9734
-3.3312 5.3232 -2.4065 0.9735
-3.7906 5.0020 -2.4051 0.9735
-4.2533 4.6788 -2.4231 0.9733
-5.5134 3.4956 -2.5017 0.9724
-5.7983 2.9874 -2.4996 0.9724
-6.2257 1.9062 -2.4951 0.9725
-6.3650 1.3420 -2.4928 0.9725
-6.4532 0.7682 -2.4905 0.9725
-6.1239 -2.0844 -2.4790 0.9727
-4.4144 -4.3205 -2.3671 0.9739
-4.0091 -4.6942 -2.3657 0.9739
-3.1081 -5.3265 -2.3633 0.9739
-2.6196 -5.5803 -2.3624 0.9739
-2.1108 -5.7899 -2.3616 0.9739
-1.0480 -6.0705 -2.3607 0.9740
0.5966 -6.1316 -2.3608 0.9740
1.1413 -6.0551 -2.3613 0.9740
2.2003 -5.7594 -2.3627 0.9739
3.6602 -4.9900 -2.3715 0.9738
4.2608 -4.8367 -2.4701 0.9728
4.6784 -4.4404 -2.4718 0.9727
5.0596 -4.0083 -2.4736 0.9727
5.7005 -3.0506 -2.4776 0.9727
6.1626 -1.9927 -2.4820 0.9726
-2.6634 -5.1259 -2.3642 0.9753
-1.7093 -5.5144 -2.3628 0.9754
-1.2104 -5.6439 -2.3624 0.9754
0.3270 -5.7626 -2.3623 0.9754
1.3461 -5.6147 -2.3631 0.9754
1.8421 -5.4739 -2.3638 0.9753
2.3238 -5.2896 -2.3646 0.9753
3.3079 -4.9133 -2.4241 0.9747
3.8046 -4.6868 -2.4706 0.9742
4.5826 -3.9413 -2.4738 0.9742
5.2177 -3.0689 -2.4775 0.9742
5.4751 -2.5934 -2.4794 0.9742
5.8585 -1.5820 -2.4836 0.9741
5.9815 -1.0540 -2.4858 0.9741
6.0843 0.0256 -2.4902 0.9740
6.0631 0.5687 -2.4924 0.9740
5.8757 1.6397 -2.4966 0.9740
5.0271 3.0140 -2.3989 0.9750
4.7417 3.4528 -2.4006 0.9750
0.8074 5.8314 -2.4094 0.9749
0.2840 5.8804 -2.4095 0.9749
-0.7652 5.8363 -2.4091 0.9749
-1.2824 5.7436 -2.4086 0.9749
-2.2811 5.4210 -2.4071 0.9749
-2.7543 5.1937 -2.4061 0.9749
-4.5760 4.0617 -2.5042 0.9739
-4.9165 3.6348 -2.5024 0.9739
-5.4755 2.6992 -2.4985 0.9740
-5.6897 2.1982 -2.4964 0.9740
-5.8581 1.6805 -2.4943 0.9740
-6.0546 -0.4725 -2.4855 0.9741
-5.8642 -1.5382 -2.4813 0.9741
-4.4163 -3.7432 -2.3694 0.9753
-3.2624 -4.7710 -2.3655 0.9753
-2.8227 -5.0408 -2.3645 0.9753
-2.3610 -5.2706 -2.3637 0.9753
-1.8809 -5.4587 -2.3630 0.9754
-1.3862 -5.6036 -2.3626 0.9754
-0.8808 -5.7042 -2.3623 0.9754
-0.3685 -5.7597 -2.3621 0.9754
0.1467 -5.7698 -2.3622 0.9754
0.6609 -5.7344 -2.3625 0.9754
1.1699 -5.6536 -2.3629 0.9754
1.6700 -5.5281 -2.3635 0.9753
2.1571 -5.3590 -2.3643 0.9753
2.6276 -5.1473 -2.3653 0.9753
3.0777 -4.8947 -2.3664 0.9753
4.4562 -4.0816 -2.4732 0.9742
4.8059 -3.6704 -2.4750 0.9742
5.1179 -3.2296 -2.4768 0.9742
5.3898 -2.7624 -2.4787 0.9742
5.6193 -2.2725 -2.4808 0.9741
5.8045 -1.7637 -2.4829 0.9741
5.9438 -1.2400 -2.4850 0.9741
6.0360 -0.7055 -2.4872 0.9741
6.0760 0.3788 -2.4916 0.9740
6.0233 0.9201 -2.4938 0.9740
5.5787 2.4881 -2.5000 0.9739
5.2246 2.9144 -2.4485 0.9745
4.1877 4.1161 -2.4032 0.9749
3.3934 4.7998 -2.4058 0.9749
2.9530 5.0856 -2.4069 0.9749
2.4886 5.3307 -2.4077 0.9749
0.9892 5.8031 -2.4093 0.9749
-0.5824 5.8577 -2.4092 0.9749
-2.1109 5.4903 -2.4074 0.9749
-4.0579 4.5867 -2.5064 0.9739
-4.4479 4.2037 -2.5048 0.9739
-4.8017 3.7876 -2.5030 0.9739
-5.1166 3.3417 -2.5012 0.9739
-5.3900 2.8697 -2.4992 0.9740
-5.8045 1.8633 -2.4950 0.9740
-6.0327 0.8009 -2.4907 0.9740
-6.0747 0.2594 -2.4885 0.9741
-6.0683 -0.2832 -2.4863 0.9741
-5.9112 -1.3546 -2.4820 0.9741
-4.1900 -3.9916 -2.3685 0.9753
-3.8151 -4.3469 -2.3671 0.9753
-2.9792 -4.9509 -2.3649 0.9753
-2.5248 -5.1949 -2.3640 0.9753
-1.5607 -5.5579 -2.3627 0.9754
-1.0586 -5.6741 -2.3623 0.9754
-0.5482 -5.7455 -2.3622 0.9754
0.9926 -5.6870 -2.3627 0.9754
1.4963 -5.5771 -2.3633 0.9754
1.9884 -5.4230 -2.3640 0.9753
2.4651 -5.2261 -2.3649 0.9753
3.5030 -4.9133 -2.4696 0.9743
3.9296 -4.5839 -2.4711 0.9742
4.3255 -4.2179 -2.4726 0.9742
4.6877 -3.8178 -2.4743 0.9742
5.7448 -1.9436 -2.4821 0.9741
6.0092 -0.8935 -2.4864 0.9741
6.0703 -0.3543 -2.4886 0.9741
6.0831 0.1887 -2.4908 0.9740
5.8311 1.7971 -2.4973 0.9740
5.4277 2.8090 -2.5013 0.9739
4.9607 3.1580 -2.4068 0.9749
4.6484 3.5794 -2.4011 0.9750
4.3134 3.9824 -2.4027 0.9749
3.5411 4.6906 -2.4054 0.9749
2.6536 5.2497 -2.4075 0.9749
0.1263 5.8859 -2.4095 0.9749
-0.3991 5.8732 -2.4093 0.9749
-1.9385 5.5543 -2.4077 0.9749
-2.8922 5.1173 -2.4057 0.9749
-3.3354 4.8364 -2.4045 0.9749
-4.3154 4.3417 -2.5054 0.9739
-4.6822 3.9368 -2.5037 0.9739
-5.0110 3.5009 -2.5018 0.9739
-5.2992 3.0376 -2.4999 0.9739
-5.7451 2.0443 -2.4958 0.9740
-5.8995 1.5224 -2.4936 0.9740
-6.0760 -0.0935 -2.4871 0.9741
-5.6405 -2.2049 -2.4786 0.9742
-5.4171 -2.6971 -2.4767 0.9742
-5.1511 -3.1672 -2.4748 0.9742
-4.6437 -3.4616 -2.3705 0.9753
-3.9499 -4.2264 -2.3676 0.9753
-3.1329 -4.8561 -2.3652 0.9753
-1.2354 -5.6385 -2.3624 0.9754
-0.7275 -5.7256 -2.3622 0.9754
-0.2139 -5.7675 -2.3621 0.9754
1.8178 -5.4819 -2.3637 0.9753
2.3003 -5.2998 -2.3646 0.9753
3.2723 -4.9072 -2.4140 0.9748
4.9036 -3.5411 -2.4755 0.9742
5.2038 -3.0919 -2.4774 0.9742
5.6796 -2.1216 -2.4814 0.9741
5.8512 -1.6079 -2.4835 0.9741
6.0841 -0.0014 -2.4901 0.9740
6.0653 0.5417 -2.4922 0.9740
5.9980 1.0815 -2.4944 0.9740
5.8827 1.6135 -2.4965 0.9740
5.0403 2.9915 -2.3988 0.9750
4.7568 3.4316 -2.4006 0.9750
4.0766 4.2276 -2.4036 0.9749
3.2639 4.8897 -2.4061 0.9749
2.3450 5.3960 -2.4080 0.9749
1.8549 5.5852 -2.4086 0.9749
0.8333 5.8277 -2.4094 0.9749
-0.2154 5.8831 -2.4094 0.9749
-1.7642 5.6128 -2.4080 0.9749
-2.7313 5.2060 -2.4061 0.9749
-4.5580 4.0821 -2.5043 0.9739
-4.9005 3.6567 -2.5025 0.9739
-5.6802 2.2235 -2.4965 0.9740
-5.8508 1.7066 -2.4944 0.9740
-5.9746 1.1769 -2.4922 0.9740
-6.0504 0.6387 -2.4900 0.9740
-6.0779 0.0964 -2.4878 0.9741
-5.9878 -0.9833 -2.4835 0.9741
-5.8712 -1.5122 -2.4814 0.9741
-5.7082 -2.0282 -2.4793 0.9742
-5.5002 -2.5272 -2.4774 0.9742
-5.2488 -3.0055 -2.4755 0.9742
-4.8681 -3.3976 -2.4297 0.9747
-4.0808 -4.1017 -2.3680 0.9753
-2.3844 -5.2602 -2.3637 0.9753
-1.4111 -5.5974 -2.3626 0.9754
-0.9061 -5.7003 -2.3623 0.9754
-0.3941 -5.7581 -2.3621 0.9754
0.1211 -5.7704 -2.3622 0.9754
0.6354 -5.7372 -2.3624 0.9754
1.6454 -5.5354 -2.3635 0.9753
2.1333 -5.3684 -2.3643 0.9753
4.0518 -4.4778 -2.4715 0.9742
4.4379 -4.1012 -2.4731 0.9742
4.7893 -3.6916 -2.4749 0.9742
5.1033 -3.2521 -2.4767 0.9742
5.3773 -2.7862 -2.4786 0.9742
5.7963 -1.7894 -2.4828 0.9741
6.0326 -0.7323 -2.4871 0.9741
6.0792 -0.1915 -2.4893 0.9741
5.9285 1.4285 -2.4958 0.9740
5.7822 1.9532 -2.4979 0.9740
4.5516 3.7035 -2.4016 0.9750
3.4146 4.7846 -2.4057 0.9749
1.5279 5.6842 -2.4090 0.9749
1.0149 5.7987 -2.4093 0.9749
-0.0315 5.8871 -2.4095 0.9749
-0.5564 5.8602 -2.4092 0.9749
-1.5882 5.6657 -2.4082 0.9749
-2.0865 5.4997 -2.4074 0.9749
-2.5677 5.2896 -2.4065 0.9749
-3.0279 5.0371 -2.4054 0.9749
-3.4632 4.7445 -2.4041 0.9749
-4.7851 3.8090 -2.5031 0.9739
-5.1019 3.3645 -2.5013 0.9739
-5.3775 2.8937 -2.4993 0.9740
-5.6096 2.4006 -2.4973 0.9740
-5.7964 1.8891 -2.4951 0.9740
-6.0293 0.8277 -2.4908 0.9740
-6.0174 -0.7960 -2.4842 0.9741
-5.9174 -1.3284 -2.4821 0.9741
-5.7705 -1.8494 -2.4800 0.9742
-3.8345 -4.3300 -2.3672 0.9753
-3.4312 -4.6524 -2.3660 0.9753
-3.0012 -4.9377 -2.3649 0.9753
-2.5479 -5.1837 -2.3640 0.9753
-2.0747 -5.3887 -2.3633 0.9754
-0.5738 -5.7430 -2.3622 0.9754
0.9674 -5.6913 -2.3627 0.9754
1.9643 -5.4317 -2.3640 0.9753
2.4418 -5.2369 -2.3649 0.9753
2.9004 -5.0004 -2.3659 0.9753
3.4810 -4.9287 -2.4696 0.9743
4.3066 -4.2369 -2.4726 0.9742
4.9979 -3.4091 -2.4760 0.9742
5.2861 -2.9520 -2.4780 0.9742
5.5328 -2.4707 -2.4800 0.9742
5.8937 -1.4508 -2.4842 0.9741
6.0049 -0.9201 -2.4863 0.9741
6.0502 0.7043 -2.4929 0.9740
5.6621 2.2867 -2.4992 0.9740
5.4399 2.7848 -2.5012 0.9739
4.3309 3.9630 -2.4026 0.9749
3.9625 4.3361 -2.4040 0.9749
3.1321 4.9762 -2.4065 0.9749
2.6769 5.2378 -2.4074 0.9749
1.7046 5.6333 -2.4088 0.9749
-0.8955 5.8175 -2.4090 0.9749
-1.4105 5.7131 -2.4085 0.9749
-2.4016 5.3681 -2.4068 0.9749
-2.8695 5.1302 -2.4058 0.9749
-3.7760 4.5881 -2.4320 0.9746
-4.2962 4.3609 -2.5055 0.9739
-4.6649 3.9576 -2.5038 0.9739
-4.9956 3.5232 -2.5019 0.9739
-5.2859 3.0612 -2.5000 0.9739
-5.5334 2.5755 -2.4980 0.9740
-5.8930 1.5487 -2.4938 0.9740
-6.0023 1.0160 -2.4916 0.9740
-6.0637 0.4761 -2.4894 0.9741
-6.0767 -0.0665 -2.4872 0.9741
-6.0412 -0.6078 -2.4850 0.9741
-5.9578 -1.1432 -2.4829 0.9741
-5.4292 -2.6731 -2.4768 0.9742
-5.1653 -3.1444 -2.4749 0.9742
-4.6667 -3.4467 -2.3744 0.9752
-4.3308 -3.8405 -2.3691 0.9753
-3.9687 -4.2089 -2.3676 0.9753
-2.7089 -5.1022 -2.3643 0.9753
-2.2423 -5.3217 -2.3635 0.9753
2.2766 -5.3099 -2.3645 0.9753
4.1712 -4.3684 -2.4720 0.9742
4.5472 -3.9816 -2.4736 0.9742
4.8877 -3.5626 -2.4754 0.9742
5.4514 -2.6417 -2.4792 0.9742
5.6699 -2.1466 -2.4813 0.9741
5.8438 -1.6337 -2.4834 0.9741
6.0516 -0.5704 -2.4877 0.9741
6.0838 -0.0284 -2.4899 0.9740
5.0533 2.9690 -2.3988 0.9750
4.0952 4.2093 -2.4036 0.9749
3.7055 4.5604 -2.4049 0.9749
2.8388 5.1509 -2.4071 0.9749
2.3689 5.3855 -2.4079 0.9749
1.8796 5.5768 -2.4086 0.9749
0.8591 5.8240 -2.4094 0.9749
0.3363 5.8776 -2.4095 0.9749
-0.1894 5.8840 -2.4094 0.9749
-1.2314 5.7549 -2.4087 0.9749
-2.2329 5.4412 -2.4072 0.9749
-4.1588 4.4940 -2.5060 0.9739
-4.5400 4.1025 -2.5044 0.9739
-4.8844 3.6785 -2.5026 0.9739
-5.1891 3.2258 -2.5007 0.9739
-5.4518 2.7479 -2.4987 0.9740
-6.0478 0.6656 -2.4901 0.9740
-6.0776 0.1234 -2.4880 0.9741
-6.0591 -0.4188 -2.4858 0.9741
-5.9924 -0.9568 -2.4836 0.9741
-5.7174 -2.0029 -2.4794 0.9742
-3.7164 -4.4306 -2.3668 0.9753
-3.3048 -4.7421 -2.3656 0.9753
-2.8674 -5.0158 -2.3646 0.9753
-2.4077 -5.2497 -2.3638 0.9753
-1.9293 -5.4420 -2.3631 0.9754
-1.4359 -5.5912 -2.3626 0.9754
-0.4196 -5.7562 -2.3621 0.9754
0.6099 -5.7399 -2.3624 0.9754
1.1196 -5.6636 -2.3629 0.9754
1.6208 -5.5426 -2.3634 0.9754
2.1094 -5.3777 -2.3642 0.9753
2.5817 -5.1702 -2.3652 0.9753
3.6125 -4.8344 -2.4700 0.9743
5.3646 -2.8099 -2.4785 0.9742
5.5985 -2.3221 -2.4806 0.9741
5.7881 -1.8150 -2.4827 0.9741
6.0780 -0.2184 -2.4892 0.9741
6.0307 0.8665 -2.4936 0.9740
5.6002 2.4383 -2.4998 0.9739
4.8748 3.2588 -2.3999 0.9750
4.5679 3.6831 -2.4015 0.9750
3.8454 4.4415 -2.4044 0.9749
3.4357 4.7693 -2.4057 0.9749
2.9980 5.0590 -2.4068 0.9749
2.5357 5.3082 -2.4077 0.9749
2.0528 5.5149 -2.4084 0.9749
1.5531 5.6773 -2.4089 0.9749
1.0406 5.7941 -2.4093 0.9749
0.5197 5.8642 -2.4095 0.9749
-0.0054 5.8872 -2.4095 0.9749
-0.5304 5.8627 -2.4092 0.9749
-1.0511 5.7910 -2.4088 0.9749
-1.5630 5.6728 -2.4083 0.9749
-3.0056 5.0507 -2.4054 0.9749
-4.0172 4.6228 -2.5066 0.9739
-4.7683 3.8303 -2.5032 0.9739
-5.3648 2.9177 -2.4994 0.9740
-5.5991 2.4256 -2.4974 0.9740
-5.7882 1.9149 -2.4953 0.9740
-5.9308 1.3898 -2.4931 0.9740
-6.0727 0.3133 -2.4887 0.9741
-6.0711 -0.2293 -2.4865 0.9741
-5.9235 -1.3021 -2.4822 0.9741
-5.5886 -2.3301 -2.4781 0.9742
-4.5643 -3.5641 -2.3701 0.9753
-3.0231 -4.9244 -2.3649 0.9753
-2.5709 -5.1725 -2.3640 0.9753
-2.0986 -5.3795 -2.3633 0.9754
-1.1090 -5.6646 -2.3624 0.9754
-0.5993 -5.7404 -2.3622 0.9754
-0.0848 -5.7709 -2.3622 0.9754
0.9421 -5.6954 -2.3627 0.9754
2.4185 -5.2476 -2.3648 0.9753
4.2876 -4.2558 -2.4725 0.9742
4.6532 -3.8590 -2.4742 0.9742
5.7269 -1.9944 -2.4819 0.9741
5.8870 -1.4769 -2.4840 0.9741
6.0005 -0.9467 -2.4862 0.9741
6.0530 0.6774 -2.4928 0.9740
5.8463 1.7451 -2.4971 0.9740
5.4520 2.7605 -2.5011 0.9739
4.3483 3.9437 -2.4025 0.9749
3.9815 4.3184 -2.4040 0.9749
3.5824 4.6588 -2.4053 0.9749
3.1541 4.9621 -2.4064 0.9749
2.7000 5.2257 -2.4074 0.9749
1.7296 5.6256 -2.4088 0.9749
1.2211 5.7585 -2.4092 0.9749
0.7027 5.8450 -2.4094 0.9749
0.1785 5.8845 -2.4095 0.9749
-0.3470 5.8766 -2.4093 0.9749
-1.3851 5.7194 -2.4085 0.9749
-1.8892 5.5715 -2.4078 0.9749
-2.3778 5.3788 -2.4069 0.9749
-2.8468 5.1430 -2.4058 0.9749
-4.2769 4.3801 -2.5055 0.9739
-4.6474 3.9784 -2.5038 0.9739
-5.5221 2.6001 -2.4981 0.9740
-5.9981 1.0427 -2.4917 0.9740
-5.9630 -1.1168 -2.4830 0.9741
-5.8347 -1.6428 -2.4809 0.9741
-5.4412 -2.6491 -2.4769 0.9742
-5.1794 -3.1216 -2.4750 0.9742
-4.6991 -3.4385 -2.3831 0.9751
-3.9874 -4.1914 -2.3677 0.9753
-3.1760 -4.8283 -2.3653 0.9753
-2.7316 -5.0903 -2.3643 0.9753
-1.7826 -5.4913 -2.3629 0.9754
-0.2651 -5.7654 -2.3621 0.9754
0.7636 -5.7218 -2.3625 0.9754
1.2712 -5.6320 -2.3630 0.9754
2.2530 -5.3198 -2.3645 0.9753
2.7197 -5.0998 -2.3655 0.9753
3.2045 -4.8993 -2.3960 0.9750
3.7415 -4.7366 -2.4704 0.9742
4.1516 -4.3867 -2.4719 0.9742
4.5293 -4.0016 -2.4736 0.9742
4.8716 -3.5842 -2.4753 0.9742
5.8362 -1.6596 -2.4833 0.9741
5.9662 -1.1334 -2.4855 0.9741
6.0693 0.4878 -2.4920 0.9740
6.0069 1.0281 -2.4942 0.9740
5.8963 1.5611 -2.4963 0.9740
5.5341 2.5881 -2.5004 0.9739
4.7867 3.3890 -2.4004 0.9750
4.4684 3.8050 -2.4020 0.9750
4.1137 4.1910 -2.4035 0.9749
2.8616 5.1382 -2.4070 0.9749
2.3928 5.3748 -2.4079 0.9749
1.4004 5.7172 -2.4091 0.9749
0.3624 5.8761 -2.4095 0.9749
-0.1632 5.8848 -2.4094 0.9749
-0.6874 5.8461 -2.4091 0.9749
-1.2059 5.7604 -2.4087 0.9749
-1.7144 5.6284 -2.4080 0.9749
-2.6851 5.2303 -2.4062 0.9749
-3.5680 4.6652 -2.4038 0.9749
-4.1389 4.5126 -2.5061 0.9739
-5.1749 3.2489 -2.5008 0.9739
-5.4398 2.7721 -2.4988 0.9740
-5.6607 2.2740 -2.4967 0.9740
-5.8360 1.7586 -2.4946 0.9740
-6.0773 0.1504 -2.4881 0.9741
-5.9968 -0.9302 -2.4837 0.9741
-5.8849 -1.4601 -2.4816 0.9741
-5.7265 -1.9776 -2.4795 0.9742
-5.2757 -2.9590 -2.4757 0.9742
-4.9416 -3.3840 -2.4513 0.9744
-4.1173 -4.0656 -2.3682 0.9753
-3.7361 -4.4142 -2.3669 0.9753
-3.3258 -4.7275 -2.3657 0.9753
-2.4310 -5.2390 -2.3638 0.9753
-1.9535 -5.4334 -2.3631 0.9754
-0.9567 -5.6921 -2.3623 0.9754
0.0699 -5.7712 -2.3622 0.9754
0.5844 -5.7425 -2.3624 0.9754
1.0945 -5.6685 -2.3628 0.9754
3.0120 -4.9349 -2.3662 0.9753
3.5910 -4.8503 -2.4699 0.9743
4.4010 -4.1402 -2.4730 0.9742
4.7561 -3.7337 -2.4747 0.9742
5.3519 -2.8335 -2.4785 0.9742
5.7798 -1.8406 -2.4826 0.9741
5.9260 -1.3189 -2.4847 0.9741
6.0253 -0.7857 -2.4869 0.9741
6.0767 -0.2454 -2.4891 0.9741
6.0797 0.2979 -2.4913 0.9740
5.9404 1.3758 -2.4956 0.9740
5.7989 1.9017 -2.4977 0.9740
5.3491 2.8912 -2.4886 0.9741
4.8891 3.2370 -2.3998 0.9750
4.5840 3.6627 -2.4015 0.9750
3.0203 5.0455 -2.4067 0.9749
2.5592 5.2968 -2.4076 0.9749
2.0772 5.5057 -2.4084 0.9749
1.5782 5.6703 -2.4089 0.9749
1.0663 5.7894 -2.4093 0.9749
0.5458 5.8619 -2.4095 0.9749
0.0207 5.8871 -2.4095 0.9749
-1.0253 5.7957 -2.4089 0.9749
-2.0377 5.5182 -2.4075 0.9749
-3.4212 4.7753 -2.4042 0.9749
-4.3920 4.2630 -2.5050 0.9739
-5.5885 2.4505 -2.4975 0.9740
-6.0223 0.8813 -2.4910 0.9740
-6.0715 0.3403 -2.4888 0.9741
-5.7871 -1.7982 -2.4802 0.9741
-5.5991 -2.3054 -2.4782 0.9742
-4.5802 -3.5439 -2.3702 0.9753
-4.2432 -3.9358 -2.3687 0.9753
-3.0451 -4.9111 -2.3650 0.9753
-2.1225 -5.3702 -2.3633 0.9754
-1.1341 -5.6596 -2.3624 0.9754
-0.6247 -5.7377 -2.3622 0.9754
-0.1105 -5.7705 -2.3622 0.9754
0.9168 -5.6995 -2.3627 0.9754
1.4218 -5.5963 -2.3632 0.9754
1.9159 -5.4488 -2.3639 0.9753
3.4196 -4.9341 -2.4570 0.9744
5.5102 -2.5195 -2.4798 0.9742
6.0642 -0.4351 -2.4883 0.9741
5.9787 1.1891 -2.4948 0.9740
5.8537 1.7190 -2.4970 0.9740
5.6818 2.2362 -2.4990 0.9740
4.3656 3.9242 -2.4025 0.9749
3.6030 4.6427 -2.4052 0.9749
1.7545 5.6178 -2.4088 0.9749
1.2466 5.7530 -2.4092 0.9749
0.7287 5.8418 -2.4094 0.9749
0.2047 5.8837 -2.4095 0.9749
-1.3598 5.7256 -2.4085 0.9749
-1.8645 5.5799 -2.4078 0.9749
-2.3539 5.3894 -2.4069 0.9749
-5.2589 3.1083 -2.5002 0.9739
-5.7181 2.1209 -2.4961 0.9740
-5.8795 1.6011 -2.4940 0.9740
-5.9936 1.0693 -2.4918 0.9740
-6.0598 0.5300 -2.4896 0.9741
-5.9682 -1.0904 -2.4831 0.9741
-5.8422 -1.6170 -2.4810 0.9741
-5.6700 -2.1299 -2.4789 0.9742
-5.1934 -3.0986 -2.4751 0.9742
-3.1975 -4.8142 -2.3654 0.9753
-2.7542 -5.0782 -2.3644 0.9753
-2.2895 -5.3018 -2.3636 0.9753
-1.8070 -5.4834 -2.3630 0.9754
-1.3104 -5.6217 -2.3625 0.9754
-0.8037 -5.7155 -2.3622 0.9754
-0.2907 -5.7642 -2.3621 0.9754
0.2246 -5.7674 -2.3622 0.9754
0.7382 -5.7250 -2.3625 0.9754
1.2461 -5.6375 -2.3630 0.9754
1.7445 -5.5054 -2.3636 0.9753
2.2293 -5.3297 -2.3644 0.9753
2.6970 -5.1117 -2.3654 0.9753
3.1711 -4.8954 -2.3872 0.9751
3.7203 -4.7531 -2.4703 0.9742
4.5113 -4.0215 -2.4735 0.9742
5.1617 -3.1606 -2.4771 0.9742
5.4272 -2.6897 -2.4790 0.9742
5.6502 -2.1967 -2.4811 0.9741
5.9608 -1.1599 -2.4853 0.9741
6.0827 -0.0824 -2.4897 0.9741
6.0111 1.0014 -2.4941 0.9740
5.7472 2.0570 -2.4983 0.9740
5.5453 2.5635 -2.5003 0.9739
5.1129 2.9433 -2.4145 0.9748
4.4851 3.7850 -2.4019 0.9750
4.1321 4.1726 -2.4034 0.9749
3.7456 4.5271 -2.4048 0.9749
3.3286 4.8455 -2.4060 0.9749
2.8843 5.1253 -2.4070 0.9749
2.4166 5.3640 -2.4079 0.9749
1.4257 5.7109 -2.4091 0.9749
0.9108 5.8161 -2.4094 0.9749
0.3884 5.8744 -2.4095 0.9749
-0.1371 5.8854 -2.4094 0.9749
-0.6614 5.8491 -2.4092 0.9749
-1.1803 5.7657 -2.4087 0.9749
-1.6894 5.6360 -2.4081 0.9749
-2.1846 5.4610 -2.4073 0.9749
-2.6619 5.2422 -2.4063 0.9749
-3.1174 4.9815 -2.4051 0.9749
-3.5474 4.6811 -2.4038 0.9749
-4.1190 4.5311 -2.5062 0.9739
-4.5038 4.1429 -2.5045 0.9739
-4.8519 3.7220 -2.5028 0.9739
-5.1606 3.2720 -2.5009 0.9739
-5.4276 2.7964 -2.4989 0.9740
-5.9591 1.2565 -2.4926 0.9740
-6.0769 0.1774 -2.4882 0.9741
-5.8916 -1.4341 -2.4817 0.9741
-5.2890 -2.9356 -2.4758 0.9742
-4.9788 -3.3772 -2.4623 0.9743
-4.5013 -3.6799 -2.3796 0.9752
-4.1354 -4.0474 -2.3683 0.9753
-3.3469 -4.7128 -2.3657 0.9753
-0.4706 -5.7523 -2.3622 0.9754
0.5589 -5.7450 -2.3624 0.9754
1.5714 -5.5566 -2.3634 0.9754
2.0614 -5.3960 -2.3641 0.9753
2.5355 -5.1927 -2.3651 0.9753
2.9900 -4.9481 -2.3661 0.9753
3.5693 -4.8660 -2.4699 0.9743
4.7392 -3.7546 -2.4746 0.9742
5.9198 -1.3451 -2.4846 0.9741
6.0753 -0.2723 -2.4890 0.9741
-2.5026 -4.8164 -2.3655 0.9766
-2.0624 -5.0188 -2.3648 0.9766
-1.6061 -5.1816 -2.3642 0.9766
-1.1374 -5.3033 -2.3638 0.9766
-0.6597 -5.3831 -2.3636 0.9766
-0.1770 -5.4204 -2.3636 0.9766
0.7891 -5.3665 -2.3640 0.9766
1.2649 -5.2758 -2.3644 0.9766
1.7308 -5.1433 -2.3651 0.9766
2.1834 -4.9702 -2.3659 0.9766
2.6410 -4.7973 -2.3866 0.9764
3.1658 -4.7021 -2.4704 0.9756
3.9552 -4.0693 -2.4732 0.9755
4.9013 -2.8828 -2.4782 0.9755
5.1428 -2.4360 -2.4800 0.9755
5.3437 -1.9691 -2.4819 0.9755
5.5024 -1.4858 -2.4839 0.9754
5.6176 -0.9899 -2.4860 0.9754
5.6933 0.5340 -2.4921 0.9754
5.5168 1.5396 -2.4962 0.9753
5.3616 2.0271 -2.4981 0.9753
4.9233 2.9517 -2.5017 0.9753
4.4635 3.2503 -2.4064 0.9762
3.4401 4.3115 -2.4038 0.9762
2.6215 4.8582 -2.4059 0.9762
1.2428 5.3830 -2.4077 0.9762
-0.7181 5.4776 -2.4077 0.9762
-1.2036 5.3907 -2.4072 0.9762
-1.6792 5.2605 -2.4066 0.9762
-2.1410 5.0880 -2.4058 0.9762
-3.5541 4.5209 -2.5063 0.9752
-3.9409 4.1835 -2.5048 0.9752
-4.2957 3.8129 -2.5032 0.9752
-4.6155 3.4122 -2.5016 0.9753
-5.1408 2.5342 -2.4979 0.9753
-5.3422 2.0639 -2.4960 0.9753
-5.5006 1.5779 -2.4940 0.9753
-5.6841 0.5745 -2.4899 0.9754
-5.7079 0.0652 -2.4878 0.9754
-5.6195 -0.9485 -2.4837 0.9754
-5.5081 -1.4447 -2.4817 0.9755
-3.8167 -3.8705 -2.3690 0.9766
-3.4545 -4.1934 -2.3678 0.9766
-3.0653 -4.4827 -2.3667 0.9766
-2.6522 -4.7364 -2.3658 0.9766
-2.2184 -4.9525 -2.3650 0.9766
-1.3026 -5.2654 -2.3639 0.9766
-0.8276 -5.3600 -2.3637 0.9766
1.5691 -5.1944 -2.3648 0.9766
2.0268 -5.0353 -2.3656 0.9766
3.0168 -4.7979 -2.4700 0.9756
3.4345 -4.5120 -2.4713 0.9756
3.8254 -4.1900 -2.4726 0.9755
4.5147 -3.4481 -2.4758 0.9755
5.0628 -2.5948 -2.4794 0.9755
5.4518 -1.6565 -2.4832 0.9754
5.5823 -1.1646 -2.4852 0.9754
5.6687 -0.6626 -2.4873 0.9754
5.7099 -0.1545 -2.4894 0.9754
5.6558 0.8639 -2.4935 0.9753
5.5607 1.3660 -2.4955 0.9753
5.4209 1.8580 -2.4974 0.9753
5.2376 2.3359 -2.4993 0.9753
5.0119 2.7958 -2.5011 0.9753
4.2574 3.4956 -2.4007 0.9763
3.1851 4.5052 -2.4046 0.9762
2.3357 5.0032 -2.4064 0.9762
1.8807 5.1931 -2.4071 0.9762
0.9284 5.4464 -2.4079 0.9762
0.4389 5.5079 -2.4080 0.9762
-0.0541 5.5250 -2.4080 0.9762
-0.5466 5.4976 -2.4078 0.9762
-1.0346 5.4261 -2.4074 0.9762
-2.4320 4.9540 -2.4052 0.9762
-2.8630 4.7153 -2.4041 0.9762
-3.3168 4.5017 -2.4369 0.9759
-3.8091 4.3055 -2.5053 0.9752
-4.1754 3.9462 -2.5038 0.9752
-4.5078 3.5557 -2.5022 0.9753
-5.0605 2.6943 -2.4986 0.9753
-5.6991 -0.2660 -2.4865 0.9754
-5.4122 -1.7611 -2.4805 0.9755
-5.0058 -2.6907 -2.4768 0.9755
-4.7426 -3.1243 -2.4751 0.9755
-3.2043 -4.3854 -2.3671 0.9766
-2.3723 -4.8812 -2.3653 0.9766
-1.9269 -5.0719 -2.3646 0.9766
-1.4665 -5.2225 -2.3641 0.9766
-0.9947 -5.3317 -2.3637 0.9766
-0.0316 -5.4232 -2.3636 0.9766
0.4523 -5.4048 -2.3638 0.9766
0.9327 -5.3438 -2.3641 0.9766
2.3162 -4.9104 -2.3662 0.9766
2.8269 -4.8241 -2.4368 0.9759
3.2912 -4.6163 -2.4708 0.9756
3.6918 -4.3066 -2.4721 0.9756
4.0637 -3.9625 -2.4736 0.9755
4.4037 -3.5866 -2.4752 0.9755
4.7093 -3.1817 -2.4769 0.9755
4.9779 -2.7510 -2.4787 0.9755
5.3959 -1.8255 -2.4825 0.9755
5.5417 -1.3381 -2.4845 0.9754
5.6435 -0.8391 -2.4866 0.9754
5.7006 -0.3327 -2.4886 0.9754
5.4749 1.6873 -2.4968 0.9753
5.3066 2.1705 -2.4987 0.9753
4.7260 3.0086 -2.4416 0.9759
3.7014 4.0867 -2.4030 0.9762
2.9191 4.6837 -2.4052 0.9762
2.4906 4.9272 -2.4061 0.9762
1.5764 5.2942 -2.4074 0.9762
1.0981 5.4146 -2.4078 0.9762
-0.3746 5.5122 -2.4079 0.9762
-0.8647 5.4561 -2.4075 0.9762
-2.2763 5.0283 -2.4055 0.9762
-3.1307 4.5397 -2.4033 0.9762
-3.6735 4.4233 -2.5058 0.9752
-4.0509 4.0756 -2.5044 0.9752
-4.3955 3.6956 -2.5028 0.9753
-4.9751 2.8518 -2.4992 0.9753
-5.3944 1.9195 -2.4954 0.9753
-5.5396 1.4296 -2.4933 0.9753
-5.6404 0.9290 -2.4913 0.9754
-5.5907 -1.0985 -2.4831 0.9754
-5.4661 -1.5915 -2.4811 0.9755
-5.2983 -2.0712 -2.4792 0.9755
-5.0887 -2.5336 -2.4774 0.9755
-4.5514 -3.3928 -2.4741 0.9755
-4.0526 -3.6260 -2.3700 0.9766
-3.3403 -4.2839 -2.3675 0.9766
-2.9436 -4.5627 -2.3664 0.9766
-1.6291 -5.1744 -2.3642 0.9766
-0.2010 -5.4195 -2.3636 0.9766
0.2832 -5.4162 -2.3637 0.9766
0.7653 -5.3699 -2.3640 0.9766
1.7080 -5.1509 -2.3650 0.9766
2.6114 -4.7937 -2.3791 0.9765
3.5548 -4.4190 -2.4717 0.9756
3.9370 -4.0867 -2.4731 0.9755
4.6065 -3.3265 -2.4763 0.9755
5.1317 -2.4587 -2.4799 0.9755
5.6858 -0.5105 -2.4879 0.9754
5.6954 0.5087 -2.4920 0.9754
5.3704 2.0032 -2.4980 0.9753
5.1742 2.4760 -2.4999 0.9753
4.9362 2.9297 -2.5017 0.9753
4.1628 3.6091 -2.4011 0.9762
3.8266 3.9683 -2.4025 0.9762
3.0636 4.5896 -2.4049 0.9762
2.2010 5.0645 -2.4066 0.9762
1.7409 5.2420 -2.4072 0.9762
0.2911 5.5177 -2.4080 0.9762
-0.2022 5.5214 -2.4079 0.9762
-0.6938 5.4808 -2.4077 0.9762
-1.1797 5.3960 -2.4072 0.9762
-1.6558 5.2679 -2.4066 0.9762
-2.1184 5.0976 -2.4058 0.9762
-2.9879 4.6361 -2.4038 0.9762
-3.9224 4.2011 -2.5049 0.9752
-4.2788 3.8321 -2.5033 0.9752
-4.8849 3.0067 -2.4999 0.9753
-5.3332 2.0877 -2.4961 0.9753
-5.4938 1.6024 -2.4941 0.9753
-5.6884 -0.4186 -2.4858 0.9754
-5.5147 -1.4203 -2.4818 0.9755
-5.3618 -1.9051 -2.4799 0.9755
