ply
format ascii 1.0
element vertex 1579
property float32 x
property float32 y
property float32 z
property float32 I
end_header
12.5090 -1.1279 -2.3607 0.9502
13.1281 -0.0079 -2.4676 0.9480
12.9723 2.3340 -2.4774 0.9478
12.7388 3.4890 -2.4826 0.9477
11.9664 5.7209 -2.4930 0.9474
11.4324 6.7797 -2.4983 0.9473
9.6696 8.3771 -2.4047 0.9493
8.9015 9.2244 -2.4095 0.9492
8.0586 10.0007 -2.4141 0.9491
6.9661 12.7622 -2.7329 0.9425
5.4493 12.5265 -2.5676 0.9459
4.4200 13.2924 -2.6330 0.9446
3.2279 13.6806 -2.6420 0.9444
2.0842 14.5381 -2.7605 0.9420
0.4535 8.5360 -1.6067 0.9658
-2.1086 16.7071 -3.1652 0.9338
-4.0211 18.4261 -3.5449 0.9261
-4.5427 7.0544 -1.5771 0.9664
-8.1340 6.0742 -1.9081 0.9595
-10.6684 5.3229 -2.2410 0.9526
-12.0167 4.7092 -2.4259 0.9488
-12.6199 2.4907 -2.4178 0.9490
-13.3066 -0.9741 -2.5078 0.9471
-13.1397 -2.1527 -2.5027 0.9472
-12.8685 -3.3093 -2.4975 0.9474
-12.4958 -4.4346 -2.4922 0.9475
-12.0250 -5.5198 -2.4870 0.9476
0.0588 14.5035 -3.0658 0.9424
-4.7860 17.7139 -3.8786 0.9277
-7.5853 6.1555 -2.0649 0.9608
-8.7514 5.8901 -2.2298 0.9578
-10.8494 3.6492 -2.4196 0.9543
-11.2904 1.6583 -2.4122 0.9544
-11.5577 -2.4805 -2.4987 0.9528
-11.2694 -3.4950 -2.4940 0.9529
-10.8922 -4.4778 -2.4894 0.9530
-10.4299 -5.4214 -2.4847 0.9531
-9.8865 -6.3184 -2.4801 0.9532
-8.8823 -6.8649 -2.3730 0.9551
-8.2201 -7.6163 -2.3688 0.9552
-6.7135 -8.9258 -2.3609 0.9554
-4.9048 -9.7463 -2.3063 0.9564
-3.7190 -9.3947 -2.1358 0.9595
-3.1816 -10.7548 -2.3707 0.9552
-2.2072 -10.9838 -2.3682 0.9552
-1.2176 -11.1264 -2.3659 0.9553
-0.2201 -11.1816 -2.3640 0.9553
0.7776 -11.1495 -2.3625 0.9553
5.5118 -9.7120 -2.3605 0.9554
7.8976 -7.9175 -2.3639 0.9553
9.1945 -6.3993 -2.3679 0.9552
9.7391 -5.5597 -2.3705 0.9552
10.1097 -4.6292 -2.3504 0.9556
10.8011 -2.7670 -2.3569 0.9554
11.0218 -1.7953 -2.3605 0.9554
11.6873 0.2006 -2.4708 0.9533
11.6434 1.2444 -2.4752 0.9533
11.5068 2.2821 -2.4797 0.9532
10.5509 5.2765 -2.4936 0.9529
10.0569 6.2081 -2.4982 0.9528
9.4805 7.0934 -2.5028 0.9527
8.4605 7.5968 -2.4035 0.9546
7.7627 8.3357 -2.4077 0.9545
7.0000 9.0100 -2.4118 0.9544
6.1783 9.6138 -2.4156 0.9544
6.4626 12.3570 -2.9477 0.9446
2.8958 13.3285 -2.8831 0.9458
1.7616 14.0622 -2.9957 0.9437
-0.7967 14.7392 -3.1201 0.9414
-2.1636 14.9928 -3.2020 0.9399
-3.7750 15.9337 -3.4613 0.9352
-1.8899 4.3334 -0.9993 0.9809
-4.6884 7.0040 -1.7816 0.9661
-10.3508 4.9367 -2.4241 0.9542
-11.0323 3.0106 -2.4173 0.9543
-11.8712 -0.0182 -2.5093 0.9526
-11.3805 -3.1432 -2.4957 0.9529
-9.4919 -6.8733 -2.4772 0.9532
-7.7556 -8.0715 -2.3661 0.9553
-6.9931 -8.7166 -2.3622 0.9553
-3.0607 -9.2709 -2.0637 0.9609
-1.5651 -11.0864 -2.3667 0.9553
0.4289 -11.1707 -2.3630 0.9553
1.4228 -11.0818 -2.3617 0.9553
4.3029 -10.3026 -2.3601 0.9554
5.2052 -9.8787 -2.3603 0.9554
6.0672 -9.3775 -2.3609 0.9554
6.8823 -8.8027 -2.3619 0.9553
7.6445 -8.1585 -2.3633 0.9553
8.9870 -6.6812 -2.3671 0.9552
9.5569 -5.8590 -2.3695 0.9552
9.9558 -4.9407 -2.3493 0.9556
11.1190 -1.1539 -2.3630 0.9553
11.6693 0.8794 -2.4736 0.9533
11.5651 1.9202 -2.4781 0.9532
11.3686 2.9495 -2.4827 0.9531
10.2393 5.8870 -2.4966 0.9529
7.2739 8.7818 -2.4104 0.9545
5.6155 9.9660 -2.4180 0.9543
5.5114 12.2162 -2.8329 0.9467
3.2713 13.0734 -2.8486 0.9464
2.1583 13.7340 -2.9387 0.9447
0.9462 14.1942 -3.0070 0.9435
-3.0014 7.5142 -1.7104 0.9675
-10.1960 5.2600 -2.4251 0.9542
-7.8447 2.4065 -1.7345 0.9670
-11.1653 -3.7937 -2.4926 0.9529
-10.7622 -4.7655 -2.4880 0.9530
-8.0088 -7.8299 -2.3675 0.9552
-7.2662 -8.4987 -2.3635 0.9553
-6.4688 -9.0983 -2.3597 0.9554
-4.5293 -9.6349 -2.2504 0.9574
-0.9186 -11.1521 -2.3653 0.9553
1.0760 -11.1228 -2.3621 0.9553
3.9789 -10.4321 -2.3601 0.9554
4.8937 -10.0360 -2.3602 0.9554
5.7706 -9.5615 -2.3607 0.9554
7.3842 -8.3915 -2.3628 0.9553
8.1088 -7.7047 -2.3644 0.9553
9.3657 -6.1524 -2.3687 0.9552
9.7924 -5.2472 -2.3484 0.9556
10.5964 -3.4327 -2.3545 0.9555
11.0712 -1.4999 -2.3616 0.9554
11.6630 -0.5292 -2.4679 0.9534
11.6838 0.5141 -2.4721 0.9533
11.6121 1.5569 -2.4765 0.9532
11.4478 2.5912 -2.4810 0.9531
10.4115 5.5605 -2.4950 0.9529
8.2582 7.8250 -2.4048 0.9546
6.7593 9.1989 -2.4129 0.9544
4.7470 12.3946 -2.8056 0.9472
2.5303 13.3635 -2.8750 0.9459
1.3832 14.0956 -2.9938 0.9437
0.1231 14.4827 -3.0615 0.9425
-1.2004 14.8222 -3.1434 0.9410
-2.5864 15.0557 -3.2291 0.9395
-4.6402 17.4824 -3.8234 0.9287
-3.4564 7.3787 -1.7223 0.9672
-7.6588 6.2719 -2.0925 0.9603
-8.6934 5.9073 -2.2217 0.9579
-10.4753 4.6557 -2.4231 0.9542
-11.2838 1.7086 -2.4124 0.9544
-11.8602 -0.3363 -2.5080 0.9526
-11.7618 -1.3903 -2.5035 0.9527
-11.5696 -2.4294 -2.4989 0.9528
-11.2858 -3.4452 -2.4943 0.9529
-9.9154 -6.2750 -2.4804 0.9532
-8.9135 -6.8260 -2.3732 0.9551
-8.2545 -7.5804 -2.3690 0.9552
-6.7537 -8.8966 -2.3610 0.9554
-1.2670 -11.1213 -2.3660 0.9553
1.7191 -11.0382 -2.3614 0.9554
2.6959 -10.8371 -2.3606 0.9554
3.6511 -10.5516 -2.3601 0.9554
4.5776 -10.1837 -2.3601 0.9554
6.3171 -9.2125 -2.3612 0.9554
7.8621 -7.9523 -2.3638 0.9553
8.5467 -7.2250 -2.3656 0.9553
10.0884 -4.6738 -2.3502 0.9556
10.7879 -2.8147 -2.3567 0.9554
11.0128 -1.8441 -2.3603 0.9554
11.1515 -0.8558 -2.3641 0.9553
11.6871 0.1487 -2.4706 0.9533
11.5158 2.2308 -2.4795 0.9532
10.9769 4.2572 -2.4887 0.9530
10.5732 5.2291 -2.4933 0.9529
9.5111 7.0506 -2.5026 0.9527
7.7990 8.3005 -2.4075 0.9545
7.0394 8.9781 -2.4116 0.9544
6.5384 12.3678 -2.9571 0.9444
5.0947 12.1514 -2.7852 0.9476
4.0303 12.6824 -2.8129 0.9470
-2.0940 14.9815 -3.1976 0.9400
-3.6829 15.8585 -3.4414 0.9356
-3.2078 7.4452 -1.7136 0.9674
-4.6509 7.0151 -1.7792 0.9662
-8.2964 6.0250 -2.1674 0.9589
-10.3294 4.9830 -2.4242 0.9542
-11.0196 3.0598 -2.4175 0.9543
-11.2312 2.0615 -2.4137 0.9544
-11.8722 0.0345 -2.5096 0.9526
-11.8070 -1.0227 -2.5051 0.9527
-11.6474 -2.0680 -2.5005 0.9528
-11.3954 -3.0929 -2.4959 0.9529
-11.0534 -4.0894 -2.4912 0.9530
-10.1131 -5.9659 -2.4820 0.9531
-8.4926 -7.3233 -2.3704 0.9552
-7.7920 -8.0376 -2.3663 0.9553
-7.0323 -8.6861 -2.3624 0.9553
-6.2197 -9.2641 -2.3586 0.9554
-4.1713 -9.5288 -2.1987 0.9584
-3.0849 -9.2067 -2.0525 0.9611
-2.5988 -10.9026 -2.3692 0.9552
-1.6144 -11.0798 -2.3668 0.9553
0.3793 -11.1728 -2.3631 0.9553
1.3736 -11.0883 -2.3618 0.9553
2.3562 -10.9172 -2.3608 0.9554
3.3198 -10.6610 -2.3603 0.9554
4.2571 -10.3216 -2.3601 0.9554
7.6079 -8.1921 -2.3632 0.9553
9.9331 -4.9846 -2.3492 0.9556
10.3513 -4.0840 -2.3522 0.9555
10.6892 -3.1488 -2.3555 0.9555
10.9438 -2.1861 -2.3590 0.9554
11.1129 -1.2031 -2.3628 0.9553
11.6720 0.8275 -2.4734 0.9533
11.5725 1.8687 -2.4779 0.9532
11.3805 2.8987 -2.4824 0.9531
10.7244 4.8929 -2.4917 0.9529
10.2644 5.8409 -2.4964 0.9529
9.7205 6.7456 -2.5010 0.9528
8.7200 7.2849 -2.4018 0.9546
8.0496 8.0478 -2.4061 0.9545
7.3122 8.7487 -2.4102 0.9545
6.5134 9.3813 -2.4141 0.9544
5.5818 12.2270 -2.8411 0.9465
4.4678 12.6729 -2.8404 0.9465
2.2087 13.6585 -2.9246 0.9450
-5.1545 6.8725 -1.8159 0.9655
-7.9181 6.1371 -2.1176 0.9599
-10.1731 5.3056 -2.4253 0.9542
-10.5921 4.3714 -2.4221 0.9542
-11.1675 2.4128 -2.4151 0.9544
-11.3199 1.4048 -2.4112 0.9544
-11.8725 0.4057 -2.5111 0.9526
-11.4939 -2.7371 -2.4975 0.9528
-11.1831 -3.7444 -2.4929 0.9529
-10.7843 -4.7181 -2.4882 0.9530
-10.3013 -5.6507 -2.4836 0.9531
-8.7227 -7.0587 -2.3719 0.9552
-7.3045 -8.4670 -2.3637 0.9553
-5.6661 -9.6000 -2.3563 0.9554
-4.5903 -9.6530 -2.2594 0.9572
-3.4484 -9.3144 -2.0995 0.9602
-2.9394 -10.8202 -2.3701 0.9552
-1.9605 -11.0277 -2.3676 0.9552
0.0300 -11.1818 -2.3636 0.9553
1.0266 -11.1277 -2.3622 0.9553
2.0142 -10.9868 -2.3611 0.9554
2.9852 -10.7602 -2.3604 0.9554
9.7684 -5.2904 -2.3482 0.9556
10.2140 -4.4034 -2.3511 0.9555
11.6596 -0.5810 -2.4677 0.9534
11.6178 1.5052 -2.4763 0.9532
11.2067 3.5586 -2.4854 0.9531
10.4351 5.5137 -2.4947 0.9529
9.9201 6.4344 -2.4994 0.9528
8.2921 7.7876 -2.4046 0.9546
6.7995 9.1681 -2.4128 0.9544
6.0878 12.3027 -2.9015 0.9454
2.5907 13.3579 -2.8762 0.9459
1.4459 14.0906 -2.9941 0.9437
0.1092 8.4402 -1.7842 0.9661
-1.1332 14.8091 -3.1395 0.9411
-2.0024 4.3246 -1.0074 0.9807
-8.6357 5.9244 -2.2137 0.9581
-9.8838 5.5543 -2.3965 0.9547
-11.3021 -3.3954 -2.4945 0.9529
-10.9337 -4.3817 -2.4898 0.9530
-8.2888 -7.5443 -2.3692 0.9552
-7.5699 -8.2395 -2.3651 0.9553
-5.0335 -9.7844 -2.3259 0.9560
-3.8292 -9.4273 -2.1509 0.9593
-3.0686 -10.0443 -2.2200 0.9580
-2.3049 -10.9649 -2.3684 0.9552
-1.3165 -11.1161 -2.3661 0.9553
-0.3195 -11.1801 -2.3642 0.9553
0.6785 -11.1566 -2.3626 0.9553
2.6478 -10.8492 -2.3606 0.9554
7.0784 -8.6477 -2.3622 0.9553
9.1364 -6.4801 -2.3677 0.9552
9.6882 -5.6454 -2.3702 0.9552
10.0669 -4.7183 -2.3501 0.9556
10.4614 -3.8066 -2.3532 0.9555
10.7745 -2.8624 -2.3565 0.9554
11.1467 -0.9053 -2.3639 0.9553
11.5245 2.1794 -2.4792 0.9532
11.3050 3.2046 -2.4838 0.9531
10.1098 6.1174 -2.4978 0.9528
9.5414 7.0076 -2.5024 0.9528
7.8351 8.2650 -2.4073 0.9545
7.0786 8.9460 -2.4114 0.9544
6.2625 9.5571 -2.4153 0.9544
3.0172 13.3164 -2.8862 0.9457
0.6328 14.3090 -3.0276 0.9431
-0.6642 14.7098 -3.1125 0.9416
-3.1812 7.4747 -1.7172 0.9673
-8.2416 6.0412 -2.1600 0.9591
-9.4242 5.6906 -2.3271 0.9560
-10.7011 4.0842 -2.4211 0.9543
-11.0068 3.1090 -2.4176 0.9543
-11.2229 2.1115 -2.4139 0.9544
-11.8729 0.0873 -2.5098 0.9526
-11.6576 -2.0164 -2.5008 0.9528
-10.1405 -5.9215 -2.4822 0.9531
-5.4043 -9.7442 -2.3553 0.9555
-1.6637 -11.0731 -2.3669 0.9553
-0.6688 -11.1676 -2.3648 0.9553
0.3297 -11.1747 -2.3631 0.9553
1.3243 -11.0945 -2.3618 0.9553
3.2724 -10.6757 -2.3603 0.9554
4.2112 -10.3404 -2.3601 0.9554
7.5712 -8.2256 -2.3631 0.9553
8.9264 -6.7601 -2.3669 0.9553
9.5034 -5.9430 -2.3693 0.9552
9.9103 -5.0284 -2.3491 0.9556
10.3324 -4.1296 -2.3520 0.9555
11.6769 -0.2683 -2.4689 0.9534
11.6746 0.7756 -2.4732 0.9533
10.7450 4.8448 -2.4915 0.9530
10.2893 5.7947 -2.4961 0.9529
9.7495 6.7018 -2.5008 0.9528
5.7030 9.9142 -2.4177 0.9543
4.5173 12.6341 -2.8362 0.9466
3.3696 12.9757 -2.8338 0.9467
1.0694 14.1474 -2.9990 0.9436
-1.5413 14.8848 -3.1632 0.9407
-2.9833 15.3064 -3.2963 0.9382
-2.9384 7.5508 -1.7127 0.9674
-6.8060 6.3800 -1.9719 0.9626
-10.1501 5.3511 -2.4254 0.9542
-10.5733 4.4187 -2.4223 0.9542
-10.9099 3.4532 -2.4189 0.9543
-11.2007 -3.6950 -2.4931 0.9529
-10.3272 -5.6054 -2.4838 0.9531
-8.0794 -7.7597 -2.3679 0.9552
-5.7091 -9.5754 -2.3565 0.9554
-4.6517 -9.6712 -2.2685 0.9571
-1.0178 -11.1445 -2.3655 0.9553
0.9772 -11.1325 -2.3622 0.9553
4.8043 -10.0790 -2.3602 0.9554
5.6853 -9.6121 -2.3606 0.9554
7.3090 -8.4563 -2.3626 0.9553
8.0394 -7.7758 -2.3642 0.9553
8.7080 -7.0335 -2.3661 0.9553
9.3097 -6.2348 -2.3684 0.9552
9.7443 -5.3334 -2.3481 0.9556
10.5640 -3.5262 -2.3541 0.9555
11.6234 1.4535 -2.4761 0.9532
11.4683 2.4889 -2.4806 0.9532
11.2214 3.5084 -2.4852 0.9531
10.8840 4.5037 -2.4898 0.9530
10.4585 5.4668 -2.4945 0.9529
8.3259 7.7500 -2.4044 0.9546
7.6146 8.4764 -2.4085 0.9545
6.8396 9.1370 -2.4126 0.9544
6.0069 9.7260 -2.4164 0.9543
6.1614 12.3134 -2.9105 0.9453
2.6995 9.2030 -2.0273 0.9615
0.1470 8.4514 -1.7867 0.9660
-1.9995 7.8126 -1.7047 0.9676
-7.7038 6.4239 -2.1203 0.9598
-8.5785 5.9414 -2.2058 0.9582
-9.8169 5.5742 -2.3863 0.9549
-10.4349 4.7492 -2.4234 0.9542
-10.8021 3.7943 -2.4201 0.9543
-11.0812 2.8115 -2.4166 0.9543
-11.7758 -1.2859 -2.5040 0.9527
-7.6071 -8.2064 -2.3653 0.9553
-6.8335 -8.8377 -2.3614 0.9554
-5.0987 -9.8037 -2.3358 0.9558
-2.9712 -9.5731 -2.1188 0.9598
-2.3537 -10.9551 -2.3685 0.9552
-1.3659 -11.1106 -2.3662 0.9553
-0.3692 -11.1790 -2.3643 0.9553
1.6210 -11.0535 -2.3615 0.9554
2.5995 -10.8610 -2.3606 0.9554
3.5573 -10.5837 -2.3602 0.9554
5.3817 -9.7842 -2.3604 0.9554
6.2348 -9.2679 -2.3611 0.9554
8.4815 -7.3000 -2.3654 0.9553
9.1071 -6.5204 -2.3676 0.9552
10.0452 -4.7627 -2.3499 0.9556
10.4436 -3.8527 -2.3530 0.9555
10.9943 -1.9415 -2.3599 0.9554
11.6859 0.0448 -2.4702 0.9533
11.6558 1.0888 -2.4745 0.9533
11.5330 2.1280 -2.4790 0.9532
11.3181 3.1540 -2.4836 0.9531
10.1359 6.0718 -2.4975 0.9528
9.5716 6.9645 -2.5022 0.9528
8.5587 7.4814 -2.4029 0.9546
7.8710 8.2294 -2.4071 0.9545
6.3044 9.5284 -2.4151 0.9544
5.4376 10.0680 -2.4187 0.9543
3.0692 13.2717 -2.8794 0.9458
1.2164 8.7620 -1.8699 0.9645
0.6954 14.2865 -3.0235 0.9432
-1.9554 14.9582 -3.1888 0.9402
-6.1756 6.5605 -1.9045 0.9638
-9.3610 5.7093 -2.3177 0.9562
-10.2860 5.0752 -2.4245 0.9542
-10.6836 4.1320 -2.4213 0.9542
-10.9937 3.1581 -2.4178 0.9543
-11.2143 2.1616 -2.4141 0.9544
-11.3438 1.1508 -2.4102 0.9545
-11.8735 0.1400 -2.5100 0.9526
-11.6675 -1.9648 -2.5010 0.9528
-11.0914 -3.9917 -2.4917 0.9529
-10.1676 -5.8769 -2.4824 0.9531
-8.5588 -7.2488 -2.3708 0.9552
-7.1103 -8.6247 -2.3628 0.9553
-5.4480 -9.7208 -2.3555 0.9555
-1.7129 -11.0661 -2.3670 0.9553
-0.7185 -11.1650 -2.3649 0.9553
0.2800 -11.1765 -2.3632 0.9553
4.1653 -10.3591 -2.3601 0.9554
5.0730 -9.9470 -2.3603 0.9554
5.9414 -9.4571 -2.3608 0.9554
8.8959 -6.7994 -2.3668 0.9553
9.4764 -5.9848 -2.3692 0.9552
9.8873 -5.0720 -2.3489 0.9556
11.6746 -0.3201 -2.4687 0.9534
8.7828 7.2058 -2.4014 0.9546
6.5954 9.3216 -2.4137 0.9544
5.7466 9.8880 -2.4175 0.9543
4.5633 12.5863 -2.8300 0.9467
0.6895 8.6128 -1.8264 0.9653
-0.1369 14.5245 -3.0703 0.9423
-10.1268 5.3965 -2.4256 0.9542
-11.1474 2.5123 -2.4154 0.9544
-11.3089 1.5056 -2.4116 0.9544
-11.8480 -0.5487 -2.5071 0.9527
-11.5200 -2.6354 -2.4980 0.9528
-11.2180 -3.6456 -2.4933 0.9529
-9.7977 -6.4493 -2.4794 0.9532
-8.7866 -6.9821 -2.3723 0.9552
-8.1145 -7.7245 -2.3681 0.9552
-5.7520 -9.5507 -2.3567 0.9554
-3.0357 -10.7949 -2.3703 0.9552
-2.0586 -11.0109 -2.3678 0.9552
-0.0693 -11.1824 -2.3638 0.9553
0.9278 -11.1370 -2.3623 0.9553
1.9165 -11.0047 -2.3612 0.9554
3.8396 -10.4843 -2.3601 0.9554
4.7595 -10.1002 -2.3601 0.9554
5.6425 -9.6371 -2.3606 0.9554
6.4818 -9.0986 -2.3614 0.9554
7.2711 -8.4884 -2.3626 0.9553
8.6763 -7.0718 -2.3660 0.9553
10.8399 -2.6217 -2.3574 0.9554
11.0476 -1.6469 -2.3610 0.9554
11.4547 -0.6728 -2.4255 0.9542
11.6866 0.3582 -2.4715 0.9533
11.6287 1.4017 -2.4759 0.9532
11.4782 2.4377 -2.4804 0.9532
10.9029 4.4549 -2.4896 0.9530
6.8795 9.1058 -2.4124 0.9544
4.8812 12.2536 -2.7881 0.9475
2.7117 13.3464 -2.8788 0.9458
-2.3755 15.0256 -3.2156 0.9397
-1.9652 7.8228 -1.7050 0.9676
-1.9399 4.2893 -0.9951 0.9809
-8.5217 5.9582 -2.1979 0.9584
-9.7504 5.5939 -2.3761 0.9551
-10.4144 4.7958 -2.4236 0.9542
-11.0694 2.8609 -2.4167 0.9543
-11.2628 1.8593 -2.4129 0.9544
-11.5745 0.8615 -2.4534 0.9537
-11.8667 -0.1782 -2.5087 0.9526
-11.3339 -3.2954 -2.4950 0.9529
-10.0009 -6.1439 -2.4810 0.9531
-9.1508 -6.8162 -2.4119 0.9544
-7.6441 -8.1732 -2.3655 0.9553
-6.8733 -8.8079 -2.3616 0.9554
-6.0508 -9.3712 -2.3579 0.9554
-2.9939 -9.4967 -2.1048 0.9601
-2.4025 -10.9451 -2.3687 0.9552
0.5795 -11.1628 -2.3628 0.9553
1.5720 -11.0608 -2.3615 0.9554
5.3380 -9.8079 -2.3604 0.9554
6.1934 -9.2954 -2.3611 0.9554
9.6366 -5.7305 -2.3699 0.9552
10.4257 -3.8988 -2.3528 0.9555
10.9847 -1.9902 -2.3597 0.9554
11.1363 -1.0042 -2.3635 0.9553
11.6850 -0.0071 -2.4700 0.9534
11.6595 1.0370 -2.4743 0.9533
11.3310 3.1034 -2.4833 0.9531
11.0296 4.1093 -2.4880 0.9530
7.9069 8.1937 -2.4069 0.9545
2.0022 13.9669 -2.9825 0.9439
0.7578 14.2640 -3.0194 0.9433
-0.3012 8.3106 -1.7578 0.9666
-1.7214 7.8879 -1.7066 0.9675
-10.2640 5.1212 -2.4247 0.9542
-10.6658 4.1798 -2.4215 0.9542
-11.3395 1.2013 -2.4104 0.9545
-11.8228 -0.8655 -2.5058 0.9527
-11.1100 -3.9428 -2.4919 0.9529
-10.6940 -4.9088 -2.4873 0.9530
0.0537 13.2350 -3.1106 0.9471
-1.1576 13.5444 -3.1948 0.9457
-2.4227 13.7369 -3.2783 0.9443
-3.9497 14.6186 -3.5589 0.9397
-8.5579 5.7599 -2.4244 0.9585
-9.0284 4.9686 -2.4220 0.9585
-9.4249 4.1388 -2.4192 0.9586
-9.9845 2.3921 -2.4130 0.9587
-10.1435 1.4899 -2.4096 0.9587
-10.6621 0.6033 -2.5099 0.9571
-10.3911 -2.2302 -2.4978 0.9573
-10.1338 -3.1428 -2.4936 0.9573
-9.7966 -4.0274 -2.4894 0.9574
-9.3825 -4.8769 -2.4852 0.9575
-6.0446 -8.0365 -2.3634 0.9595
-4.5084 -8.9585 -2.3570 0.9596
-1.9886 -9.8960 -2.3723 0.9594
1.5934 -9.9406 -2.3661 0.9595
7.1167 -7.1347 -2.3684 0.9594
8.2039 -5.7098 -2.3491 0.9598
8.6888 -4.9601 -2.3514 0.9597
9.1065 -4.1699 -2.3539 0.9597
9.4534 -3.3450 -2.3567 0.9596
9.9238 -1.6164 -2.3631 0.9595
10.5195 0.1805 -2.4727 0.9577
10.4781 1.1199 -2.4766 0.9576
10.1458 2.9736 -2.4848 0.9575
9.8567 3.8732 -2.4890 0.9574
9.0420 5.5816 -2.4974 0.9573
7.6039 6.8277 -2.4018 0.9589
6.2891 8.0950 -2.4092 0.9588
5.5499 8.6360 -2.4127 0.9587
4.7640 9.1089 -2.4159 0.9586
3.7444 11.9667 -2.9469 0.9498
1.6276 12.9925 -3.0774 0.9476
0.4630 13.1082 -3.0826 0.9475
-1.9637 13.6076 -3.2312 0.9451
-3.3788 14.2616 -3.4446 0.9416
-1.8893 4.3319 -1.1107 0.9808
-8.3506 6.0078 -2.4177 0.9586
-8.8720 5.2502 -2.4229 0.9585
-9.2948 4.4331 -2.4202 0.9586
-9.6415 3.5820 -2.4173 0.9586
-10.0972 1.8071 -2.4108 0.9587
-10.6438 0.9367 -2.5112 0.9570
-10.4618 -1.9055 -2.4992 0.9572
-9.9235 -3.7215 -2.4909 0.9574
-9.5359 -4.5841 -2.4867 0.9575
-8.5413 -6.1849 -2.4784 0.9576
-6.9813 -7.2657 -2.3681 0.9594
-6.2960 -7.8477 -2.3646 0.9595
-3.0607 -9.2707 -2.2945 0.9607
-1.4102 -9.9890 -2.3709 0.9594
2.1671 -9.8293 -2.3656 0.9595
3.0346 -9.5949 -2.3651 0.9595
3.8781 -9.2854 -2.3650 0.9595
4.6913 -8.9033 -2.3652 0.9595
6.8888 -7.3520 -2.3679 0.9594
7.5221 -6.7127 -2.3694 0.9594
8.5266 -5.2274 -2.3506 0.9597
9.6395 -2.7931 -2.3587 0.9596
10.1772 -1.0561 -2.4047 0.9588
10.5021 0.7915 -2.4752 0.9576
10.4065 1.7279 -2.4792 0.9576
9.6258 4.4435 -2.4917 0.9574
8.7123 6.1035 -2.5001 0.9572
7.2022 7.2649 -2.4043 0.9588
5.8142 8.4542 -2.4115 0.9587
5.0439 8.9515 -2.4148 0.9587
4.2308 9.3778 -2.4179 0.9586
2.0315 12.9274 -3.0755 0.9476
-1.5280 13.5780 -3.2113 0.9454
-2.8525 13.9729 -3.3517 0.9431
-9.5290 3.8832 -2.4184 0.9586
-7.7944 2.3911 -1.9161 0.9671
-10.3277 1.2351 -2.4445 0.9582
-10.6696 0.3172 -2.5087 0.9571
-10.6385 -0.6348 -2.5047 0.9572
-10.5223 -1.5786 -2.5007 0.9572
-10.3225 -2.5067 -2.4965 0.9573
-9.6802 -4.2864 -2.4881 0.9574
-9.2437 -5.1241 -2.4840 0.9575
-8.7354 -5.9184 -2.4798 0.9576
-7.8933 -6.4458 -2.3951 0.9590
-7.2088 -7.0478 -2.3694 0.9594
-6.5415 -7.6511 -2.3658 0.9595
-5.8246 -8.1922 -2.3624 0.9595
-3.3961 -9.3000 -2.3269 0.9601
-2.6046 -9.7590 -2.3739 0.9593
1.8591 -9.8933 -2.3658 0.9595
2.7335 -9.6855 -2.3652 0.9595
5.2007 -8.6172 -2.3655 0.9595
5.9505 -8.1217 -2.3663 0.9595
6.6544 -7.5621 -2.3674 0.9595
7.3069 -6.9427 -2.3689 0.9594
7.9029 -6.2680 -2.3706 0.9594
8.3563 -5.4894 -2.3498 0.9598
8.8214 -4.7269 -2.3521 0.9597
9.9679 -1.3504 -2.3641 0.9595
10.5159 0.4627 -2.4739 0.9577
10.4494 1.4010 -2.4778 0.9576
10.2997 2.3313 -2.4819 0.9575
9.7542 4.1381 -2.4902 0.9574
8.8936 5.8249 -2.4986 0.9573
8.3523 6.6058 -2.5027 0.9572
6.0725 8.2643 -2.4103 0.9587
5.3186 8.7854 -2.4137 0.9587
4.5198 9.2369 -2.4169 0.9586
4.5692 11.9306 -3.0026 0.9489
2.4158 12.7587 -3.0519 0.9480
1.2780 13.0240 -3.0756 0.9476
-2.3540 13.7032 -3.2677 0.9445
-7.6587 6.2717 -2.3265 0.9601
-9.0067 5.0089 -2.4221 0.9585
-9.4069 4.1809 -2.4194 0.9586
-9.7303 3.3210 -2.4164 0.9586
-10.4018 -2.1842 -2.4980 0.9573
-9.4049 -4.8356 -2.4854 0.9575
-8.3684 -6.4085 -2.4772 0.9576
-7.4296 -6.8228 -2.3707 0.9594
-5.3346 -8.5087 -2.3603 0.9596
-4.5484 -8.9389 -2.3572 0.9596
-2.9093 -9.6763 -2.3747 0.9593
-2.0327 -9.8875 -2.3724 0.9594
1.5493 -9.9478 -2.3661 0.9595
3.2906 -9.5097 -2.3650 0.9595
4.1256 -9.1782 -2.3650 0.9595
5.6931 -8.3025 -2.3660 0.9595
6.4137 -7.7649 -2.3670 0.9595
7.7011 -6.5101 -2.3700 0.9594
9.4378 -3.3867 -2.3566 0.9596
10.4734 -0.8038 -2.4687 0.9578
10.5194 0.1338 -2.4725 0.9577
10.1581 2.9282 -2.4846 0.9575
9.8729 3.8290 -2.4888 0.9574
9.5081 4.7023 -2.4930 0.9574
8.5498 6.3379 -2.5013 0.9572
7.6335 6.7933 -2.4016 0.9589
6.3245 8.0664 -2.4090 0.9588
5.5879 8.6107 -2.4125 0.9587
3.9794 9.4913 -2.4188 0.9586
-0.6679 13.4659 -3.1687 0.9461
-1.9015 13.6040 -3.2283 0.9451
-3.3025 14.2204 -3.4311 0.9418
-4.6504 7.0144 -1.9779 0.9660
-8.2953 6.0242 -2.4095 0.9587
-8.8491 5.2898 -2.4230 0.9585
-9.6261 3.6250 -2.4175 0.9586
-10.6692 0.0310 -2.5075 0.9571
-10.6125 -0.9193 -2.5035 0.9572
-9.9407 -3.6777 -2.4911 0.9574
-9.0986 -5.3674 -2.4827 0.9575
-7.6434 -6.5910 -2.3720 0.9594
-7.0140 -7.2352 -2.3683 0.9594
-6.3312 -7.8202 -2.3648 0.9595
-5.6005 -8.3419 -2.3614 0.9596
-4.8277 -8.7964 -2.3582 0.9596
-3.0853 -9.2079 -2.2823 0.9609
-2.3414 -9.8224 -2.3732 0.9594
-1.4546 -9.9830 -2.3710 0.9594
-0.5579 -10.0652 -2.3692 0.9594
1.2379 -9.9928 -2.3665 0.9595
4.6516 -8.9240 -2.3652 0.9595
6.8559 -7.3823 -2.3678 0.9594
8.0701 -6.0554 -2.3712 0.9594
9.3234 -3.6784 -2.3556 0.9597
9.6264 -2.8357 -2.3585 0.9596
9.8543 -1.9684 -2.3617 0.9595
10.0789 -1.0912 -2.3826 0.9592
10.5047 0.7448 -2.4750 0.9577
10.4132 1.6815 -2.4790 0.9576
9.9819 3.5166 -2.4873 0.9574
9.6447 4.4003 -2.4915 0.9574
9.2293 5.2519 -2.4957 0.9573
8.7386 6.0642 -2.4998 0.9572
7.2339 7.2322 -2.4041 0.9588
5.0833 8.9284 -2.4146 0.9587
4.2722 9.3583 -2.4178 0.9586
2.0882 12.9137 -3.0744 0.9477
0.6108 8.5885 -2.0236 0.9652
-0.2441 13.3343 -3.1344 0.9467
-1.4664 13.5729 -3.2085 0.9454
-2.7798 13.9321 -3.3389 0.9433
-8.6826 5.5657 -2.4239 0.9585
-9.1348 4.7641 -2.4213 0.9586
-9.5122 3.9258 -2.4185 0.9586
-7.7826 2.4254 -1.9158 0.9671
-10.6689 0.3646 -2.5089 0.9571
-10.3344 -2.4610 -2.4967 0.9573
-10.0568 -3.3673 -2.4925 0.9574
-9.7000 -4.2437 -2.4883 0.9574
-9.2672 -5.0834 -2.4842 0.9575
-6.5759 -7.6225 -2.3660 0.9595
-5.8613 -8.1668 -2.3626 0.9595
-2.6481 -9.7478 -2.3740 0.9593
0.0271 -10.0763 -2.3682 0.9594
0.9252 -10.0281 -2.3669 0.9595
7.2757 -6.9748 -2.3688 0.9594
9.2001 -3.9663 -2.3546 0.9597
9.7832 -2.2743 -2.3606 0.9596
10.3091 2.2853 -2.4817 0.9575
9.7717 4.0944 -2.4900 0.9574
8.9186 5.7849 -2.4984 0.9573
7.4522 6.9989 -2.4027 0.9589
6.1087 8.2366 -2.4101 0.9587
5.3573 8.7611 -2.4135 0.9587
3.7249 9.5980 -2.4197 0.9586
0.1708 13.1992 -3.1024 0.9472
-5.6751 6.7164 -2.0666 0.9645
-7.6810 6.3472 -2.3418 0.9599
-8.5072 5.8363 -2.4247 0.9585
-8.9848 5.0491 -2.4222 0.9585
-9.9642 2.4811 -2.4133 0.9587
-10.1314 1.5802 -2.4099 0.9587
-10.6580 0.6982 -2.5103 0.9571
-5.3727 -8.4855 -2.3604 0.9596
-3.7700 -9.2816 -2.3545 0.9597
-2.9524 -9.6638 -2.3748 0.9593
-2.0766 -9.8788 -2.3725 0.9594
-1.1862 -10.0160 -2.3704 0.9594
-0.2879 -10.0745 -2.3687 0.9594
0.6115 -10.0539 -2.3673 0.9595
2.3863 -9.7777 -2.3654 0.9595
3.2483 -9.5243 -2.3650 0.9595
4.0848 -9.1964 -2.3650 0.9595
5.6561 -8.3276 -2.3659 0.9595
6.3790 -7.7932 -2.3669 0.9595
7.6718 -6.5440 -2.3699 0.9594
8.1521 -5.7820 -2.3489 0.9598
8.6435 -5.0366 -2.3511 0.9597
9.4221 -3.4284 -2.3564 0.9596
10.5191 0.0870 -2.4723 0.9577
10.3695 1.9610 -2.4803 0.9576
10.1701 2.8829 -2.4844 0.9575
9.8890 3.7848 -2.4886 0.9574
9.0897 5.5001 -2.4969 0.9573
8.5771 6.2994 -2.5011 0.9572
6.3598 8.0376 -2.4088 0.9588
5.6257 8.5852 -2.4123 0.9587
4.8441 9.0651 -2.4156 0.9586
3.0004 9.2984 -2.2963 0.9606
2.8109 12.4057 -2.9895 0.9491
-0.6071 13.4477 -3.1637 0.9462
-1.0930 8.0816 -1.9167 0.9670
-3.2266 14.1793 -3.4176 0.9420
-3.1812 7.4747 -1.9092 0.9672
-8.2406 6.0404 -2.4013 0.9589
-9.2561 4.5160 -2.4205 0.9586
-10.0822 1.8969 -2.4111 0.9587
-10.6698 0.0784 -2.5077 0.9571
-10.4801 -1.8128 -2.4996 0.9572
-9.9578 -3.6338 -2.4913 0.9574
-9.5779 -4.4999 -2.4871 0.9574
-6.3664 -7.7926 -2.3649 0.9595
-4.8670 -8.7754 -2.3584 0.9596
-3.1360 -9.2229 -2.2895 0.9608
-2.3851 -9.8124 -2.3733 0.9594
-1.4990 -9.9769 -2.3711 0.9594
2.9492 -9.6216 -2.3651 0.9595
6.1313 -7.9874 -2.3665 0.9595
6.8228 -7.4125 -2.3677 0.9594
7.4616 -6.7787 -2.3693 0.9594
8.0428 -6.0909 -2.3711 0.9594
8.4790 -5.3024 -2.3503 0.9597
8.9273 -4.5296 -2.3528 0.9597
9.3064 -3.7196 -2.3554 0.9597
9.6131 -2.8783 -2.3584 0.9596
9.9992 -1.1275 -2.3649 0.9595
10.5110 -0.2415 -2.4710 0.9577
10.5071 0.6980 -2.4748 0.9577
10.2493 2.5621 -2.4829 0.9575
9.2517 5.2104 -2.4955 0.9573
8.7647 6.0249 -2.4996 0.9572
6.6044 7.8309 -2.4076 0.9588
5.8883 8.4011 -2.4111 0.9587
5.1226 8.9052 -2.4145 0.9587
2.1448 12.8997 -3.0733 0.9477
0.6501 8.6002 -2.0270 0.9652
-1.4049 13.5677 -3.2058 0.9455
-2.7075 13.8913 -3.3262 0.9435
-4.3001 14.8528 -3.6341 0.9384
-8.6581 5.6045 -2.4240 0.9585
-7.7946 2.4671 -1.9215 0.9670
-10.6680 0.4120 -2.5091 0.9571
-10.6454 -0.5403 -2.5051 0.9571
-10.5377 -1.4853 -2.5011 0.9572
-10.0725 -3.3228 -2.4927 0.9574
-9.7195 -4.2009 -2.4886 0.9574
-7.2723 -6.9845 -2.3698 0.9594
-5.2529 -6.0345 -1.8803 0.9677
-4.3460 -9.0356 -2.3564 0.9596
-2.6915 -9.7364 -2.3741 0.9593
-1.8106 -9.9282 -2.3718 0.9594
3.5024 -9.4336 -2.3650 0.9595
4.3300 -9.0838 -2.3650 0.9595
5.8779 -8.1739 -2.3662 0.9595
6.5866 -7.6205 -2.3673 0.9595
7.2444 -7.0069 -2.3687 0.9594
8.3064 -5.5629 -2.3495 0.9598
8.7781 -4.8046 -2.3519 0.9597
9.5142 -3.1758 -2.3573 0.9596
9.9540 -1.4387 -2.3637 0.9595
10.4927 -0.5695 -2.4697 0.9577
10.4598 1.3080 -2.4774 0.9576
9.4045 4.9158 -2.4940 0.9573
8.9435 5.7447 -2.4982 0.9573
8.4093 6.5303 -2.5023 0.9572
7.4826 6.9651 -2.4026 0.9589
6.8422 7.6166 -2.4063 0.9588
5.3958 8.7366 -2.4133 0.9587
4.6011 9.1953 -2.4165 0.9586
3.7672 9.5808 -2.4195 0.9586
2.6992 9.2018 -2.2538 0.9614
2.5158 12.6705 -3.0360 0.9483
1.3939 13.0143 -3.0762 0.9476
-0.9745 13.5249 -3.1869 0.9458
-7.7036 6.4237 -2.3574 0.9596
-9.3705 4.2648 -2.4197 0.9586
-9.7017 3.4078 -2.4167 0.9586
-9.9537 2.5255 -2.4135 0.9587
-10.1250 1.6253 -2.4101 0.9587
-10.6556 0.7455 -2.5104 0.9571
-9.4490 -4.7527 -2.4858 0.9575
-8.9725 -5.5672 -2.4817 0.9575
-8.4263 -6.3349 -2.4776 0.9576
-7.4911 -6.7576 -2.3711 0.9594
-6.8478 -7.3874 -2.3674 0.9595
-5.4107 -8.4621 -2.3606 0.9596
-4.6283 -8.8993 -2.3575 0.9596
-3.8114 -9.2653 -2.3546 0.9597
-2.9712 -9.5729 -2.3557 0.9597
-1.2307 -10.0110 -2.3705 0.9594
-0.3327 -10.0734 -2.3688 0.9594
1.4609 -9.9615 -2.3662 0.9595
4.8502 -8.8181 -2.3653 0.9595
7.0203 -7.2282 -2.3682 0.9594
7.6423 -6.5777 -2.3698 0.9594
8.6207 -5.0747 -2.3510 0.9597
9.4062 -3.4700 -2.3563 0.9596
9.6906 -2.6206 -2.3593 0.9596
9.8993 -1.7482 -2.3626 0.9595
10.4896 0.9799 -2.4760 0.9576
9.5479 4.6169 -2.4925 0.9574
9.1133 5.4592 -2.4967 0.9573
8.6044 6.2607 -2.5009 0.9572
7.0731 7.3951 -2.4050 0.9588
6.3950 8.0087 -2.4087 0.9588
4.8840 9.0429 -2.4154 0.9586
0.6358 13.0633 -3.0738 0.9477
-1.7557 7.8768 -1.8967 0.9674
-2.4479 7.6782 -1.8940 0.9674
-6.1749 6.5598 -2.1173 0.9637
-8.1860 6.0566 -2.3932 0.9590
-9.5947 3.7109 -2.4178 0.9586
-9.8747 2.8366 -2.4146 0.9587
-10.0744 1.9419 -2.4113 0.9587
-10.6702 0.1258 -2.5079 0.9571
-10.6220 -0.8251 -2.5039 0.9572
-10.2724 -2.6904 -2.4957 0.9573
-9.9747 -3.5898 -2.4915 0.9574
-9.1474 -5.2872 -2.4831 0.9575
-8.6251 -6.0720 -2.4790 0.9576
-7.7028 -6.5238 -2.3724 0.9594
-7.0791 -7.1736 -2.3687 0.9594
-6.4014 -7.7648 -2.3651 0.9595
-4.9063 -8.7542 -2.3585 0.9596
-4.1007 -9.1455 -2.3556 0.9597
-1.5434 -9.9706 -2.3712 0.9594
0.2524 -10.0716 -2.3678 0.9594
1.1491 -10.0038 -2.3666 0.9595
2.0360 -9.8577 -2.3657 0.9595
2.9065 -9.6347 -2.3652 0.9595
3.7540 -9.3362 -2.3650 0.9595
4.5721 -8.9648 -2.3651 0.9595
6.0957 -8.0144 -2.3665 0.9595
7.4312 -6.8115 -2.3692 0.9594
9.5996 -2.9208 -2.3582 0.9596
10.5090 -0.2882 -2.4708 0.9577
10.4260 1.5886 -2.4786 0.9576
10.2597 2.5165 -2.4827 0.9575
10.0111 3.4272 -2.4869 0.9575
9.6818 4.3138 -2.4911 0.9574
8.7907 5.9853 -2.4994 0.9572
8.2353 6.7566 -2.5035 0.9572
6.6387 7.8008 -2.4074 0.9588
5.9251 8.3742 -2.4110 0.9587
5.1617 8.8817 -2.4143 0.9587
4.3546 9.3188 -2.4175 0.9586
-0.1253 13.2954 -3.1249 0.9468
-8.6336 5.6432 -2.4241 0.9585
-10.1604 1.3527 -2.4090 0.9588
-10.6485 -0.4931 -2.5053 0.9571
-10.3575 -2.3695 -2.4971 0.9573
-9.3136 -5.0017 -2.4846 0.9575
-8.8157 -5.8028 -2.4805 0.9576
-5.2745 -6.0052 -1.8785 0.9677
-5.1798 -8.6006 -2.3596 0.9596
-4.3863 -9.0167 -2.3566 0.9596
-1.8548 -9.9205 -2.3720 0.9594
-0.0624 -10.0767 -2.3683 0.9594
1.7272 -9.9177 -2.3660 0.9595
4.2895 -9.1029 -2.3650 0.9595
5.0852 -8.6854 -2.3654 0.9595
5.8414 -8.1998 -2.3661 0.9595
6.5525 -7.6495 -2.3672 0.9595
7.2129 -7.0388 -2.3686 0.9594
8.2812 -5.5994 -2.3494 0.9598
9.1635 -4.0474 -2.3543 0.9597
9.4994 -3.2179 -2.3572 0.9596
9.7613 -2.3608 -2.3603 0.9596
9.9469 -1.4828 -2.3636 0.9595
10.5186 0.3224 -2.4733 0.9577
10.4646 1.2613 -2.4772 0.9576
10.3273 2.1933 -2.4813 0.9575
10.1073 3.1108 -2.4854 0.9575
9.8061 4.0068 -2.4896 0.9574
9.4254 4.8737 -2.4938 0.9573
8.9682 5.7044 -2.4980 0.9573
8.4376 6.4923 -2.5021 0.9572
6.8755 7.5856 -2.4061 0.9588
6.1807 8.1808 -2.4097 0.9587
2.5654 12.6265 -3.0282 0.9484
0.2874 13.1636 -3.0945 0.9473
-2.1528 13.6171 -3.2401 0.9449
-3.6151 14.3909 -3.4873 0.9409
-6.4433 6.4872 -2.1489 0.9631
-7.7266 6.5012 -2.3732 0.9594
-8.4558 5.9122 -2.4249 0.9585
-9.6871 3.4510 -2.4168 0.9586
-10.1185 1.6704 -2.4103 0.9587
-10.6530 0.7929 -2.5106 0.9571
-10.6647 -0.1602 -2.5067 0.9571
-10.5909 -1.1090 -2.5027 0.9572
-8.4550 -6.2980 -2.4778 0.9576
-7.5216 -6.7248 -2.3713 0.9594
-6.1882 -7.9301 -2.3641 0.9595
-4.6680 -8.8792 -2.3576 0.9596
-3.8527 -9.2488 -2.3547 0.9597
-2.9938 -9.4966 -2.3402 0.9599
-2.1645 -9.8609 -2.3727 0.9594
-0.3774 -10.0722 -2.3689 0.9594
0.5222 -10.0595 -2.3674 0.9595
2.2994 -9.7988 -2.3655 0.9595
3.1636 -9.5529 -2.3651 0.9595
4.0029 -9.2323 -2.3650 0.9595
4.8109 -8.8395 -2.3652 0.9595
6.9879 -7.2591 -2.3681 0.9594
8.0996 -5.8537 -2.3487 0.9598
9.6782 -2.6634 -2.3592 0.9596
9.8907 -1.7920 -2.3624 0.9595
10.4594 -0.9431 -2.4682 0.9578
10.3848 1.8684 -2.4799 0.9576
10.1937 2.7919 -2.4840 0.9575
7.1054 7.3630 -2.4048 0.9588
6.4300 7.9796 -2.4085 0.9588
5.7009 8.5337 -2.4120 0.9587
4.1048 9.4357 -2.4184 0.9586
3.1020 9.3286 -2.3105 0.9604
0.6938 13.0607 -3.0739 0.9477
-0.3012 8.3097 -1.9543 0.9664
-1.7154 13.5920 -3.2198 0.9453
-1.7212 7.8871 -1.8973 0.9674
-4.7614 15.1676 -3.7363 0.9368
-8.7791 5.4081 -2.4234 0.9585
-9.8626 2.8806 -2.4148 0.9587
-10.6287 1.1260 -2.5120 0.9570
-10.6704 0.1732 -2.5081 0.9571
-10.6264 -0.7779 -2.5041 0.9572
-10.2851 -2.6450 -2.4959 0.9573
-9.9914 -3.5458 -2.4917 0.9574
-9.6191 -4.4154 -2.4875 0.9574
-1.0670 12.4846 -3.2443 0.9495
-7.7567 5.2207 -2.4209 0.9621
-8.5443 3.7521 -2.4162 0.9622
-8.8349 2.9716 -2.4135 0.9622
-9.5966 1.4096 -2.5114 0.9607
-9.6709 0.5472 -2.5080 0.9608
-9.6674 -0.3171 -2.5044 0.9608
-9.5866 -1.1764 -2.5008 0.9609
-9.1972 -2.8524 -2.4932 0.9610
-8.0769 -5.1619 -2.4819 0.9612
-6.7199 -6.2264 -2.3720 0.9629
-6.1292 -6.7915 -2.3686 0.9629
-5.4917 -7.3013 -2.3655 0.9630
-3.3508 -8.4647 -2.3571 0.9631
-2.5799 -8.7211 -2.3548 0.9631
-1.8077 -8.9955 -2.3757 0.9628
-0.9973 -9.1139 -2.3738 0.9628
-0.1803 -9.1605 -2.3723 0.9629
1.4488 -9.0383 -2.3700 0.9629
3.0304 -8.6335 -2.3691 0.9629
3.7884 -8.3287 -2.3691 0.9629
4.5167 -7.9586 -2.3694 0.9629
5.2099 -7.5260 -2.3700 0.9629
5.8627 -7.0341 -2.3709 0.9629
6.4701 -6.4865 -2.3721 0.9629
6.9595 -5.8304 -2.3507 0.9632
7.4575 -5.1903 -2.3525 0.9632
7.8976 -4.5084 -2.3546 0.9631
8.2764 -3.7898 -2.3569 0.9631
8.5908 -3.0398 -2.3594 0.9630
9.0161 -1.4686 -2.3652 0.9630
9.5180 -0.6879 -2.4708 0.9613
9.5547 0.1640 -2.4742 0.9613
9.5157 1.0170 -2.4778 0.9612
8.9472 3.5158 -2.4890 0.9611
7.7323 5.7854 -2.5004 0.9609
7.1827 6.4495 -2.4994 0.9609
6.3271 6.7941 -2.4038 0.9624
5.0327 7.8311 -2.4102 0.9623
4.3194 8.2589 -2.4132 0.9622
3.5696 8.6210 -2.4159 0.9622
2.7893 8.9143 -2.4184 0.9621
0.4253 12.0396 -3.1192 0.9514
-1.8140 12.5706 -3.2885 0.9489
-3.0961 13.0680 -3.4772 0.9460
-4.6667 13.9910 -3.8187 0.9409
-1.8887 4.3305 -1.2232 0.9807
-7.0801 6.1222 -2.4235 0.9621
-8.4260 4.0187 -2.4171 0.9622
-8.7413 3.2476 -2.4144 0.9622
-9.1567 1.6387 -2.4085 0.9623
-9.4929 -1.7290 -2.4983 0.9609
-9.2868 -2.5650 -2.4945 0.9610
-8.6568 -4.1615 -2.4869 0.9611
-8.2386 -4.9096 -2.4832 0.9611
-6.3415 -6.5998 -2.3698 0.9629
-5.0545 -7.6014 -2.3635 0.9630
-4.3511 -8.0122 -2.3607 0.9630
-3.6150 -8.3589 -2.3580 0.9631
-2.0683 -8.8509 -2.3534 0.9631
-1.2820 -9.0806 -2.3744 0.9628
-0.4666 -9.1523 -2.3728 0.9628
0.3514 -9.1522 -2.3714 0.9629
1.1658 -9.0803 -2.3703 0.9629
7.2896 -5.4193 -2.3518 0.9632
8.1511 -4.0451 -2.3560 0.9631
8.9617 -1.7488 -2.3641 0.9630
9.5380 0.7188 -2.4765 0.9612
9.2860 2.4092 -2.4839 0.9611
9.0479 3.2328 -2.4877 0.9611
8.3550 4.8036 -2.4953 0.9610
7.3907 6.2303 -2.5028 0.9608
5.9275 7.1563 -2.4059 0.9623
3.8357 8.5020 -2.4150 0.9622
3.0654 8.8197 -2.4176 0.9622
1.3857 8.8175 -2.3110 0.9638
-1.4122 12.5492 -3.2697 0.9492
-2.6293 12.8795 -3.4035 0.9471
-4.4296 7.0868 -2.1639 0.9661
-6.0076 6.6157 -2.3138 0.9637
-6.8870 6.3420 -2.4240 0.9621
-7.4198 5.6983 -2.4223 0.9621
-7.8919 5.0095 -2.4202 0.9621
-8.6389 3.5205 -2.4154 0.9622
-9.1052 1.9250 -2.4096 0.9623
-9.5473 -1.4323 -2.4996 0.9609
-9.1133 -3.0965 -2.4921 0.9610
-8.7873 -3.8910 -2.4883 0.9611
-8.3924 -4.6522 -2.4845 0.9611
-7.9321 -5.3741 -2.4807 0.9612
-7.4102 -6.0513 -2.4771 0.9612
-5.2919 -7.4430 -2.3646 0.9630
-2.3445 -8.7847 -2.3541 0.9631
-1.5655 -9.0386 -2.3751 0.9628
1.6904 -8.9953 -2.3698 0.9629
2.4854 -8.8066 -2.3693 0.9629
3.2607 -8.5490 -2.3690 0.9629
4.7287 -7.8352 -2.3695 0.9629
5.4104 -7.3844 -2.3702 0.9629
6.5787 -6.2508 -2.3496 0.9632
7.1148 -5.6430 -2.3512 0.9632
8.0179 -4.2963 -2.3552 0.9631
8.6721 -2.8093 -2.3602 0.9630
8.8988 -2.0271 -2.3631 0.9630
9.4272 -1.2771 -2.4632 0.9615
9.5369 -0.4327 -2.4718 0.9613
9.5509 0.4202 -2.4753 0.9613
9.4892 1.2723 -2.4789 0.9612
9.3518 2.1168 -2.4826 0.9612
9.1396 2.9469 -2.4864 0.9611
8.4965 4.5378 -2.4940 0.9610
8.0701 5.2855 -2.4978 0.9609
7.5778 5.9932 -2.5015 0.9609
6.7324 6.3793 -2.4014 0.9624
6.1453 6.9642 -2.4048 0.9624
5.5070 7.4947 -2.4080 0.9623
4.8227 7.9662 -2.4111 0.9623
4.0979 8.3746 -2.4140 0.9622
3.3383 8.7164 -2.4167 0.9622
2.5501 8.9885 -2.4191 0.9621
2.2133 11.6892 -3.0803 0.9520
1.1707 11.9308 -3.1039 0.9517
0.1036 12.1840 -3.1548 0.9509
-1.0100 12.4708 -3.2395 0.9496
-1.3758 8.0087 -2.1040 0.9670
-7.7338 5.2553 -2.4210 0.9621
-8.1643 4.5404 -2.4188 0.9621
-8.5280 3.7902 -2.4163 0.9622
-9.5879 1.4518 -2.5108 0.9607
-9.5924 -1.1339 -2.5009 0.9609
-9.4389 -1.9820 -2.4972 0.9609
-8.5382 -4.3900 -2.4858 0.9611
-7.5996 -5.8197 -2.4784 0.9612
-6.7480 -6.1969 -2.3721 0.9629
-6.1597 -6.7646 -2.3688 0.9629
-4.8471 -7.7312 -2.3626 0.9630
-4.1333 -8.1231 -2.3598 0.9630
-1.8477 -8.9878 -2.3758 0.9628
0.5965 -9.1381 -2.3711 0.9629
2.9920 -8.6469 -2.3691 0.9629
3.7513 -8.3454 -2.3690 0.9629
5.1764 -7.5489 -2.3699 0.9629
6.4411 -6.5150 -2.3721 0.9629
8.2591 -3.8263 -2.3568 0.9631
8.9621 3.4758 -2.4888 0.9611
8.6295 4.2678 -2.4926 0.9610
8.2270 5.0281 -2.4964 0.9609
7.7573 5.7505 -2.5002 0.9609
7.2241 6.4290 -2.5039 0.9608
5.7358 7.3156 -2.4069 0.9623
2.5702 11.5818 -3.0717 0.9522
-0.6135 12.3693 -3.2066 0.9501
-1.7567 12.5682 -3.2858 0.9489
-4.5609 13.8792 -3.7826 0.9414
-4.6499 7.0136 -2.1788 0.9658
-7.0530 6.1538 -2.4235 0.9621
-8.4085 4.0563 -2.4172 0.9622
-8.7273 3.2866 -2.4146 0.9622
-8.9750 2.4921 -2.4117 0.9622
-9.1499 1.6795 -2.4087 0.9623
-9.6505 0.8925 -2.5094 0.9607
-9.6781 0.0281 -2.5059 0.9608
-9.6281 -0.8340 -2.5022 0.9609
-9.0228 -3.3381 -2.4909 0.9610
-8.6759 -4.1233 -2.4871 0.9611
-7.7817 -5.5823 -2.4796 0.9612
-7.2415 -6.2445 -2.4758 0.9613
-6.3712 -6.5720 -2.3700 0.9629
-2.8906 -8.6268 -2.3557 0.9631
-1.3223 -9.0751 -2.3745 0.9628
1.9307 -8.9460 -2.3696 0.9629
2.7205 -8.7365 -2.3692 0.9629
5.6070 -7.2375 -2.3705 0.9629
7.2652 -5.4514 -2.3517 0.9632
8.1326 -4.0811 -2.3559 0.9631
8.7474 -2.5768 -2.3611 0.9630
9.4559 1.5269 -2.4800 0.9612
8.7540 3.9939 -2.4913 0.9610
7.9291 5.5025 -2.4989 0.9609
7.4177 6.1969 -2.5026 0.9608
5.3062 7.6426 -2.4090 0.9623
4.6092 8.0956 -2.4120 0.9622
3.8732 8.4844 -2.4148 0.9622
3.1044 8.8055 -2.4174 0.9622
1.4279 8.8300 -2.3160 0.9637
-0.2246 12.2671 -3.1767 0.9506
-1.3554 12.5454 -3.2671 0.9492
-2.5649 12.8551 -3.3940 0.9473
-3.9446 13.4019 -3.6172 0.9439
-6.8589 6.3727 -2.4241 0.9621
-7.8699 5.0448 -2.4204 0.9621
-8.6237 3.5590 -2.4155 0.9622
-7.7758 2.4232 -2.1088 0.9669
-9.0971 1.9655 -2.4098 0.9623
-9.6225 1.1942 -2.5106 0.9607
-9.6773 0.3307 -2.5071 0.9608
-9.6544 -0.5330 -2.5035 0.9608
-9.5543 -1.3900 -2.4998 0.9609
-9.3781 -2.2332 -2.4961 0.9609
-8.4137 -4.6153 -2.4847 0.9611
-7.9565 -5.3392 -2.4809 0.9612
-6.5766 -6.3728 -2.3711 0.9629
-5.3253 -7.4199 -2.3647 0.9630
-4.6365 -7.8555 -2.3618 0.9630
-1.6057 -9.0319 -2.3752 0.9628
-0.7931 -9.1323 -2.3734 0.9628
0.0246 -9.1609 -2.3719 0.9629
0.8412 -9.1176 -2.3707 0.9629
1.6504 -9.0029 -2.3699 0.9629
2.4463 -8.8177 -2.3693 0.9629
3.2227 -8.5634 -2.3690 0.9629
3.9738 -8.2421 -2.3691 0.9629
5.3774 -7.4083 -2.3702 0.9629
6.0193 -6.9020 -2.3712 0.9629
7.5733 -5.0233 -2.3530 0.9631
7.9984 -4.3317 -2.3551 0.9631
8.3613 -3.6047 -2.3575 0.9631
8.6591 -2.8477 -2.3601 0.9630
9.3295 -1.3061 -2.4391 0.9618
9.5342 -0.4751 -2.4716 0.9613
9.4940 1.2300 -2.4787 0.9612
9.1519 2.9061 -2.4862 0.9611
8.8698 3.7165 -2.4900 0.9610
8.5159 4.4997 -2.4938 0.9610
8.0929 5.2493 -2.4976 0.9609
6.7602 6.3489 -2.4012 0.9624
6.1757 6.9364 -2.4046 0.9624
5.5399 7.4697 -2.4079 0.9623
4.8578 7.9442 -2.4110 0.9623
4.1348 8.3559 -2.4139 0.9622
3.3768 8.7010 -2.4166 0.9622
2.5899 8.9767 -2.4190 0.9621
2.2643 11.6746 -3.0791 0.9521
1.2233 11.9214 -3.1029 0.9517
-3.4425 13.2061 -3.5336 0.9452
-2.0001 4.3197 -1.2325 0.9805
-4.8822 6.9519 -2.1995 0.9655
-7.2139 5.9612 -2.4230 0.9621
-7.7107 5.2898 -2.4211 0.9621
-8.1444 4.5768 -2.4189 0.9621
-8.8092 3.0504 -2.4137 0.9622
-9.4921 1.4805 -2.4874 0.9611
-9.6670 0.6332 -2.5083 0.9608
-9.6713 -0.2312 -2.5048 0.9608
-9.5981 -1.0913 -2.5011 0.9609
-9.4483 -1.9402 -2.4974 0.9609
-9.2236 -2.7710 -2.4936 0.9610
-8.9260 -3.5771 -2.4898 0.9610
-8.5583 -4.3524 -2.4860 0.9611
-8.1237 -5.0907 -2.4822 0.9612
-7.6259 -5.7864 -2.4785 0.9612
-6.7759 -6.1673 -2.3723 0.9628
-5.5570 -7.2532 -2.3658 0.9629
-4.8817 -7.7101 -2.3628 0.9630
-4.1696 -8.1051 -2.3600 0.9630
-2.6575 -8.6987 -2.3550 0.9631
-1.8877 -8.9799 -2.3759 0.9628
-1.0784 -9.1053 -2.3740 0.9628
1.3685 -9.0511 -2.3701 0.9629
2.1697 -8.8904 -2.3695 0.9629
2.9536 -8.6601 -2.3691 0.9629
3.7142 -8.3620 -2.3690 0.9629
4.4458 -7.9983 -2.3693 0.9629
5.1427 -7.5718 -2.3699 0.9629
6.9069 -5.8916 -2.3505 0.9632
7.8565 -4.5780 -2.3543 0.9631
8.2416 -3.8628 -2.3566 0.9631
8.8165 -2.3422 -2.3619 0.9630
9.0015 -1.5484 -2.3649 0.9630
9.2333 2.6173 -2.4849 0.9611
8.9767 3.4356 -2.4886 0.9611
5.1014 7.7851 -2.4099 0.9623
2.0658 9.1173 -2.4205 0.9621
0.5318 12.0259 -3.1168 0.9515
-1.6994 12.5655 -3.2831 0.9490
-2.9612 13.0128 -3.4554 0.9464
-4.4571 13.7692 -3.7472 0.9420
-3.1811 7.4745 -2.1033 0.9670
-7.0259 6.1853 -2.4236 0.9621
-7.5439 5.5298 -2.4218 0.9621
-8.7131 3.3255 -2.4147 0.9622
-8.9644 2.5321 -2.4119 0.9622
-9.6471 0.9354 -2.5095 0.9607
-9.6786 0.0711 -2.5060 0.9608
-9.6324 -0.7913 -2.5024 0.9609
-9.3106 -2.4827 -2.4949 0.9610
-7.8070 -5.5481 -2.4798 0.9612
-5.7836 -7.0793 -2.3669 0.9629
-2.9291 -8.6143 -2.3558 0.9631
-0.5479 -9.1484 -2.3729 0.9628
1.0851 -9.0906 -2.3704 0.9629
1.8910 -8.9546 -2.3697 0.9629
2.6816 -8.7485 -2.3692 0.9629
3.4511 -8.4739 -2.3690 0.9629
4.1934 -8.1328 -2.3692 0.9629
5.5747 -7.2623 -2.3704 0.9629
6.2031 -6.7392 -2.3715 0.9629
6.7179 -6.1031 -2.3500 0.9632
7.7072 -4.8198 -2.3536 0.9631
8.9447 -1.8281 -2.3638 0.9630
9.5475 -0.2194 -2.4727 0.9613
9.3056 2.3263 -2.4835 0.9611
8.7710 3.9547 -2.4911 0.9610
7.9529 5.4668 -2.4987 0.9609
5.9900 7.1024 -2.4056 0.9623
4.6448 8.0746 -2.4119 0.9622
3.1433 8.7912 -2.4173 0.9622
2.3489 9.0454 -2.4197 0.9621
1.9553 11.7598 -3.0866 0.9519
-0.1699 12.2538 -3.1730 0.9506
-2.5008 12.8307 -3.3846 0.9474
-3.8708 13.3700 -3.6039 0.9441
-5.9236 6.6408 -2.3041 0.9639
-6.8308 6.4033 -2.4242 0.9621
-7.3695 5.7644 -2.4225 0.9621
-8.2617 4.3556 -2.4182 0.9621
-9.0888 2.0060 -2.4099 0.9623
-9.6764 0.3737 -2.5073 0.9608
-9.5611 -1.3476 -2.5000 0.9609
-8.8229 -3.8134 -2.4886 0.9611
-7.9807 -5.3042 -2.4811 0.9612
-7.4647 -5.9861 -2.4774 0.9612
-5.2475 -6.0284 -2.0694 0.9675
-5.3585 -7.3966 -2.3649 0.9630
-4.6716 -7.8353 -2.3619 0.9630
-3.1979 -8.5216 -2.3566 0.9631
-2.4228 -8.7643 -2.3543 0.9631
-0.8337 -9.1290 -2.3735 0.9628
-0.0161 -9.1612 -2.3720 0.9629
2.4071 -8.8285 -2.3693 0.9629
3.9371 -8.2596 -2.3691 0.9629
4.6588 -7.8767 -2.3695 0.9629
5.3444 -7.4319 -2.3701 0.9629
6.5225 -6.3086 -2.3495 0.9632
7.0639 -5.7055 -2.3510 0.9632
7.5506 -5.0567 -2.3529 0.9631
8.3448 -3.6416 -2.3574 0.9631
8.8794 -2.1058 -2.3628 0.9630
9.2337 -1.3346 -2.4156 0.9622
9.5529 0.3353 -2.4749 0.9613
9.4987 1.1878 -2.4785 0.9612
9.3688 2.0333 -2.4822 0.9612
9.1640 2.8652 -2.4860 0.9611
8.8855 3.6768 -2.4898 0.9610
8.1155 5.2129 -2.4974 0.9609
6.8240 6.3520 -2.4138 0.9622
2.3151 11.6597 -3.0778 0.9521
-3.3729 13.1788 -3.5222 0.9453
-5.1133 14.4612 -3.9714 0.9386
-4.8514 6.9738 -2.1996 0.9655
-7.6874 5.3243 -2.4212 0.9621
-8.1244 4.6132 -2.4190 0.9621
-8.4948 3.8662 -2.4166 0.9622
-9.6647 0.6762 -2.5085 0.9608
-9.6729 -0.1883 -2.5050 0.9608
-9.6035 -1.0487 -2.5013 0.9609
-9.4575 -1.8983 -2.4976 0.9609
-9.2365 -2.7302 -2.4938 0.9610
-8.5782 -4.3146 -2.4862 0.9611
-6.8037 -6.1376 -2.3725 0.9628
-6.2204 -6.7105 -2.3691 0.9629
-5.5896 -7.2289 -2.3659 0.9629
-2.6963 -8.6872 -2.3551 0.9631
-1.9276 -8.9718 -2.3760 0.9628
-0.3024 -9.1581 -2.3725 0.9628
0.5154 -9.1435 -2.3712 0.9629
2.1302 -8.9001 -2.3695 0.9629
5.1089 -7.5944 -2.3699 0.9629
7.3867 -5.2886 -2.3522 0.9632
8.2239 -3.8992 -2.3565 0.9631
8.9940 -1.5883 -2.3647 0.9630
9.5060 -0.8145 -2.4703 0.9613
9.2441 2.5761 -2.4847 0.9611
8.9913 3.3955 -2.4885 0.9611
8.2701 4.9541 -2.4961 0.9609
7.2799 6.3636 -2.5035 0.9608
6.4157 6.7078 -2.4033 0.9624
2.9074 8.8750 -2.4181 0.9621
0.5850 12.0193 -3.1157 0.9515
-6.1742 6.5590 -2.3323 0.9635
-7.5196 5.5635 -2.4219 0.9621
-7.9789 4.8663 -2.4198 0.9621
-8.6987 3.3644 -2.4148 0.9622
-9.1358 1.7610 -2.4090 0.9623
-9.6435 0.9783 -2.5097 0.9607
-9.6366 -0.7485 -2.5026 0.9608
-9.3223 -2.4415 -2.4951 0.9610
-9.0535 -3.2583 -2.4913 0.9610
-8.7135 -4.0467 -2.4875 0.9611
-7.8321 -5.5138 -2.4800 0.9612
-7.2984 -6.1813 -2.4764 0.9613
-5.8154 -7.0540 -2.3670 0.9629
-4.4583 -7.9549 -2.3611 0.9630
-2.1863 -8.8237 -2.3537 0.9631
-1.4030 -9.0637 -2.3747 0.9628
0.2294 -9.1568 -2.3716 0.9629
2.6427 -8.7604 -2.3692 0.9629
3.4134 -8.4891 -2.3690 0.9629
4.8687 -7.7496 -2.3696 0.9629
5.5422 -7.2868 -2.3704 0.9629
6.1729 -6.7665 -2.3715 0.9629
6.6905 -6.1326 -2.3499 0.9632
8.0952 -4.1528 -2.3557 0.9631
8.4421 -3.4177 -2.3581 0.9631
8.7231 -2.6541 -2.3608 0.9630
9.4715 -1.1107 -2.4691 0.9614
9.5446 0.5915 -2.4760 0.9613
9.3152 2.2848 -2.4834 0.9611
9.0881 3.1113 -2.4871 0.9611
7.9765 5.4310 -2.4985 0.9609
7.4714 6.1299 -2.5022 0.9609
6.6189 6.5008 -2.4021 0.9624
6.0211 7.0752 -2.4055 0.9623
3.9481 8.4487 -2.4146 0.9622
2.3890 9.0345 -2.4196 0.9621
-0.1154 12.2402 -3.1694 0.9507
-2.4370 12.8062 -3.3752 0.9476
-7.3441 5.7973 -2.4226 0.9621
-7.8254 5.1149 -2.4206 0.9621
-8.5926 3.6360 -2.4158 0.9622
-8.8726 2.8518 -2.4130 0.9622
-9.0804 2.0465 -2.4101 0.9623
-9.6128 1.2798 -2.5109 0.9607
-9.6754 0.4167 -2.5075 0.9608
-9.6602 -0.4473 -2.5039 0.9608
-9.3990 -2.1502 -2.4964 0.9609
-8.8404 -3.7744 -2.4888 0.9611
-8.0048 -5.2691 -2.4813 0.9612
-7.4918 -5.9532 -2.4776 0.9612
-6.6339 -6.3151 -2.3715 0.9629
-5.3917 -7.3732 -2.3650 0.9630
-4.7066 -7.8150 -2.3621 0.9630
-2.4618 -8.7539 -2.3545 0.9631
-1.6860 -9.0180 -2.3754 0.9628
-0.8743 -9.1255 -2.3736 0.9628
-0.0568 -9.1613 -2.3721 0.9629
0.7602 -9.1251 -2.3708 0.9629
3.9003 -8.2770 -2.3691 0.9629
5.9574 -6.9549 -2.3711 0.9629
6.4941 -6.3373 -2.3494 0.9632
7.0382 -5.7367 -2.3510 0.9632
7.5278 -5.0899 -2.3528 0.9631
8.6324 -2.9242 -2.3598 0.9630
8.8694 -2.1451 -2.3626 0.9630
9.1515 -1.3643 -2.3957 0.9625
9.5032 1.1455 -2.4784 0.9612
7.6553 5.8904 -2.5009 0.9609
6.2363 6.8803 -2.4043 0.9624
5.6053 7.4192 -2.4076 0.9623
4.2084 8.3178 -2.4136 0.9622
3.4536 8.6698 -2.4163 0.9622
2.6693 8.9524 -2.4188 0.9621
0.2645 12.1140 -3.1373 0.9512
-1.9971 12.6319 -3.3112 0.9485
-3.3038 13.1514 -3.5109 0.9455
-4.9996 14.3418 -3.9325 0.9392
-1.9390 4.2873 -1.2183 0.9807
-7.6641 5.3586 -2.4213 0.9621
-8.7827 3.1289 -2.4140 0.9622
-9.6623 0.7192 -2.5087 0.9608
-9.6743 -0.1453 -2.5051 0.9608
-9.6088 -1.0061 -2.5015 0.9609
-9.4666 -1.8565 -2.4978 0.9609
-8.5979 -4.2768 -2.4864 0.9611
-7.6781 -5.7192 -2.4789 0.9612
-4.9507 -7.6674 -2.3631 0.9630
-2.7350 -8.6755 -2.3552 0.9631
-1.1593 -9.0960 -2.3742 0.9628
-0.3431 -9.1569 -2.3726 0.9628
1.2881 -9.0632 -2.3702 0.9629
2.8766 -8.6861 -2.3691 0.9629
4.3744 -8.0373 -2.3693 0.9629
5.0751 -7.6169 -2.3698 0.9629
5.7363 -7.1365 -2.3707 0.9629
6.8538 -5.9523 -2.3504 0.9632
7.8148 -4.6472 -2.3541 0.9631
8.2061 -3.9354 -2.3564 0.9631
8.5335 -3.1912 -2.3589 0.9631
9.5017 -0.8567 -2.4701 0.9613
8.2913 4.9170 -2.4959 0.9610
7.8316 5.6454 -2.4996 0.9609
6.4450 6.6788 -2.4031 0.9624
5.8316 7.2370 -2.4064 0.9623
2.9467 8.8616 -2.4179 0.9621
2.1466 9.0978 -2.4202 0.9621
-0.3012 8.3088 -2.1527 0.9662
-1.5851 12.5597 -3.2777 0.9490
-1.7210 7.8862 -2.0900 0.9672
-6.1313 6.5718 -2.3271 0.9635
-7.4951 5.5971 -2.4220 0.9621
-8.3550 4.1687 -2.4176 0.9622
-8.6841 3.4032 -2.4150 0.9622
-8.9426 2.6119 -2.4122 0.9622
-9.1285 1.8016 -2.4091 0.9623
-9.6405 -0.7058 -2.5028 0.9608
-9.5250 -1.5605 -2.4991 0.9609
-8.7320 -4.0082 -2.4877 0.9611
0.0459 11.3062 -3.2007 0.9541
-1.4084 7.9855 -2.2955 0.9669
-3.3145 12.2674 -3.5973 0.9485
-4.8832 13.2459 -3.9965 0.9430
-4.9818 6.9615 -2.4234 0.9650
-5.5807 6.4869 -2.4224 0.9651
-6.1339 5.9602 -2.4212 0.9651
-6.6369 5.3859 -2.4197 0.9651
-8.0726 2.7153 -2.4111 0.9652
-8.8395 0.5002 -2.5064 0.9639
-8.6219 -1.8504 -2.4964 0.9640
-8.4107 -2.6085 -2.4929 0.9641
-6.9290 -5.3553 -2.4791 0.9642
-6.4153 -5.9441 -2.4759 0.9643
-4.4053 -7.0963 -2.3645 0.9659
-2.3623 -7.9854 -2.3574 0.9660
-1.6393 -8.1576 -2.3555 0.9660
0.5835 -8.3665 -2.3743 0.9657
1.3269 -8.2781 -2.3734 0.9657
3.4698 -7.6284 -2.3725 0.9658
5.8682 -5.8830 -2.3523 0.9660
6.3733 -5.3393 -2.3537 0.9660
6.8289 -4.7529 -2.3553 0.9660
7.5776 -3.4698 -2.3594 0.9659
7.8647 -2.7829 -2.3617 0.9659
8.0903 -2.0725 -2.3642 0.9659
8.6005 1.7057 -2.4822 0.9642
8.4258 2.4694 -2.4856 0.9642
8.1833 3.2156 -2.4891 0.9641
5.7832 6.2101 -2.4023 0.9653
5.2128 6.7096 -2.4053 0.9653
4.5990 7.1563 -2.4082 0.9653
3.9468 7.5464 -2.4109 0.9652
3.2613 7.8765 -2.4134 0.9652
-0.6220 11.5072 -3.2624 0.9532
-2.8720 12.1224 -3.5268 0.9495
-4.2259 12.6695 -3.7809 0.9460
-4.6868 7.0017 -2.3852 0.9656
-6.4669 5.5920 -2.4203 0.9651
-6.9350 4.9894 -2.4186 0.9651
-7.3465 4.3474 -2.4166 0.9651
-7.6980 3.6715 -2.4144 0.9652
-7.9868 2.9673 -2.4120 0.9652
-8.7297 1.5623 -2.5106 0.9638
-8.8462 -0.0136 -2.5043 0.9639
-8.7980 -0.8015 -2.5010 0.9639
-7.9182 -3.8064 -2.4872 0.9641
-7.0963 -5.1386 -2.4803 0.9642
-5.8033 -6.0398 -2.3712 0.9658
-3.9832 -7.3347 -2.3628 0.9659
-1.1626 -8.2351 -2.3544 0.9660
-0.4231 -8.3006 -2.3529 0.9660
1.8047 -8.1857 -2.3730 0.9658
2.5272 -7.9907 -2.3725 0.9658
3.2297 -7.7330 -2.3724 0.9658
3.9069 -7.4147 -2.3726 0.9658
4.5536 -7.0380 -2.3731 0.9658
7.0968 -4.3508 -2.3565 0.9660
7.7711 -3.0262 -2.3609 0.9659
8.6831 -0.9011 -2.4713 0.9644
8.7398 -0.1232 -2.4744 0.9643
8.7273 0.6577 -2.4777 0.9643
8.2758 2.9569 -2.4879 0.9641
7.6400 4.3925 -2.4948 0.9640
7.2278 5.0635 -2.4983 0.9640
6.7564 5.6957 -2.5016 0.9639
6.0675 6.1203 -2.4397 0.9648
4.8184 7.0062 -2.4072 0.9653
4.1790 7.4165 -2.4099 0.9652
3.5046 7.7680 -2.4125 0.9652
1.3265 8.4410 -2.4189 0.9651
0.5687 8.5315 -2.4206 0.9651
-0.9152 8.1322 -2.3167 0.9666
-1.6200 7.9351 -2.2927 0.9669
-3.7030 7.3020 -2.3178 0.9665
-5.1661 6.8247 -2.4231 0.9650
-6.7775 5.2050 -2.4192 0.9651
-7.2092 4.5762 -2.4173 0.9651
-7.8930 3.2166 -2.4129 0.9652
-7.7849 2.3882 -2.3052 0.9667
-8.8462 0.2630 -2.5054 0.9639
-8.8229 -0.5264 -2.5021 0.9639
-8.5656 -2.0800 -2.4953 0.9640
-8.0372 -3.5589 -2.4884 0.9641
-7.6771 -4.2556 -2.4849 0.9642
-7.2569 -4.9167 -2.4815 0.9642
-5.4387 -6.3612 -2.3693 0.9658
-4.8438 -6.8127 -2.3664 0.9658
-2.8582 -7.8271 -2.3589 0.9660
-0.6824 -8.2851 -2.3534 0.9660
0.0598 -8.3894 -2.3750 0.9657
2.9865 -7.8302 -2.3724 0.9658
3.6731 -7.5328 -2.3725 0.9658
6.0248 -5.7245 -2.3527 0.9660
7.9390 -2.5718 -2.3625 0.9659
8.1885 -1.8653 -2.3775 0.9657
8.6470 -1.1715 -2.4703 0.9644
8.7396 0.3845 -2.4765 0.9643
8.3600 2.6955 -2.4866 0.9641
6.9279 5.4792 -2.5005 0.9639
6.4201 6.0834 -2.5038 0.9639
5.6168 6.3653 -2.4032 0.9653
5.0328 6.8494 -2.4062 0.9653
0.8348 8.5076 -2.4200 0.9651
0.0959 11.2856 -3.1950 0.9542
-1.3736 7.9958 -2.2967 0.9668
-3.2501 12.2451 -3.5865 0.9487
-4.7808 13.1478 -3.9605 0.9435
-4.9509 6.9837 -2.4234 0.9650
-5.5520 6.5117 -2.4225 0.9651
-6.1075 5.9875 -2.4213 0.9651
-7.0646 4.8006 -2.4180 0.9651
-7.4584 4.1478 -2.4160 0.9651
-8.0609 2.7513 -2.4113 0.9652
-8.7652 1.3273 -2.5097 0.9638
-8.7698 -1.0366 -2.5000 0.9640
-8.6306 -1.8122 -2.4965 0.9640
-8.4228 -2.5712 -2.4931 0.9641
-8.1485 -3.3076 -2.4896 0.9641
-7.8101 -4.0157 -2.4861 0.9642
