ply
format ascii 1.0
element vertex 1595
property float32 x
property float32 y
property float32 z
property float32 I
end_header
5.7695 -7.0521 -2.3591 0.9631
6.3909 -6.5245 -2.3647 0.9630
7.4856 -5.3104 -2.3763 0.9628
8.9601 -2.3795 -2.4003 0.9624
9.2850 -0.7524 -2.4119 0.9622
9.3365 0.0794 -2.4175 0.9622
9.3124 0.9143 -2.4227 0.9621
9.2126 1.7453 -2.4277 0.9620
9.0374 2.5654 -2.4324 0.9619
8.0732 4.8908 -2.4440 0.9617
6.7906 7.1727 -2.5574 0.9600
4.6526 8.7236 -2.5599 0.9600
3.0261 9.4069 -2.5585 0.9600
2.1732 9.6337 -2.5570 0.9600
-0.4359 9.4271 -2.4435 0.9618
-9.3067 8.1682 -3.2061 0.9501
-11.4369 6.8807 -3.4558 0.9463
-13.2804 6.4522 -3.8229 0.9408
-6.7595 -1.1831 -1.7768 0.9720
-6.9355 -1.8646 -1.8595 0.9708
-7.3508 -3.4728 -2.1050 0.9670
-5.6524 -6.9522 -2.3199 0.9637
-3.7637 -8.5526 -2.4193 0.9621
0.3024 -9.3738 -2.4283 0.9620
1.1392 -9.3220 -2.4316 0.9619
1.9696 -9.1971 -2.4353 0.9619
2.7872 -8.9999 -2.4394 0.9618
3.5859 -8.7314 -2.4439 0.9617
4.8902 -7.6562 -2.3522 0.9632
6.7907 -6.1300 -2.3686 0.9629
7.3287 -5.5131 -2.3745 0.9628
8.2334 -4.1432 -2.3865 0.9626
8.5919 -3.4005 -2.3925 0.9625
8.8833 -2.6268 -2.3985 0.9624
9.1046 -1.8280 -2.4044 0.9624
9.3285 -0.1811 -2.4158 0.9622
9.3281 0.6535 -2.4211 0.9621
8.8737 3.1193 -2.4354 0.9619
8.5740 3.9051 -2.4394 0.9618
7.5752 6.3220 -2.5547 0.9601
6.9867 6.9787 -2.5568 0.9600
6.3399 7.5791 -2.5584 0.9600
5.6405 8.1179 -2.5594 0.9600
4.8943 8.5903 -2.5598 0.9600
1.5768 9.7437 -2.5556 0.9600
0.7003 9.8360 -2.5532 0.9601
-1.0129 9.3735 -2.4411 0.9618
-1.8425 9.2312 -2.4373 0.9619
-3.4416 8.7248 -2.4284 0.9620
-4.1979 8.3657 -2.4235 0.9621
-4.7482 6.3268 -2.0481 0.9678
-8.1134 9.0085 -3.1390 0.9511
-9.9052 7.6701 -3.2437 0.9496
-11.0489 7.0748 -3.3970 0.9472
-12.4241 6.4711 -3.6270 0.9438
-5.7531 2.3704 -1.6111 0.9746
-6.7075 -0.9819 -1.7552 0.9724
-7.0670 -2.3738 -1.9302 0.9697
-7.2786 -3.1932 -2.0579 0.9677
-7.4543 -5.0142 -2.3261 0.9636
-6.4321 -6.2478 -2.3217 0.9636
-5.8452 -6.7927 -2.3203 0.9636
-5.2135 -7.2843 -2.3193 0.9637
-2.4377 -9.0269 -2.4209 0.9621
0.0405 -9.3751 -2.4274 0.9620
1.7111 -9.2440 -2.4341 0.9619
3.3387 -8.8229 -2.4425 0.9618
3.9498 -8.1532 -2.3457 0.9633
6.0078 -6.8609 -2.3612 0.9630
5.0780 -4.8480 -1.8178 0.9714
7.1664 -5.7112 -2.3726 0.9628
7.6665 -5.0614 -2.3786 0.9628
8.7996 -2.8715 -2.3966 0.9625
9.3131 -0.4412 -2.4140 0.9622
9.3363 0.3926 -2.4195 0.9621
9.2839 1.2267 -2.4247 0.9620
8.9524 2.8687 -2.4340 0.9619
8.6754 3.6624 -2.4382 0.9618
8.3266 4.4287 -2.4419 0.9618
7.9086 5.1610 -2.4451 0.9617
7.5093 5.9193 -2.4757 0.9613
7.1770 6.7793 -2.5562 0.9600
5.8644 7.9564 -2.5592 0.9600
5.1321 8.4500 -2.5598 0.9600
4.3576 8.8744 -2.5598 0.9600
3.5475 9.2257 -2.5592 0.9600
0.9750 9.8158 -2.5540 0.9601
0.0912 9.4539 -2.4479 0.9617
-0.7511 9.4023 -2.4422 0.9618
-3.1986 8.8229 -2.4299 0.9620
-3.9653 8.4852 -2.4250 0.9620
-5.9938 10.3118 -3.0882 0.9519
-10.6684 7.2590 -3.3410 0.9481
-11.9684 6.6649 -3.5469 0.9450
-15.7685 7.0181 -4.4689 0.9312
-7.2095 -2.9256 -2.0145 0.9684
-6.6056 -6.0673 -2.3223 0.9636
-6.0336 -6.6280 -2.3207 0.9636
-4.7558 -7.5894 -2.3190 0.9637
-1.0554 -9.3024 -2.4240 0.9621
-0.2212 -9.3691 -2.4265 0.9620
0.6166 -9.3630 -2.4295 0.9620
1.4517 -9.2837 -2.4329 0.9619
3.0893 -8.9075 -2.4411 0.9618
3.8191 -8.4790 -2.4078 0.9623
4.4492 -7.9066 -2.3490 0.9632
6.4282 -6.4897 -2.3651 0.9630
7.9766 -4.5891 -2.3827 0.9627
8.3755 -3.8687 -2.3887 0.9626
8.9746 -2.3298 -2.4007 0.9624
9.2904 -0.7006 -2.4123 0.9622
9.3084 0.9664 -2.4231 0.9621
8.7698 3.4170 -2.4369 0.9619
8.4431 4.1925 -2.4408 0.9618
7.5828 5.6412 -2.4471 0.9617
3.8040 9.1240 -2.5595 0.9600
0.3702 9.8498 -2.5521 0.9601
-1.3256 9.3290 -2.4397 0.9618
-2.1494 9.1585 -2.4357 0.9619
-2.9528 8.9141 -2.4313 0.9619
-3.7292 8.5982 -2.4266 0.9620
-5.6980 10.4650 -3.0852 0.9520
-6.6302 9.9463 -3.0950 0.9518
-8.4708 8.7941 -3.1615 0.9508
-9.3567 8.1200 -3.2077 0.9501
-11.5243 6.8460 -3.4706 0.9461
-6.7700 -1.2240 -1.7813 0.9720
-6.9470 -1.9093 -1.8654 0.9707
-7.6245 -4.5321 -2.2965 0.9640
-6.7742 -5.8820 -2.3229 0.9636
-5.6133 -6.9835 -2.3199 0.9637
-4.9661 -7.4541 -2.3191 0.9637
-4.3726 -8.0357 -2.3687 0.9629
-2.1344 -9.1056 -2.4215 0.9621
-0.4826 -9.3561 -2.4257 0.9620
4.9336 -7.6297 -2.3525 0.9632
6.2398 -6.6617 -2.3633 0.9630
6.8259 -6.0929 -2.3690 0.9629
9.1161 -1.7774 -2.4048 0.9624
9.2605 -0.9590 -2.4105 0.9623
9.3255 0.7057 -2.4214 0.9621
9.0882 2.3618 -2.4313 0.9619
8.1778 4.7076 -2.4431 0.9618
7.7347 5.4254 -2.4462 0.9617
5.5952 8.1493 -2.5595 0.9600
4.8463 8.6175 -2.5599 0.9600
2.3883 9.5844 -2.5575 0.9600
1.5223 9.7518 -2.5555 0.9600
0.6453 9.8391 -2.5530 0.9601
-0.2253 9.4376 -2.4443 0.9617
-1.0651 9.3668 -2.4409 0.9618
-1.8938 9.2198 -2.4370 0.9619
-3.4899 8.7044 -2.4281 0.9620
-4.2318 8.3171 -2.4162 0.9622
-2.0579 3.2822 -1.0031 0.9841
-4.7622 6.2722 -2.0390 0.9680
-9.1049 8.3585 -3.2002 0.9502
-9.9715 7.6327 -3.2513 0.9494
-12.5168 6.4306 -3.6435 0.9435
-5.7618 2.3364 -1.6098 0.9746
-6.1813 0.7275 -1.6115 0.9746
-6.7178 -1.0217 -1.7594 0.9723
-6.8899 -1.6882 -1.8367 0.9711
-7.0795 -2.4222 -1.9373 0.9696
-6.9377 -5.6921 -2.3235 0.9636
-6.3968 -6.2834 -2.3216 0.9636
-5.1727 -7.3131 -2.3193 0.9637
-4.4986 -7.7442 -2.3189 0.9637
-3.1832 -8.7873 -2.4199 0.9621
0.0929 -9.3754 -2.4276 0.9620
3.3883 -8.8052 -2.4428 0.9618
3.9958 -8.1321 -2.3460 0.9633
4.7154 -7.7593 -2.3509 0.9632
5.4009 -7.3237 -2.3561 0.9631
6.0469 -6.8282 -2.3615 0.9630
5.1255 -4.8389 -1.8251 0.9713
8.1336 -4.3234 -2.3850 0.9627
9.0560 -2.0296 -2.4029 0.9624
9.3168 -0.3893 -2.4144 0.9622
9.3353 0.4447 -2.4198 0.9621
9.1452 2.1058 -2.4298 0.9620
8.6557 3.7112 -2.4384 0.9618
8.3024 4.4756 -2.4421 0.9618
7.1394 6.8196 -2.5563 0.9600
6.5068 7.4346 -2.5581 0.9600
1.7945 9.7080 -2.5562 0.9600
0.0365 8.9913 -2.5454 0.9633
-0.7334 8.5770 -2.4370 0.9648
-2.9654 8.0390 -2.4257 0.9650
-3.6642 7.7281 -2.4212 0.9651
-4.6921 6.5521 -2.2814 0.9671
-8.2112 7.9718 -3.2398 0.9535
-9.0777 7.3594 -3.3083 0.9526
-11.1533 6.1296 -3.6028 0.9485
-6.2782 0.3501 -1.7801 0.9742
-6.6671 -0.8243 -1.9018 0.9725
-6.8348 -1.4737 -1.9794 0.9714
-7.0184 -2.1843 -2.0808 0.9699
-6.9348 -4.4431 -2.3316 0.9663
-6.0236 -5.5950 -2.3273 0.9664
-3.8396 -7.6567 -2.4248 0.9650
-2.4187 -8.2219 -2.4262 0.9650
-1.6762 -8.4098 -2.4276 0.9650
0.6130 -8.5779 -2.4345 0.9649
3.5975 -7.8694 -2.4495 0.9647
4.7525 -6.8361 -2.3570 0.9660
5.3548 -6.3980 -2.3619 0.9659
6.4351 -5.3677 -2.3723 0.9658
6.9041 -4.7829 -2.3777 0.9657
7.3203 -4.1572 -2.3832 0.9656
7.6798 -3.4954 -2.3887 0.9655
8.3882 -1.3454 -2.4050 0.9653
8.5298 0.1679 -2.4152 0.9652
8.4976 0.9303 -2.4200 0.9651
8.2264 2.4348 -2.4287 0.9650
7.9890 3.1643 -2.4326 0.9649
7.3188 4.5463 -2.4391 0.9648
7.1897 5.4114 -2.5475 0.9633
6.1228 6.6137 -2.5514 0.9632
4.1555 8.0057 -2.5535 0.9632
3.4240 8.3434 -2.5531 0.9632
1.8845 8.8109 -2.5507 0.9632
1.0898 8.9370 -2.5487 0.9633
-0.4939 8.5976 -2.4379 0.9648
-2.0087 8.3491 -2.4310 0.9649
-3.4490 7.8320 -2.4226 0.9650
-4.6113 6.8346 -2.3340 0.9663
-10.7868 6.3267 -3.5402 0.9493
-12.3859 5.8475 -3.8775 0.9447
-6.3773 -0.0365 -1.8054 0.9738
-6.5198 -0.6218 -1.8541 0.9731
-7.1566 -2.7196 -2.1673 0.9687
-6.1789 -5.4259 -2.3279 0.9664
-4.0519 -7.5464 -2.4248 0.9650
-1.9100 -8.3580 -2.4271 0.9650
-1.1573 -8.5012 -2.4288 0.9650
0.3731 -8.5884 -2.4336 0.9649
1.1395 -8.5315 -2.4367 0.9649
2.6459 -8.2176 -2.4440 0.9647
3.3745 -7.9623 -2.4481 0.9647
4.0478 -7.5849 -2.4339 0.9649
4.5569 -6.9617 -2.3555 0.9660
5.1706 -6.5407 -2.3603 0.9659
6.2783 -5.5414 -2.3706 0.9658
6.7631 -4.9702 -2.3760 0.9657
7.1961 -4.3568 -2.3815 0.9656
8.1492 -2.3110 -2.3979 0.9654
8.4676 -0.8291 -2.4086 0.9652
8.5151 0.6922 -2.4185 0.9651
8.4354 1.4521 -2.4231 0.9650
8.2868 2.2030 -2.4274 0.9650
7.7874 3.6524 -2.4350 0.9649
7.4401 4.3385 -2.4382 0.9648
6.3038 6.4390 -2.5510 0.9632
5.0632 7.4636 -2.5532 0.9632
4.3775 7.8866 -2.5535 0.9632
2.1302 8.7566 -2.5512 0.9632
1.3393 8.9054 -2.5494 0.9633
0.5387 8.9812 -2.5471 0.9633
-1.7756 8.4060 -2.4322 0.9649
-2.5147 8.2008 -2.4283 0.9650
-7.6906 8.3495 -3.2136 0.9539
-5.1671 4.6905 -1.9756 0.9714
-9.4435 7.1452 -3.3524 0.9520
-10.4593 6.5337 -3.4912 0.9500
-5.6365 2.8561 -1.7888 0.9741
-6.3415 0.1408 -1.7957 0.9740
-6.9015 -1.7320 -2.0144 0.9709
-6.7793 -4.6711 -2.3306 0.9664
-6.3295 -5.2526 -2.3285 0.9664
-5.2882 -6.2861 -2.3255 0.9664
-4.1828 -7.2941 -2.3803 0.9656
-1.3939 -8.4635 -2.4282 0.9650
0.1331 -8.5924 -2.4327 0.9649
1.6627 -8.4536 -2.4390 0.9648
2.4142 -8.2841 -2.4427 0.9648
4.3580 -7.0818 -2.3540 0.9660
4.9827 -6.6781 -2.3588 0.9660
6.1169 -5.7106 -2.3690 0.9658
6.6170 -5.1535 -2.3743 0.9657
8.0757 -2.5358 -2.3962 0.9654
8.2885 -1.8091 -2.4017 0.9653
8.5149 -0.3082 -2.4121 0.9652
8.5259 0.4539 -2.4170 0.9651
8.4677 1.2153 -2.4217 0.9651
8.3406 1.9697 -2.4261 0.9650
8.1452 2.7107 -2.4302 0.9649
7.8828 3.4321 -2.4339 0.9649
7.5554 4.1275 -2.4372 0.9648
7.2334 4.8364 -2.4633 0.9645
7.0069 5.6513 -2.5484 0.9633
6.4798 6.2591 -2.5504 0.9632
5.8989 6.8165 -2.5520 0.9632
5.2692 7.3187 -2.5530 0.9632
4.5959 7.7612 -2.5535 0.9632
3.1422 8.4524 -2.5528 0.9632
2.3743 8.6953 -2.5517 0.9632
1.5878 8.8667 -2.5500 0.9632
-0.7813 8.5721 -2.4368 0.9648
-1.5410 8.4563 -2.4333 0.9649
-2.2859 8.2721 -2.4296 0.9650
-3.0099 8.0214 -2.4254 0.9650
-3.7069 7.7066 -2.4209 0.9651
-4.3713 7.3306 -2.4162 0.9651
-4.9212 5.6517 -2.1215 0.9693
-8.2627 7.9326 -3.2426 0.9535
-9.1385 7.3245 -3.3155 0.9525
-11.2334 6.0922 -3.6177 0.9483
-5.8725 1.9344 -1.7503 0.9746
-6.1397 0.8620 -1.7551 0.9746
-6.6772 -0.8634 -1.9060 0.9724
-7.0305 -2.2313 -2.0881 0.9698
-7.2372 -3.0315 -2.2213 0.9679
-7.2902 -3.8514 -2.3341 0.9663
-6.9094 -4.4814 -2.3314 0.9663
-6.4755 -5.0752 -2.3291 0.9664
-5.9919 -5.6283 -2.3272 0.9664
-4.8910 -6.5971 -2.3249 0.9664
-4.2818 -7.0058 -2.3244 0.9664
-3.0971 -7.9878 -2.4253 0.9650
-2.3728 -8.2355 -2.4263 0.9650
0.6610 -8.5750 -2.4347 0.9649
2.1809 -8.3442 -2.4415 0.9648
2.9216 -8.1294 -2.4455 0.9647
4.1589 -7.2013 -2.3542 0.9660
4.7912 -6.8103 -2.3573 0.9660
5.3912 -6.3688 -2.3622 0.9659
5.9509 -5.8751 -2.3673 0.9658
6.4659 -5.3325 -2.3726 0.9658
6.9317 -4.7449 -2.3780 0.9657
7.7003 -3.4529 -2.3890 0.9655
7.9961 -2.7584 -2.3945 0.9654
8.4974 -0.5454 -2.4105 0.9652
8.3877 1.7351 -2.4248 0.9650
7.1598 5.4519 -2.5476 0.9633
6.0860 6.6481 -2.5515 0.9632
5.4709 7.1680 -2.5527 0.9632
4.8106 7.6296 -2.5534 0.9632
4.1107 8.0288 -2.5535 0.9632
1.0398 8.9424 -2.5486 0.9633
-0.5418 8.5940 -2.4377 0.9648
-1.3049 8.4999 -2.4345 0.9649
-2.0551 8.3369 -2.4308 0.9649
-4.1675 7.4545 -2.4177 0.9651
-8.0042 8.1259 -3.2290 0.9537
-5.4140 3.8181 -1.8755 0.9728
-6.6271 -0.6694 -1.8856 0.9727
-7.1698 -2.7706 -2.1760 0.9686
-7.3962 -3.6470 -2.3345 0.9663
-5.0738 -6.4587 -2.3251 0.9664
-4.4759 -6.8838 -2.3245 0.9664
-3.3186 -7.8976 -2.4251 0.9650
-2.6014 -8.1649 -2.4259 0.9650
-1.8634 -8.3689 -2.4272 0.9650
-1.1099 -8.5079 -2.4289 0.9650
0.4211 -8.5868 -2.4338 0.9649
1.1872 -8.5258 -2.4369 0.9648
3.4193 -7.9442 -2.4484 0.9647
4.0654 -7.5164 -2.4191 0.9651
6.7917 -4.9331 -2.3763 0.9657
7.9103 -2.9784 -2.3928 0.9655
8.3514 -1.5316 -2.4037 0.9653
8.5122 0.7399 -2.4188 0.9651
8.2753 2.2495 -2.4277 0.9650
7.3070 5.2482 -2.5468 0.9633
6.8158 5.8848 -2.5492 0.9633
5.6682 7.0116 -2.5524 0.9632
5.0215 7.4919 -2.5532 0.9632
4.3334 7.9110 -2.5535 0.9632
2.0812 8.7680 -2.5511 0.9632
1.2894 8.9123 -2.5493 0.9633
-0.3029 8.6397 -2.4473 0.9647
-1.0675 8.5368 -2.4355 0.9649
-1.8224 8.3952 -2.4320 0.9649
-2.5602 8.1858 -2.4280 0.9650
-3.2747 7.9107 -2.4238 0.9650
-8.5808 7.7025 -3.2643 0.9532
-9.5047 7.1084 -3.3600 0.9519
-10.5245 6.4931 -3.5008 0.9499
-6.9330 -0.5052 -1.9679 0.9715
-6.9129 -1.7759 -2.0205 0.9708
-7.1050 -2.5199 -2.1341 0.9691
-7.3219 -3.3596 -2.2806 0.9671
-6.2998 -5.2876 -2.3284 0.9664
-5.7986 -5.8244 -2.3267 0.9664
-4.6667 -6.7566 -2.3246 0.9664
-4.2194 -7.4541 -2.4248 0.9650
-2.0959 -8.3121 -2.4267 0.9650
-1.3467 -8.4715 -2.4283 0.9650
0.1811 -8.5922 -2.4329 0.9649
0.9483 -8.5521 -2.4359 0.9649
1.7101 -8.4449 -2.4392 0.9648
3.1944 -8.0322 -2.4471 0.9647
5.0206 -6.6511 -2.3591 0.9660
6.6466 -5.1171 -2.3746 0.9657
7.4847 -3.8718 -2.3856 0.9656
8.0909 -2.4910 -2.3966 0.9654
8.2996 -1.7630 -2.4020 0.9653
8.5176 -0.2606 -2.4124 0.9652
8.1308 2.7564 -2.4304 0.9649
7.8643 3.4763 -2.4341 0.9649
5.8610 6.8496 -2.5520 0.9632
1.5382 8.8751 -2.5499 0.9632
0.7393 8.9691 -2.5477 0.9633
-0.0627 8.8085 -2.4937 0.9640
-0.8291 8.5669 -2.4366 0.9649
-1.5880 8.4468 -2.4331 0.9649
-2.3318 8.2584 -2.4293 0.9650
-3.0543 8.0036 -2.4251 0.9650
-3.7494 7.6848 -2.4207 0.9651
-9.1993 7.2893 -3.3227 0.9524
-14.1963 6.0354 -4.3670 0.9379
-5.8846 1.9021 -1.7507 0.9746
-6.8568 -1.5588 -1.9906 0.9712
-7.2510 -3.0850 -2.2308 0.9678
-6.4467 -5.1110 -2.3290 0.9664
-5.9601 -5.6614 -2.3271 0.9664
-5.4279 -6.1671 -2.3258 0.9664
-4.8539 -6.6242 -2.3248 0.9664
-4.2426 -7.0295 -2.3244 0.9664
-3.0525 -8.0052 -2.4254 0.9650
-2.3268 -8.2489 -2.4263 0.9650
-1.5823 -8.4287 -2.4278 0.9650
-0.8245 -8.5430 -2.4297 0.9649
0.7089 -8.5718 -2.4349 0.9649
1.4729 -8.4856 -2.4381 0.9648
2.9673 -8.1138 -2.4457 0.9647
3.6860 -7.8306 -2.4501 0.9647
4.1967 -7.1738 -2.3528 0.9660
5.4274 -6.3395 -2.3625 0.9659
6.9591 -4.7068 -2.3784 0.9657
7.3684 -4.0763 -2.3839 0.9656
7.7206 -3.4104 -2.3894 0.9655
8.0125 -2.7140 -2.3949 0.9654
8.4050 -1.2520 -2.4056 0.9653
8.5296 0.2632 -2.4158 0.9651
7.9546 3.2539 -2.4330 0.9649
7.6432 3.9564 -2.4364 0.9649
5.4309 7.1986 -2.5528 0.9632
4.0658 8.0516 -2.5535 0.9632
3.3305 8.3808 -2.5530 0.9632
2.5683 8.6412 -2.5520 0.9632
1.7858 8.8307 -2.5505 0.9632
0.1871 8.9913 -2.5459 0.9633
-3.5355 7.7912 -2.4221 0.9651
-4.2085 7.4302 -2.4174 0.9651
-6.2518 9.0464 -3.1130 0.9553
-7.1928 8.6430 -3.1832 0.9543
-8.8957 7.4624 -3.2871 0.9529
-10.9254 6.2450 -3.5625 0.9490
-7.1830 -2.8219 -2.1848 0.9684
-5.0375 -6.4868 -2.3251 0.9664
-4.4374 -6.9087 -2.3245 0.9664
-3.9673 -7.5912 -2.4248 0.9650
-3.2745 -7.9161 -2.4252 0.9650
-2.5559 -8.1796 -2.4260 0.9650
-1.8167 -8.3795 -2.4273 0.9650
-0.2986 -8.5831 -2.4313 0.9649
0.4691 -8.5850 -2.4340 0.9649
2.7381 -8.1892 -2.4445 0.9647
4.0827 -7.4487 -2.4047 0.9653
4.6355 -6.9121 -2.3561 0.9660
7.2464 -4.2774 -2.3821 0.9656
7.6168 -3.6220 -2.3877 0.9655
7.9279 -2.9346 -2.3932 0.9655
8.4786 -0.7347 -2.4092 0.9652
8.5282 0.0249 -2.4143 0.9652
8.5089 0.7875 -2.4191 0.9651
8.4206 1.5466 -2.4237 0.9650
8.2635 2.2960 -2.4279 0.9650
7.2780 5.2893 -2.5470 0.9633
6.7832 5.9231 -2.5493 0.9633
4.2891 7.9350 -2.5535 0.9632
-1.8691 8.3840 -2.4317 0.9649
-3.3185 7.8914 -2.4235 0.9650
-4.0019 7.5494 -2.4189 0.9651
-5.0013 5.3096 -2.0649 0.9701
-5.2016 4.6170 -1.9689 0.9715
-9.5660 7.0713 -3.3676 0.9517
-12.0253 5.9256 -3.7951 0.9458
-6.8165 -0.5350 -1.9356 0.9720
-6.9243 -1.8201 -2.0268 0.9707
-7.1178 -2.5692 -2.1422 0.9690
-7.1303 -4.1312 -2.3329 0.9663
-5.7657 -5.8565 -2.3266 0.9664
-5.2173 -6.3444 -2.3254 0.9664
-3.4940 -7.8211 -2.4250 0.9650
-2.7829 -8.1040 -2.4257 0.9650
-1.2994 -8.4793 -2.4285 0.9650
-0.5380 -8.5688 -2.4305 0.9649
0.2291 -8.5916 -2.4331 0.9649
3.2395 -8.0151 -2.4473 0.9647
5.0583 -6.6238 -2.3594 0.9659
6.1820 -5.6435 -2.3696 0.9658
6.6760 -5.0807 -2.3750 0.9657
7.5073 -3.8305 -2.3859 0.9656
8.1059 -2.4462 -2.3969 0.9654
8.5201 -0.2131 -2.4127 0.9652
8.5224 0.5492 -2.4176 0.9651
8.3199 2.0632 -2.4266 0.9650
7.5100 4.2123 -2.4376 0.9648
7.2612 4.9732 -2.4915 0.9641
6.4100 6.3316 -2.5506 0.9632
2.2769 8.7206 -2.5515 0.9632
1.4885 8.8831 -2.5498 0.9632
0.6892 8.9726 -2.5476 0.9633
-0.1100 8.6590 -2.4515 0.9646
-0.8768 8.5614 -2.4363 0.9649
-2.3777 8.2444 -2.4291 0.9650
-2.0197 3.3027 -1.0959 0.9840
-6.6005 8.8982 -3.1364 0.9550
-7.5324 8.4579 -3.2062 0.9540
-11.4512 6.0458 -3.6659 0.9476
-15.3027 6.4051 -4.6963 0.9334
-6.0265 1.3330 -1.7473 0.9747
-6.6976 -0.9422 -1.9147 0.9723
-5.9282 -5.6944 -2.3270 0.9664
-4.8168 -6.6511 -2.3248 0.9664
-3.0078 -8.0222 -2.4254 0.9650
-2.2808 -8.2621 -2.4264 0.9650
-1.5353 -8.4378 -2.4279 0.9650
-0.7768 -8.5480 -2.4298 0.9649
0.7568 -8.5684 -2.4351 0.9649
1.5205 -8.4779 -2.4383 0.9648
3.0128 -8.0980 -2.4460 0.9647
3.7301 -7.8107 -2.4504 0.9647
4.8683 -6.7581 -2.3579 0.9660
6.9863 -4.6686 -2.3787 0.9657
7.3921 -4.0357 -2.3842 0.9656
7.7406 -3.3677 -2.3897 0.9655
8.0287 -2.6696 -2.3952 0.9654
8.2536 -1.9469 -2.4006 0.9654
8.5052 -0.4506 -2.4111 0.9652
8.5291 0.3109 -2.4161 0.9651
8.4839 1.0729 -2.4209 0.9651
8.1870 2.5731 -2.4295 0.9650
7.6217 3.9993 -2.4366 0.9649
7.2432 4.6692 -2.4396 0.9648
7.0993 5.5321 -2.5479 0.9633
6.0117 6.7161 -2.5517 0.9632
4.7252 7.6829 -2.5534 0.9632
2.5199 8.6551 -2.5519 0.9632
1.7364 8.8401 -2.5504 0.9632
-1.3994 8.4833 -2.4340 0.9649
-2.1477 8.3118 -2.4303 0.9649
-2.8760 8.0734 -2.4262 0.9650
-3.5785 7.7704 -2.4218 0.9651
-4.2494 7.4056 -2.4171 0.9651
-7.2521 8.6160 -3.1881 0.9543
-8.1079 8.0494 -3.2343 0.9536
-8.9563 7.4284 -3.2941 0.9528
-10.9962 6.2043 -3.5743 0.9489
-13.0782 5.9085 -4.0627 0.9421
-6.6470 -0.7465 -1.8936 0.9726
-7.3555 -3.7296 -2.3347 0.9663
-3.9249 -7.6133 -2.4248 0.9650
-3.2303 -7.9344 -2.4252 0.9650
-2.5102 -8.1939 -2.4260 0.9650
-1.7699 -8.3898 -2.4274 0.9650
0.5171 -8.5829 -2.4342 0.9649
2.7841 -8.1747 -2.4447 0.9647
3.5086 -7.9073 -2.4490 0.9647
4.1016 -7.3850 -2.3914 0.9655
4.6747 -6.8870 -2.3564 0.9660
5.2816 -6.4557 -2.3613 0.9659
5.8492 -5.9715 -2.3664 0.9658
7.9453 -2.8906 -2.3935 0.9655
8.3703 -1.4387 -2.4043 0.9653
8.4837 -0.6875 -2.4095 0.9652
8.0223 3.0743 -2.4321 0.9649
7.7271 3.7834 -2.4356 0.9649
7.3681 4.4636 -2.4387 0.9648
6.7504 5.9612 -2.5495 0.9633
4.2447 7.9589 -2.5535 0.9632
3.5170 8.3049 -2.5532 0.9632
2.7610 8.5827 -2.5523 0.9632
1.9829 8.7900 -2.5509 0.9632
1.1897 8.9252 -2.5490 0.9633
0.3881 8.9873 -2.5466 0.9633
-0.3978 8.6039 -2.4383 0.9648
-1.1626 8.5228 -2.4351 0.9649
-1.9157 8.3727 -2.4315 0.9649
-2.6509 8.1549 -2.4275 0.9650
-3.3621 7.8719 -2.4232 0.9650
-4.0435 7.5260 -2.4186 0.9651
-6.0451 9.1793 -3.1115 0.9553
-6.9558 8.7485 -3.1641 0.9546
-7.8478 8.2389 -3.2211 0.9538
-10.6555 6.4106 -3.5203 0.9496
-12.1440 5.9001 -3.8222 0.9454
-6.7038 -0.5639 -1.9045 0.9724
-7.1306 -2.6190 -2.1505 0.9689
-7.3512 -3.4730 -2.3016 0.9668
-7.1066 -4.1707 -2.3327 0.9663
-6.6989 -4.7831 -2.3302 0.9664
-6.2397 -5.3571 -2.3281 0.9664
-5.7327 -5.8884 -2.3265 0.9664
-5.1817 -6.3733 -2.3253 0.9664
-4.1359 -7.5007 -2.4248 0.9650
-3.4503 -7.8406 -2.4250 0.9650
-2.0031 -8.3355 -2.4269 0.9650
1.8046 -8.4268 -2.4397 0.9648
2.5534 -8.2450 -2.4435 0.9648
4.4777 -7.0104 -2.3549 0.9660
6.2143 -5.6096 -2.3700 0.9658
7.1449 -4.4357 -2.3808 0.9656
7.8559 -3.1092 -2.3918 0.9655
8.3211 -1.6707 -2.4027 0.9653
8.5222 -0.1655 -2.4130 0.9652
8.5202 0.5969 -2.4179 0.9651
8.1011 2.8477 -2.4309 0.9649
7.8264 3.5646 -2.4346 0.9649
7.4870 4.2545 -2.4378 0.9648
7.2797 5.0458 -2.5075 0.9638
6.9123 5.7689 -2.5488 0.9633
6.3749 6.3676 -2.5507 0.9632
5.7845 6.9150 -2.5522 0.9632
5.1461 7.4063 -2.5531 0.9632
3.7479 8.2039 -2.5533 0.9632
2.9999 8.5033 -2.5527 0.9632
2.2280 8.7329 -2.5514 0.9632
1.4388 8.8908 -2.5497 0.9633
0.6391 8.9758 -2.5474 0.9633
-1.6820 8.4269 -2.4327 0.9649
-3.8341 7.6406 -2.4201 0.9651
-2.0340 3.2847 -1.0937 0.9841
-7.5852 8.4220 -3.2087 0.9540
-8.4214 7.8182 -3.2530 0.9534
-9.3212 7.2179 -3.3374 0.9522
-10.3291 6.6139 -3.4722 0.9503
-6.7078 -0.9819 -1.9192 0.9722
-6.8790 -1.6448 -2.0023 0.9710
-7.2230 -3.9721 -2.3336 0.9663
-6.3885 -5.1821 -2.3287 0.9664
-5.8961 -5.7272 -2.3269 0.9664
-5.3583 -6.2270 -2.3256 0.9664
-4.1638 -7.0764 -2.3243 0.9664
-3.6677 -7.7408 -2.4249 0.9650
-2.9630 -8.0391 -2.4255 0.9650
0.0371 -8.5922 -2.4324 0.9649
0.8047 -8.5647 -2.4353 0.9649
1.5679 -8.4701 -2.4386 0.9648
2.3210 -8.3089 -2.4422 0.9648
4.2776 -7.1283 -2.3534 0.9660
4.9065 -6.7316 -2.3582 0.9660
5.4993 -6.2801 -2.3632 0.9659
5.0734 -4.8436 -1.9857 0.9713
7.0133 -4.6302 -2.3791 0.9657
7.4156 -3.9950 -2.3845 0.9656
8.4207 -1.1584 -2.4063 0.9653
8.5283 0.3586 -2.4164 0.9651
8.1733 2.6191 -2.4297 0.9649
7.9192 3.3432 -2.4335 0.9649
7.0687 5.5721 -2.5481 0.9633
5.9743 6.7497 -2.5518 0.9632
3.9756 8.0964 -2.5535 0.9632
2.4714 8.6688 -2.5519 0.9632
1.6869 8.8493 -2.5503 0.9632
0.0867 8.9916 -2.5456 0.9633
-2.9207 8.0563 -2.4259 0.9650
-3.6214 7.7494 -2.4215 0.9651
-4.6763 6.6076 -2.2916 0.9669
-8.1596 8.0107 -3.2371 0.9536
-9.0169 7.3941 -3.3011 0.9527
-6.6571 -0.7853 -1.8976 0.9725
-6.9599 -4.4046 -2.3317 0.9663
-6.5325 -5.0031 -2.3294 0.9664
-6.0550 -5.5615 -2.3274 0.9664
-4.9645 -6.5424 -2.3250 0.9664
-0.2027 -8.5870 -2.4316 0.9649
2.8300 -8.1599 -2.4450 0.9647
3.5531 -7.8885 -2.4492 0.9647
5.8833 -5.9395 -2.3667 0.9658
6.4041 -5.4028 -2.3720 0.9658
6.8763 -4.8207 -2.3774 0.9657
7.6590 -3.5378 -2.3883 0.9655
7.9625 -2.8467 -2.3938 0.9655
8.2034 -2.1296 -2.3993 0.9654
8.4885 -0.6401 -2.4099 0.9652
8.5296 0.1202 -2.4149 0.9652
8.5017 0.8826 -2.4197 0.9651
8.2390 2.3886 -2.4285 0.9650
8.0058 3.1193 -2.4323 0.9649
7.2194 5.3709 -2.5473 0.9633
6.1594 6.5792 -2.5514 0.9632
4.8955 7.5752 -2.5533 0.9632
4.2002 7.9824 -2.5535 0.9632
3.4706 8.3243 -2.5531 0.9632
2.7129 8.5977 -2.5523 0.9632
1.9337 8.8006 -2.5508 0.9632
1.1398 8.9312 -2.5489 0.9633
0.3378 8.9887 -2.5464 0.9633
-0.4458 8.6008 -2.4381 0.9648
-1.2100 8.5154 -2.4349 0.9649
-3.4056 7.8520 -2.4229 0.9650
-4.0849 7.5024 -2.4183 0.9651
-7.0151 8.7226 -3.1688 0.9545
-5.2103 4.5217 -1.9530 0.9717
-5.5272 3.2834 -1.8200 0.9736
-6.3718 -0.0008 -1.8038 0.9739
-6.9474 -1.9094 -2.0397 0.9705
-7.1436 -2.6691 -2.1588 0.9688
-7.0827 -4.2100 -2.3325 0.9663
-6.2094 -5.3915 -2.3280 0.9664
-5.1459 -6.4019 -2.3252 0.9664
-1.9566 -8.3469 -2.4270 0.9650
-1.2048 -8.4941 -2.4287 0.9650
0.3251 -8.5897 -2.4334 0.9649
1.8518 -8.4174 -2.4399 0.9648
4.0301 -7.6542 -2.4488 0.9647
4.5174 -6.9861 -2.3552 0.9660
5.7113 -6.0973 -2.3651 0.9659
6.2464 -5.5756 -2.3703 0.9658
6.7343 -5.0072 -2.3757 0.9657
7.1706 -4.3964 -2.3811 0.9656
7.8742 -3.0657 -2.3921 0.9655
8.1350 -2.3561 -2.3976 0.9654
8.3315 -1.6244 -2.4030 0.9653
8.5241 -0.1179 -2.4133 0.9652
8.4424 1.4048 -2.4228 0.9650
8.2981 2.1564 -2.4272 0.9650
8.0858 2.8932 -2.4312 0.9649
7.4637 4.2965 -2.4380 0.9648
6.8804 5.8077 -2.5489 0.9633
5.7459 6.9474 -2.5523 0.9632
5.1048 7.4351 -2.5532 0.9632
2.1792 8.7449 -2.5513 0.9632
1.3891 8.8982 -2.5495 0.9633
0.5889 8.9787 -2.5473 0.9633
-1.7288 8.4166 -2.4324 0.9649
-3.1869 7.9486 -2.4243 0.9650
-2.0574 3.2813 -1.0964 0.9840
-6.7189 8.8494 -3.1455 0.9549
-7.6380 8.3859 -3.2111 0.9539
-9.3823 7.1817 -3.3449 0.9521
-6.8902 -1.6883 -2.0083 0.9709
-6.8057 -4.6335 -2.3308 0.9664
-6.3591 -5.2174 -2.3286 0.9664
-4.7420 -6.7043 -2.3247 0.9664
-3.6245 -7.7612 -2.4249 0.9650
-1.4411 -8.4552 -2.4281 0.9650
-0.6814 -8.5571 -2.4301 0.9649
0.8526 -8.5607 -2.4355 0.9649
3.1037 -8.0656 -2.4465 0.9647
3.8180 -7.7704 -2.4509 0.9646
4.3179 -7.1051 -2.3537 0.9660
4.9447 -6.7050 -2.3585 0.9660
6.5871 -5.1896 -2.3740 0.9657
7.4388 -3.9541 -2.3849 0.9656
8.4282 -1.1115 -2.4066 0.9653
8.5272 0.4062 -2.4167 0.9651
8.4734 1.1679 -2.4214 0.9651
8.1594 2.6649 -2.4300 0.9649
7.9012 3.3877 -2.4337 0.9649
7.2197 4.7691 -2.4495 0.9647
6.5144 6.2225 -2.5503 0.9632
5.9367 6.7833 -2.5519 0.9632
3.9303 8.1185 -2.5534 0.9632
1.6374 8.8581 -2.5502 0.9632
0.8396 8.9614 -2.5480 0.9633
-0.6739 7.8804 -2.4327 0.9674
-2.7255 7.3888 -2.4223 0.9676
-3.3684 7.1041 -2.4183 0.9676
-3.9818 6.7630 -2.4139 0.9677
-7.7026 7.4779 -3.3020 0.9561
-8.5704 6.9482 -3.3935 0.9549
-5.5826 3.0681 -1.9593 0.9737
-6.6674 -0.8243 -2.0664 0.9723
-6.8352 -1.4738 -2.1507 0.9712
-7.0187 -2.1845 -2.2609 0.9697
-6.3940 -4.0966 -2.3357 0.9687
-5.5546 -5.1594 -2.3318 0.9688
-5.0691 -5.6313 -2.3305 0.9688
-4.5446 -6.0588 -2.3295 0.9688
-3.5411 -7.0613 -2.4297 0.9675
-2.8972 -7.3504 -2.4301 0.9675
-1.5458 -7.7552 -2.4322 0.9674
-0.1427 -7.9190 -2.4361 0.9674
0.5652 -7.9084 -2.4387 0.9674
1.2702 -7.8359 -2.4416 0.9673
1.9671 -7.7016 -2.4449 0.9673
2.6505 -7.5065 -2.4485 0.9672
5.4493 -5.4402 -2.3684 0.9683
5.9252 -4.9424 -2.3732 0.9682
6.3559 -4.4031 -2.3782 0.9682
6.7378 -3.8264 -2.3833 0.9681
7.3417 -2.5786 -2.3934 0.9680
7.5583 -1.9171 -2.3984 0.9679
7.7151 -1.2375 -2.4033 0.9678
7.8118 0.8552 -2.4171 0.9676
7.7176 1.5516 -2.4213 0.9676
7.5603 2.2377 -2.4251 0.9675
7.0616 3.5559 -2.4318 0.9675
7.0150 4.3576 -2.5401 0.9660
6.6047 4.9711 -2.5426 0.9660
5.6238 6.0748 -2.5462 0.9659
1.0011 8.2095 -2.5438 0.9660
0.2642 8.2587 -2.5415 0.9660
-0.4537 7.8990 -2.4336 0.9674
-1.1554 7.8174 -2.4306 0.9675
-1.8459 7.6725 -2.4272 0.9675
-2.5194 7.4658 -2.4236 0.9676
-8.2879 7.1117 -3.3590 0.9553
-11.5734 5.4639 -3.9365 0.9478
-6.3776 -0.0365 -1.9616 0.9737
-6.5201 -0.6218 -2.0145 0.9730
-6.7813 -1.2651 -2.1218 0.9715
-6.9593 -1.9546 -2.2234 0.9702
-6.8394 -3.3251 -2.3391 0.9687
-6.5080 -3.9178 -2.3364 0.9687
-5.2252 -5.4885 -2.3308 0.9688
-4.1633 -6.3254 -2.3292 0.9688
-2.4410 -7.5161 -2.4306 0.9675
-1.7614 -7.7076 -2.4318 0.9675
-1.0672 -7.8391 -2.4334 0.9674
1.7505 -7.7502 -2.4438 0.9673
3.7586 -7.0429 -2.4554 0.9671
4.3056 -6.5777 -2.4180 0.9676
4.7628 -6.0248 -2.3622 0.9684
7.4970 -2.1260 -2.3968 0.9679
7.7538 1.3348 -2.4200 0.9676
7.6162 2.0247 -2.4239 0.9676
7.4162 2.7004 -2.4276 0.9675
7.0388 4.1045 -2.5062 0.9665
6.2906 5.3704 -2.5440 0.9660
5.7902 5.9144 -2.5458 0.9660
5.2419 6.4107 -2.5471 0.9659
4.6504 6.8550 -2.5478 0.9659
1.9566 8.0431 -2.5460 0.9660
0.4948 8.2505 -2.5422 0.9660
-1.6317 7.7245 -2.4283 0.9675
-2.0802 3.2770 -1.1939 0.9839
-4.7681 6.2077 -2.4076 0.9678
-8.9091 6.7409 -3.4363 0.9543
-11.0435 5.5960 -3.8079 0.9495
-6.9322 -3.1340 -2.3400 0.9687
-5.8366 -4.8435 -2.3328 0.9688
-5.3774 -5.3414 -2.3312 0.9688
-4.8768 -5.7970 -2.3301 0.9688
-3.9297 -6.8526 -2.4297 0.9675
-3.3026 -7.1763 -2.4298 0.9675
-1.9755 -7.6541 -2.4314 0.9675
-1.2854 -7.8045 -2.4328 0.9674
-0.5842 -7.8942 -2.4347 0.9674
0.1227 -7.9223 -2.4370 0.9674
4.5900 -6.1518 -2.3608 0.9684
5.1306 -5.7288 -2.3654 0.9683
5.6328 -5.2586 -2.3702 0.9683
6.0922 -4.7448 -2.3751 0.9682
7.1769 -2.9805 -2.3902 0.9680
7.4299 -2.3330 -2.3953 0.9679
7.6242 -1.6641 -2.4003 0.9679
7.7580 -0.9790 -2.4051 0.9678
7.8386 0.4173 -2.4144 0.9677
7.7839 1.1172 -2.4187 0.9676
7.4853 2.4911 -2.4265 0.9675
6.8678 4.5920 -2.5411 0.9660
6.4365 5.1913 -2.5434 0.9660
5.9520 5.7493 -2.5453 0.9660
5.4181 6.2610 -2.5467 0.9659
3.5681 7.4764 -2.5480 0.9659
1.4585 8.1446 -2.5449 0.9660
-0.0126 8.2598 -2.5405 0.9660
-2.1008 7.6021 -2.4259 0.9675
-4.5957 6.3423 -2.4091 0.9678
-7.7505 7.4408 -3.3047 0.9560
-5.2839 4.2351 -2.0828 0.9721
-10.5674 5.7310 -3.6975 0.9509
-6.1399 0.8620 -1.9070 0.9744
-6.8461 -1.5162 -2.1567 0.9711
-7.0308 -2.2314 -2.2688 0.9696
-6.7211 -3.5508 -2.3380 0.9687
-6.3706 -4.1320 -2.3355 0.9687
-5.9710 -4.6798 -2.3334 0.9688
-5.0374 -5.6594 -2.3304 0.9688
-2.8562 -7.3666 -2.4301 0.9675
-2.1882 -7.5948 -2.4310 0.9675
-1.5025 -7.7640 -2.4323 0.9674
-0.0985 -7.9202 -2.4363 0.9674
2.0102 -7.6912 -2.4451 0.9673
2.6926 -7.4923 -2.4488 0.9672
4.4138 -6.2738 -2.3594 0.9684
4.9656 -5.8662 -2.3639 0.9683
5.9535 -4.9099 -2.3735 0.9682
6.7599 -3.7892 -2.3836 0.9681
7.3570 -2.5379 -2.3937 0.9680
7.5699 -1.8751 -2.3987 0.9679
7.7228 -1.1945 -2.4036 0.9678
7.8141 -0.5015 -2.4084 0.9678
7.8426 0.1982 -2.4130 0.9677
7.7096 1.5948 -2.4215 0.9676
7.5484 2.2801 -2.4253 0.9675
7.0422 3.5955 -2.4320 0.9675
6.1089 5.5796 -2.5448 0.9660
3.7755 7.3741 -2.5481 0.9659
2.4033 7.9238 -2.5468 0.9659
1.6856 8.1023 -2.5455 0.9660
0.9552 8.2145 -2.5436 0.9660
-1.8886 7.6614 -2.4270 0.9675
-2.5608 7.4509 -2.4233 0.9676
-3.8314 6.8534 -2.4150 0.9677
-4.4195 6.4721 -2.4105 0.9677
-6.6888 8.1292 -3.2380 0.9569
-7.5099 7.6241 -3.2916 0.9562
-8.3443 7.0796 -3.3658 0.9552
-5.4112 3.8161 -2.0366 0.9727
-5.5459 3.2113 -1.9711 0.9735
-11.6828 5.4360 -3.9633 0.9475
-6.3895 -0.0723 -1.9654 0.9736
-6.6275 -0.6694 -2.0488 0.9725
-7.1021 -2.7444 -2.3419 0.9686
-6.8202 -3.3630 -2.3389 0.9687
-5.6695 -5.0349 -2.3322 0.9688
-5.1943 -5.5174 -2.3307 0.9688
-2.3991 -7.5298 -2.4307 0.9675
-1.7184 -7.7176 -2.4319 0.9675
-0.3195 -7.9120 -2.4355 0.9674
0.3882 -7.9169 -2.4380 0.9674
1.0945 -7.8598 -2.4408 0.9673
2.4812 -7.5610 -2.4476 0.9672
3.1510 -7.3210 -2.4515 0.9672
4.7970 -5.9989 -2.3625 0.9684
5.3237 -5.5578 -2.3672 0.9683
6.2527 -4.5416 -2.3770 0.9682
6.9900 -3.3720 -2.3871 0.9680
7.2785 -2.7405 -2.3921 0.9680
7.5097 -2.0844 -2.3972 0.9679
7.6816 -1.4088 -2.4021 0.9678
7.8405 -0.0209 -2.4116 0.9677
7.8255 0.6802 -2.4160 0.9677
7.7471 1.3782 -2.4202 0.9676
7.6055 2.0674 -2.4242 0.9676
6.7125 4.8212 -2.5420 0.9660
6.2609 5.4057 -2.5442 0.9660
5.7573 5.9468 -2.5459 0.9660
4.6121 6.8810 -2.5479 0.9659
3.3154 7.5913 -2.5479 0.9659
1.9116 8.0536 -2.5459 0.9660
0.4487 8.2527 -2.5421 0.9660
-0.2799 7.9847 -2.4574 0.9671
-0.9808 7.8438 -2.4314 0.9675
-1.6747 7.7146 -2.4281 0.9675
-2.3530 7.5232 -2.4245 0.9676
-3.6406 6.9617 -2.4164 0.9677
-4.2396 6.5968 -2.4119 0.9677
-4.9896 5.3567 -2.2517 0.9698
-8.0626 7.2373 -3.3324 0.9557
-8.9657 6.7053 -3.4436 0.9542
-11.1472 5.5705 -3.8329 0.9492
-6.7392 -1.1021 -2.1004 0.9718
-6.9132 -1.7760 -2.1954 0.9706
-7.1054 -2.5200 -2.3188 0.9689
-6.2263 -4.3416 -2.3347 0.9687
-5.3473 -5.3711 -2.3312 0.9688
-4.8442 -5.8240 -2.3300 0.9688
-3.8913 -6.8745 -2.4297 0.9675
-3.2625 -7.1947 -2.4298 0.9675
-2.6081 -7.4590 -2.4304 0.9675
-1.9328 -7.6653 -2.4315 0.9675
-1.2418 -7.8119 -2.4329 0.9674
-0.5402 -7.8978 -2.4348 0.9674
0.8743 -7.8843 -2.4399 0.9673
2.9439 -7.4023 -2.4502 0.9672
5.1632 -5.7007 -2.3657 0.9683
5.6628 -5.2278 -2.3705 0.9683
6.5292 -4.1552 -2.3804 0.9681
7.4438 -2.2918 -2.3956 0.9679
7.6344 -1.6217 -2.4006 0.9679
7.7644 -0.9358 -2.4054 0.9678
7.8370 0.4611 -2.4147 0.9677
7.6565 1.8533 -2.4230 0.9676
7.4720 2.5331 -2.4267 0.9675
6.8425 4.6305 -2.5412 0.9660
5.9200 5.7827 -2.5454 0.9660
5.3833 6.2913 -2.5468 0.9659
4.8020 6.7490 -2.5477 0.9659
3.5262 7.4962 -2.5480 0.9659
2.8425 7.7792 -2.5474 0.9659
2.1361 7.9985 -2.5464 0.9659
0.6792 8.2393 -2.5428 0.9660
-0.7617 7.8712 -2.4323 0.9674
-1.4592 7.7617 -2.4292 0.9675
-2.1430 7.5896 -2.4257 0.9675
-2.8073 7.3564 -2.4218 0.9676
-3.4468 7.0645 -2.4177 0.9676
-2.0054 3.3208 -1.1932 0.9839
-9.5964 6.2971 -3.5304 0.9531
-5.6007 2.9971 -1.9538 0.9738
-12.5848 5.3503 -4.2061 0.9444
-6.2986 0.2807 -1.9392 0.9740
-6.6877 -0.9028 -2.0756 0.9722
-6.3470 -4.1673 -2.3354 0.9687
-5.9445 -4.7128 -2.3333 0.9688
-5.0056 -5.6872 -2.3303 0.9688
-4.4764 -6.1090 -2.3295 0.9688
-4.0214 -6.6631 -2.3937 0.9680
-2.8151 -7.3825 -2.4302 0.9675
-2.1458 -7.6071 -2.4311 0.9675
-0.7602 -7.8775 -2.4342 0.9674
-0.0543 -7.9211 -2.4364 0.9674
4.0341 -6.8959 -2.4573 0.9671
5.0470 -4.9273 -2.1695 0.9709
5.9816 -4.8771 -2.3739 0.9682
6.4064 -4.3330 -2.3788 0.9682
6.7819 -3.7519 -2.3839 0.9681
7.1047 -3.1384 -2.3890 0.9680
7.3720 -2.4971 -2.3940 0.9680
7.7304 -1.1515 -2.4039 0.9678
7.8423 0.2420 -2.4133 0.9677
7.7013 1.6380 -2.4217 0.9676
7.5363 2.3224 -2.4256 0.9675
7.3095 2.9900 -2.4291 0.9675
6.5495 5.0451 -2.5429 0.9660
5.5560 6.1376 -2.5464 0.9659
4.9882 6.6117 -2.5475 0.9659
4.3792 7.0321 -2.5480 0.9659
3.7343 7.3950 -2.5481 0.9659
3.0589 7.6975 -2.5477 0.9659
1.6403 8.1113 -2.5454 0.9660
0.9092 8.2193 -2.5435 0.9660
0.1719 8.2601 -2.5412 0.9660
-3.2499 7.1619 -2.4190 0.9676
-3.8692 6.8311 -2.4147 0.9677
-6.7437 8.1034 -3.2426 0.9568
-7.5582 7.5880 -3.2942 0.9562
-8.4008 7.0472 -3.3727 0.9551
-10.2545 5.8615 -3.6330 0.9518
-11.7934 5.4076 -3.9906 0.9472
-5.9754 1.5334 -1.8975 0.9745
-6.6374 -0.7079 -2.0531 0.9725
-6.8026 -1.3479 -2.1330 0.9714
-7.0861 -2.7838 -2.3417 0.9686
-6.8008 -3.4008 -2.3387 0.9687
-5.1632 -5.5461 -2.3307 0.9688
-4.6457 -5.9822 -2.3297 0.9688
-4.0923 -6.3714 -2.3291 0.9688
1.1385 -7.8542 -2.4410 0.9673
2.5236 -7.5477 -2.4478 0.9672
3.8378 -7.0020 -2.4559 0.9671
4.8310 -5.9727 -2.3628 0.9684
5.3553 -5.5287 -2.3675 0.9683
7.0097 -3.3333 -2.3874 0.9680
7.2946 -2.7002 -2.3924 0.9680
7.5222 -2.0427 -2.3975 0.9679
7.6903 -1.3661 -2.4024 0.9678
7.8414 0.0229 -2.4119 0.9677
7.8224 0.7239 -2.4163 0.9677
7.7400 1.4216 -2.4205 0.9676
7.3869 2.7835 -2.4280 0.9675
7.0708 4.2296 -2.5342 0.9661
6.6859 4.8589 -2.5421 0.9660
6.2309 5.4408 -2.5443 0.9660
5.7242 5.9791 -2.5460 0.9660
5.1703 6.4691 -2.5472 0.9659
3.9394 7.2879 -2.5481 0.9659
3.2729 7.6096 -2.5479 0.9659
2.5800 7.8690 -2.5471 0.9659
1.1387 8.1927 -2.5441 0.9660
-1.0245 7.8376 -2.4312 0.9675
-1.7176 7.7044 -2.4279 0.9675
-2.3947 7.5092 -2.4243 0.9676
-3.0503 7.2537 -2.4203 0.9676
-5.0016 5.3098 -2.2436 0.9699
-8.1188 7.2063 -3.3390 0.9556
-9.9542 6.0647 -3.5852 0.9524
-11.2521 5.5446 -3.8583 0.9489
-6.8202 -0.5353 -2.1042 0.9718
-6.8957 -3.2108 -2.3396 0.9687
-6.5740 -3.8089 -2.3369 0.9687
-6.2016 -4.3760 -2.3346 0.9687
-5.7816 -4.9079 -2.3326 0.9688
-4.2689 -6.2550 -2.3292 0.9688
-3.8529 -6.8961 -2.4297 0.9675
-1.8901 -7.6762 -2.4315 0.9675
-1.1982 -7.8191 -2.4330 0.9674
-0.4961 -7.9011 -2.4350 0.9674
0.2112 -7.9215 -2.4373 0.9674
1.6200 -7.7764 -2.4432 0.9673
2.9855 -7.3865 -2.4505 0.9672
3.6388 -7.1025 -2.4546 0.9672
4.2606 -6.7533 -2.4560 0.9671
4.6595 -6.1016 -2.3614 0.9684
5.6926 -5.1968 -2.3708 0.9683
6.9093 -3.5254 -2.3858 0.9681
7.2116 -2.9009 -2.3909 0.9680
7.6443 -1.5793 -2.4009 0.9679
7.8352 0.5049 -2.4149 0.9677
7.6468 1.8963 -2.4232 0.9676
6.8169 4.6690 -2.5414 0.9660
4.7644 6.7758 -2.5477 0.9659
4.1413 7.1751 -2.5481 0.9659
3.4843 7.5157 -2.5480 0.9659
-0.1049 8.2580 -2.5402 0.9660
-0.8056 7.8662 -2.4321 0.9674
-2.1851 7.5768 -2.4254 0.9675
-2.8481 7.3399 -2.4216 0.9676
-3.4858 7.0444 -2.4175 0.9676
-2.0194 3.3022 -1.1906 0.9839
-4.9462 5.5539 -2.2875 0.9694
-7.8459 7.3658 -3.3101 0.9560
-5.6243 2.9694 -1.9562 0.9737
-12.8399 5.3743 -4.2813 0.9434
-6.3053 0.2458 -1.9408 0.9739
-6.6979 -0.9423 -2.0804 0.9721
-6.8682 -1.6018 -2.1692 0.9709
-7.0553 -2.3262 -2.2850 0.9694
-6.3233 -4.2024 -2.3352 0.9687
-4.4422 -6.1338 -2.3294 0.9688
-4.0440 -6.7859 -2.4297 0.9675
-2.7738 -7.3983 -2.4302 0.9675
-0.0100 -7.9217 -2.4366 0.9674
2.7767 -7.4633 -2.4493 0.9672
4.0730 -6.8741 -2.4576 0.9671
4.4847 -6.2256 -2.3599 0.9684
5.0498 -4.8753 -2.1590 0.9711
6.0095 -4.8443 -2.3742 0.9682
6.4313 -4.2977 -2.3792 0.9681
7.3868 -2.4562 -2.3943 0.9679
7.7376 -1.1085 -2.4042 0.9678
7.8211 -0.4144 -2.4090 0.9678
7.8417 0.2858 -2.4136 0.9677
7.0027 3.6745 -2.4324 0.9674
6.0467 5.6480 -2.5450 0.9660
5.5218 6.1688 -2.5465 0.9659
4.3399 7.0564 -2.5480 0.9659
3.6929 7.4157 -2.5481 0.9659
3.0158 7.7143 -2.5476 0.9659
1.5949 8.1200 -2.5453 0.9660
0.8633 8.2238 -2.5434 0.9660
-0.5859 7.8886 -2.4330 0.9674
-1.9737 7.6384 -2.4266 0.9675
-3.2895 7.1429 -2.4188 0.9676
-4.4904 6.4207 -2.4099 0.9677
-7.6065 7.5515 -3.2968 0.9561
-9.3631 6.4477 -3.4967 0.9535
-10.3255 5.8258 -3.6465 0.9516
-11.9053 5.3786 -4.0182 0.9468
-6.6474 -0.7465 -2.0574 0.9724
-6.9947 -2.0916 -2.2455 0.9699
-7.0699 -2.8231 -2.3415 0.9686
-6.7812 -3.4384 -2.3385 0.9687
-6.4402 -4.0254 -2.3360 0.9687
-6.0495 -4.5798 -2.3338 0.9687
-5.1320 -5.5747 -2.3306 0.9688
-4.6121 -6.0079 -2.3296 0.9688
-3.6197 -7.0213 -2.4297 0.9675
-2.9791 -7.3173 -2.4300 0.9675
-1.6322 -7.7368 -2.4321 0.9675
0.4767 -7.9131 -2.4383 0.9674
1.1824 -7.8483 -2.4412 0.9673
1.8806 -7.7217 -2.4445 0.9673
4.3538 -6.4142 -2.3844 0.9681
5.3868 -5.4994 -2.3678 0.9683
5.8681 -5.0070 -2.3726 0.9682
7.0291 -3.2945 -2.3877 0.9680
7.3106 -2.6597 -2.3928 0.9680
7.5345 -2.0009 -2.3978 0.9679
7.8421 0.0667 -2.4121 0.9677
7.8192 0.7677 -2.4166 0.9677
7.3719 2.8250 -2.4282 0.9675
7.0998 3.4762 -2.4315 0.9675
6.6591 4.8964 -2.5423 0.9660
6.2007 5.4757 -2.5444 0.9660
4.5350 6.9322 -2.5479 0.9659
3.8986 7.3099 -2.5481 0.9659
3.2303 7.6277 -2.5478 0.9659
2.5359 7.8831 -2.5470 0.9659
1.8214 8.0739 -2.5458 0.9660
0.3565 8.2562 -2.5418 0.9660
-0.3655 7.9047 -2.4339 0.9674
-1.7604 7.6940 -2.4277 0.9675
-3.7174 6.9190 -2.4158 0.9677
-4.3119 6.5475 -2.4114 0.9677
-5.0193 5.2694 -2.2384 0.9700
-8.1751 7.1750 -3.3456 0.9555
-11.3580 5.5182 -3.8840 0.9485
-17.1023 6.4940 -5.6268 0.9263
-6.8771 -3.2490 -2.3394 0.9687
-5.7538 -4.9399 -2.3325 0.9688
-5.2865 -5.4302 -2.3310 0.9688
-4.2338 -6.2787 -2.3292 0.9688
-3.8143 -6.9175 -2.4297 0.9675
-3.1820 -7.2309 -2.4299 0.9675
-2.5247 -7.4880 -2.4305 0.9675
-1.1546 -7.8260 -2.4332 0.9674
-0.4519 -7.9042 -2.4351 0.9674
1.6635 -7.7679 -2.4434 0.9673
2.3535 -7.5993 -2.4469 0.9673
3.0270 -7.3705 -2.4507 0.9672
4.2757 -6.6942 -2.4431 0.9673
4.6941 -6.0762 -2.3616 0.9684
5.7223 -5.1655 -2.3711 0.9683
6.5769 -4.0830 -2.3810 0.9681
7.2287 -2.8609 -2.3912 0.9680
7.4708 -2.2091 -2.3962 0.9679
7.7762 -0.8492 -2.4060 0.9678
7.8363 -0.1521 -2.4107 0.9677
7.8331 0.5487 -2.4152 0.9677
7.7666 1.2478 -2.4195 0.9676
7.4446 2.6169 -2.4271 0.9675
7.1912 3.2753 -2.4305 0.9675
6.7912 4.7072 -2.5415 0.9660
5.3130 6.3514 -2.5469 0.9659
0.5871 8.2454 -2.5425 0.9660
-1.5456 7.7436 -2.4288 0.9675
-2.8887 7.3231 -2.4213 0.9676
-3.5247 7.0240 -2.4172 0.9676
-2.0334 3.2837 -1.1880 0.9840
-4.6996 6.2621 -2.4082 0.9678
-4.9585 5.5055 -2.2790 0.9695
-5.7536 2.3706 -1.9140 0.9743
-6.8794 -1.6449 -2.1756 0.9708
-7.0677 -2.3741 -2.2932 0.9693
-6.9679 -3.0569 -2.3403 0.9687
-5.4371 -5.2814 -2.3314 0.9688
-4.9415 -5.7425 -2.3302 0.9688
-4.4078 -6.1585 -2.3294 0.9688
-3.3825 -7.1389 -2.4298 0.9675
-2.0608 -7.6311 -2.4312 0.9675
0.0342 -7.9221 -2.4367 0.9674
0.7419 -7.8961 -2.4394 0.9674
1.4453 -7.8080 -2.4424 0.9673
2.1394 -7.6585 -2.4458 0.9673
2.8186 -7.4484 -2.4495 0.9672
3.4778 -7.1789 -2.4535 0.9672
4.5199 -6.2012 -2.3602 0.9684
5.0651 -5.7843 -2.3648 0.9683
5.0735 -4.8437 -2.1575 0.9711
6.4561 -4.2623 -2.3795 0.9681
6.8252 -3.6769 -2.3845 0.9681
7.1412 -3.0596 -2.3896 0.9680
7.7447 -1.0654 -2.4045 0.9678
7.8409 0.3297 -2.4138 0.9677
7.6841 1.7243 -2.4222 0.9676
7.5113 2.4069 -2.4260 0.9675
6.9826 3.7138 -2.4326 0.9674
6.4934 5.1185 -2.5431 0.9660
4.9142 6.6672 -2.5476 0.9659
4.3004 7.0806 -2.5481 0.9659
3.6514 7.4362 -2.5481 0.9659
2.2700 7.9623 -2.5466 0.9659
1.5495 8.1285 -2.5452 0.9660
0.0797 8.2604 -2.5409 0.9660
-1.3293 7.7871 -2.4298 0.9675
-3.3290 7.1236 -2.4185 0.9676
-3.9444 6.7859 -2.4142 0.9677
-10.4057 5.7946 -3.6634 0.9514
-6.6574 -0.7853 -2.0619 0.9723
-6.8243 -1.4316 -2.1447 0.9712
-7.0534 -2.8623 -2.3413 0.9686
-6.7614 -3.4760 -2.3384 0.9687
-6.4172 -4.0611 -2.3358 0.9687
-6.0236 -4.6133 -2.3337 0.9687
-5.5836 -5.1285 -2.3319 0.9688
-5.1006 -5.6031 -2.3305 0.9688
-4.0209 -6.4166 -2.3291 0.9688
-2.9382 -7.3340 -2.4301 0.9675
-2.2727 -7.5695 -2.4309 0.9675
-1.5890 -7.7461 -2.4321 0.9674
-0.1869 -7.9176 -2.4360 0.9674
0.5209 -7.9109 -2.4385 0.9674
1.9238 -7.7118 -2.4447 0.9673
3.2743 -7.2694 -2.4523 0.9672
4.8986 -5.9198 -2.3634 0.9684
7.3263 -2.6192 -2.3931 0.9680
7.7071 -1.2804 -2.4030 0.9678
7.8425 0.1105 -2.4124 0.9677
7.5720 2.1952 -2.4249 0.9675
7.3566 2.8664 -2.4284 0.9675
7.0809 3.5161 -2.4316 0.9675
7.0388 4.3180 -2.5399 0.9660
6.6320 4.9339 -2.5424 0.9660
6.1703 5.5106 -2.5445 0.9660
4.4963 6.9575 -2.5480 0.9659
2.4918 7.8969 -2.5470 0.9659
-0.4096 7.9020 -2.4337 0.9674
-1.8032 7.6834 -2.4275 0.9675
-4.3480 6.5226 -2.4111 0.9677
-8.2314 7.1435 -3.3523 0.9554
-5.3683 3.8763 -2.0366 0.9727
-5.5326 3.2866 -1.9793 0.9734
-6.9477 -1.9095 -2.2162 0.9703
-7.1336 -2.6654 -2.3423 0.9686
-6.8584 -3.2871 -2.3393 0.9687
-6.5302 -3.8816 -2.3366 0.9687
-6.1517 -4.4445 -2.3343 0.9687
-5.2560 -5.4594 -2.3309 0.9688
-4.1986 -6.3022 -2.3292 0.9688
-3.7756 -6.9387 -2.4297 0.9675
-3.1416 -7.2486 -2.4299 0.9675
-1.8043 -7.6974 -2.4317 0.9675
-1.1110 -7.8327 -2.4333 0.9674
1.7070 -7.7592 -2.4436 0.9673
3.0684 -7.3542 -2.4510 0.9672
6.6005 -4.0468 -2.3814 0.9681
6.9501 -3.4489 -2.3864 0.9681
7.4840 -2.1676 -2.3965 0.9679
7.6634 -1.4942 -2.4015 0.9679
7.7818 -0.8059 -2.4063 0.9678
7.8308 0.5926 -2.4155 0.9677
7.7603 1.2913 -2.4197 0.9676
7.4305 2.6587 -2.4274 0.9675
6.3202 5.3349 -2.5439 0.9660
4.6885 6.8288 -2.5478 0.9659
4.0609 7.2209 -2.5481 0.9659
2.0016 8.0323 -2.5461 0.9660
0.5410 8.2481 -2.5424 0.9660
-0.1971 8.2552 -2.5399 0.9660
-1.5886 7.7342 -2.4285 0.9675
-2.2692 7.5504 -2.4250 0.9675
-2.9293 7.3061 -2.4211 0.9676
-3.5634 7.0035 -2.4169 0.9676
-4.7339 6.2350 -2.4079 0.9678
-8.8525 6.7762 -3.4290 0.9544
-9.7750 6.1824 -3.5575 0.9527
-10.9403 5.6207 -3.7831 0.9498
-5.7623 2.3366 -1.9125 0.9743
-6.7184 -1.0218 -2.0902 0.9720
-6.9502 -3.0955 -2.3402 0.9687
-5.8638 -4.8111 -2.3329 0.9688
-5.4073 -5.3114 -2.3313 0.9688
-4.9092 -5.7698 -2.3301 0.9688
-4.3732 -6.1829 -2.3293 0.9688
-2.0182 -7.6427 -2.4313 0.9675
-0.6283 -7.8904 -2.4346 0.9674
0.7860 -7.8924 -2.4395 0.9674
1.4891 -7.8005 -2.4426 0.9673
2.1823 -7.6472 -2.4460 0.9673
4.1505 -6.8297 -2.4581 0.9671
4.5550 -6.1766 -2.3605 0.9684
5.0979 -5.7566 -2.3651 0.9683
5.1213 -4.8349 -2.1663 0.9710
6.4807 -4.2267 -2.3798 0.9681
6.8465 -3.6392 -2.3848 0.9681
7.1592 -3.0201 -2.3899 0.9680
7.4157 -2.3742 -2.3950 0.9679
7.6138 -1.7064 -2.4000 0.9679
7.7515 -1.0222 -2.4048 0.9678
7.7892 1.0736 -2.4184 0.9676
7.6752 1.7673 -2.4225 0.9676
7.2602 3.1128 -2.4297 0.9675
6.8929 4.5532 -2.5409 0.9660
5.4529 6.2304 -2.5466 0.9659
4.8770 6.6947 -2.5476 0.9659
3.6098 7.4564 -2.5481 0.9659
2.9294 7.7472 -2.5475 0.9659
-0.6226 7.2808 -2.4290 0.9697
-1.9023 7.0366 -2.4230 0.9697
-2.5190 6.8288 -2.4195 0.9698
-4.2169 5.8884 -2.4075 0.9699
-4.7169 5.4786 -2.4031 0.9700
-5.1772 5.0263 -2.3986 0.9700
-8.1074 6.5728 -3.4693 0.9570
-9.9311 5.4579 -3.7668 0.9534
-11.3513 4.9763 -4.1199 0.9491
-6.1316 0.8958 -2.0598 0.9742
-6.8355 -1.4739 -2.3244 0.9710
-6.7425 -2.0985 -2.3473 0.9707
-6.5200 -2.6884 -2.3443 0.9707
-6.2469 -3.2558 -2.3416 0.9707
-5.9255 -3.7964 -2.3392 0.9708
-5.1482 -4.7820 -2.3356 0.9708
-4.2124 -5.6160 -2.3336 0.9708
-3.2823 -6.5453 -2.4339 0.9696
-2.6855 -6.8131 -2.4343 0.9696
-0.7860 -7.2918 -2.4379 0.9696
0.5237 -7.3285 -2.4422 0.9695
1.1769 -7.2606 -2.4450 0.9695
1.8225 -7.1355 -2.4480 0.9694
3.0708 -6.7172 -2.4551 0.9693
3.6639 -6.4267 -2.4590 0.9693
4.2299 -6.0844 -2.4632 0.9692
5.4845 -4.5748 -2.3741 0.9703
6.5387 -2.9761 -2.3880 0.9702
6.7914 -2.3854 -2.3927 0.9701
7.2215 -0.5040 -2.4063 0.9699
7.2505 0.1427 -2.4106 0.9699
7.1329 1.4340 -2.4184 0.9698
6.9867 2.0679 -2.4220 0.9698
6.7834 2.6868 -2.4253 0.9697
6.8070 3.4277 -2.5334 0.9684
6.1013 4.5922 -2.5384 0.9683
4.6750 6.0548 -2.5428 0.9683
2.9047 7.0779 -2.5432 0.9683
1.5989 7.4756 -2.5411 0.9683
0.9247 7.5835 -2.5395 0.9683
-1.0676 7.2231 -2.4271 0.9697
-1.7058 7.0899 -2.4240 0.9697
-2.3284 6.8997 -2.4206 0.9698
-2.9304 6.6543 -2.4169 0.9698
-5.2211 4.4801 -2.2869 0.9714
-5.3784 3.8381 -2.1963 0.9725
-5.6816 2.6823 -2.0885 0.9739
-13.3428 4.8966 -4.7245 0.9418
-6.2346 0.5227 -2.0797 0.9740
-6.5204 -0.6219 -2.1773 0.9728
-6.7816 -1.2652 -2.2931 0.9713
-6.5951 -2.5062 -2.3452 0.9707
-6.0309 -3.6306 -2.3399 0.9708
-5.6778 -4.1506 -2.3378 0.9708
-5.2808 -4.6373 -2.3361 0.9708
-4.3680 -5.4967 -2.3338 0.9708
-3.8590 -5.8631 -2.3332 0.9708
-3.4637 -6.4510 -2.4339 0.9696
-2.8745 -6.7351 -2.4341 0.9696
-2.2626 -6.9666 -2.4348 0.9696
-1.6325 -7.1438 -2.4359 0.9696
1.6219 -7.1807 -2.4470 0.9694
2.8806 -6.7971 -2.4539 0.9694
4.0562 -6.1968 -2.4619 0.9693
4.5242 -5.7230 -2.4250 0.9697
5.3514 -4.7233 -2.3726 0.9704
6.7181 -2.5725 -2.3912 0.9701
7.0957 -1.3423 -2.4005 0.9700
7.2005 -0.7051 -2.4049 0.9700
7.2477 -0.0598 -2.4092 0.9699
7.1667 1.2337 -2.4173 0.9698
6.8530 2.4953 -2.4243 0.9697
6.8053 3.1918 -2.4986 0.9688
5.8109 4.9608 -2.5397 0.9683
5.3484 5.4630 -2.5413 0.9683
4.8418 5.9213 -2.5425 0.9683
4.2952 6.3315 -2.5432 0.9683
3.7134 6.6903 -2.5435 0.9683
-0.8658 7.2528 -2.4280 0.9697
-2.7448 6.7368 -2.4181 0.9698
-3.3297 6.4546 -2.4142 0.9698
-2.0797 3.2760 -1.2899 0.9838
-8.4238 6.3737 -3.5113 0.9564
-10.3840 5.2618 -3.8696 0.9521
-6.4802 -0.4359 -2.1589 0.9730
-6.7291 -1.0619 -2.2645 0.9717
-6.8551 -1.7203 -2.3493 0.9706
-6.6651 -2.3221 -2.3461 0.9707
-5.7930 -3.9915 -2.3385 0.9708
-5.4094 -4.4890 -2.3366 0.9708
-4.9840 -4.9507 -2.3351 0.9708
-4.0215 -5.7535 -2.3333 0.9708
-2.4560 -6.9000 -2.4345 0.9696
-1.8311 -7.0944 -2.4355 0.9696
2.0616 -7.0740 -2.4493 0.9694
2.6885 -6.8716 -2.4528 0.9694
4.7503 -5.3040 -2.3668 0.9704
5.6388 -4.3917 -2.3758 0.9703
6.0199 -3.8785 -2.3804 0.9703
6.3545 -3.3323 -2.3851 0.9702
7.2392 -0.2620 -2.4079 0.9699
7.2463 0.3858 -2.4121 0.9699
7.1948 1.0326 -2.4161 0.9698
7.0848 1.6731 -2.4198 0.9698
6.9171 2.3020 -2.4233 0.9697
5.9458 4.7955 -2.5391 0.9683
5.4979 5.3106 -2.5409 0.9683
5.0046 5.7831 -2.5422 0.9683
3.8987 6.5839 -2.5435 0.9683
3.2956 6.9054 -2.5434 0.9683
2.6656 7.1705 -2.5429 0.9683
1.3472 7.5233 -2.5406 0.9683
0.6700 7.6080 -2.5387 0.9683
-0.6632 7.2767 -2.4288 0.9697
-1.3084 7.1799 -2.4260 0.9697
-2.5568 6.8140 -2.4192 0.9698
-3.7154 6.2308 -2.4114 0.9699
-4.2492 5.8641 -2.4072 0.9699
-4.7469 5.4515 -2.4028 0.9700
-8.1601 6.5403 -3.4762 0.9569
-10.0055 5.4262 -3.7835 0.9532
-11.4543 4.9454 -4.1472 0.9488
-5.8730 1.9346 -2.0554 0.9743
-6.7302 -2.1359 -2.3471 0.9707
-6.5044 -2.7245 -2.3441 0.9707
-6.2282 -3.2904 -2.3414 0.9707
-5.1213 -4.8104 -2.3355 0.9708
-4.6691 -5.2456 -2.3343 0.9708
-4.1809 -5.6393 -2.3335 0.9708
-3.8185 -6.2478 -2.4340 0.9696
-2.0282 -7.0395 -2.4352 0.9696
-1.3926 -7.1960 -2.4364 0.9696
-0.7453 -7.2964 -2.4380 0.9696
1.2176 -7.2544 -2.4451 0.9695
1.8625 -7.1258 -2.4482 0.9694
4.2643 -6.0613 -2.4635 0.9692
5.0734 -5.0088 -2.3698 0.9704
5.5107 -4.5447 -2.3743 0.9703
6.2551 -3.5063 -2.3836 0.9702
6.5560 -2.9398 -2.3883 0.9702
6.8055 -2.3477 -2.3930 0.9701
7.0013 -1.7343 -2.3976 0.9701
7.1417 -1.1046 -2.4022 0.9700
7.2171 0.8309 -2.4149 0.9698
7.1254 1.4740 -2.4187 0.9698
6.7688 2.7248 -2.4255 0.9697
6.7882 3.4659 -2.5336 0.9684
6.0759 4.6265 -2.5385 0.9683
5.6429 5.1540 -2.5404 0.9683
4.6413 6.0810 -2.5428 0.9683
4.0809 6.4723 -2.5434 0.9683
3.4872 6.8109 -2.5435 0.9683
2.8650 7.0939 -2.5431 0.9683
2.2198 7.3190 -2.5423 0.9683
1.5570 7.4842 -2.5410 0.9683
0.2015 7.6303 -2.5372 0.9683
-1.7452 7.0797 -2.4238 0.9697
-5.0661 5.1431 -2.3997 0.9700
-5.4084 3.8141 -2.1999 0.9725
-13.6126 4.9095 -4.8102 0.9408
-6.7923 -1.3065 -2.2992 0.9713
-6.7901 -1.9480 -2.3481 0.9707
-6.5805 -2.5429 -2.3450 0.9707
-6.3198 -3.1163 -2.3422 0.9707
-6.0102 -3.6640 -2.3398 0.9708
-4.8144 -5.1139 -2.3347 0.9708
-4.3371 -5.5209 -2.3337 0.9708
-3.4276 -6.4703 -2.4339 0.9696
-2.2237 -6.9793 -2.4349 0.9696
-1.5927 -7.1531 -2.4359 0.9696
0.3598 -7.3365 -2.4416 0.9695
1.0142 -7.2829 -2.4442 0.9695
1.6621 -7.1721 -2.4472 0.9694
2.2986 -7.0046 -2.4505 0.9694
4.0912 -6.1747 -2.4621 0.9693
4.5369 -5.6736 -2.4148 0.9698
6.9460 -1.9279 -2.3962 0.9701
7.2052 -0.6649 -2.4052 0.9700
7.2338 0.6287 -2.4136 0.9699
7.1604 1.2738 -2.4175 0.9698
7.0286 1.9106 -2.4211 0.9698
6.8575 2.5404 -2.4309 0.9696
5.7834 4.9934 -2.5398 0.9683
4.2599 6.3555 -2.5433 0.9683
3.0622 7.0116 -2.5433 0.9683
2.4236 7.2550 -2.5426 0.9683
1.7657 7.4390 -2.5415 0.9683
1.0941 7.5623 -2.5399 0.9683
0.4145 7.6238 -2.5379 0.9683
-0.2672 7.6232 -2.5355 0.9684
-0.9062 7.2473 -2.4278 0.9697
-1.5475 7.1287 -2.4248 0.9697
-3.3654 6.4353 -2.4140 0.9699
-3.9196 6.0989 -2.4099 0.9699
-4.4403 5.7145 -2.4056 0.9700
-7.6344 6.8529 -3.4101 0.9577
-9.3281 5.7550 -3.6434 0.9549
-12.3379 4.8433 -4.4059 0.9457
-6.4897 -0.4729 -2.1629 0.9729
-6.8448 -1.7585 -2.3491 0.9707
-6.4066 -2.9396 -2.3431 0.9707
-6.1121 -3.4958 -2.3405 0.9708
-5.7703 -4.0236 -2.3383 0.9708
-4.9562 -4.9783 -2.3350 0.9708
-4.4900 -5.3982 -2.3340 0.9708
-1.7915 -7.1047 -2.4356 0.9696
-1.1510 -7.2403 -2.4369 0.9696
-0.5006 -7.3195 -2.4387 0.9695
2.7271 -6.8571 -2.4530 0.9694
3.3333 -6.5966 -2.4568 0.9693
4.4679 -5.9190 -2.4651 0.9692
4.7804 -5.2780 -2.3671 0.9704
5.2421 -4.8394 -2.3715 0.9704
5.6639 -4.3606 -2.3761 0.9703
6.0423 -3.8453 -2.3807 0.9703
6.8853 -2.1199 -2.3947 0.9701
7.1797 -0.8654 -2.4038 0.9700
7.2413 -0.2216 -2.4082 0.9699
7.2448 0.4263 -2.4124 0.9699
7.1896 1.0729 -2.4163 0.9698
7.0760 1.7128 -2.4200 0.9698
6.9047 2.3408 -2.4235 0.9697
6.6711 3.6929 -2.5346 0.9684
6.3212 4.2778 -2.5371 0.9683
5.9192 4.8289 -2.5393 0.9683
4.9723 5.8111 -2.5423 0.9683
4.4353 6.2337 -2.5431 0.9683
3.8619 6.6056 -2.5435 0.9683
3.2569 6.9237 -2.5434 0.9683
2.6255 7.1852 -2.5429 0.9683
1.9730 7.3880 -2.5419 0.9683
-1.9804 7.0137 -2.4225 0.9697
-2.0051 3.3203 -1.2893 0.9838
-4.2814 5.8396 -2.4069 0.9699
-4.7767 5.4243 -2.4025 0.9700
-7.3725 6.9992 -3.3792 0.9581
-8.2128 6.5076 -3.4831 0.9568
-9.0575 5.9434 -3.6011 0.9554
-10.0802 5.3942 -3.8003 0.9530
-11.5583 4.9139 -4.1748 0.9484
-6.6880 -0.9028 -2.2433 0.9720
-6.8575 -1.5590 -2.3376 0.9708
-6.7176 -2.1733 -2.3469 0.9707
-6.4886 -2.7606 -2.3439 0.9707
-5.8820 -3.8620 -2.3390 0.9708
-5.0941 -4.8388 -2.3355 0.9708
-4.1492 -5.6625 -2.3335 0.9708
-3.7836 -6.2690 -2.4340 0.9696
-3.2090 -6.5816 -2.4340 0.9696
